# .PCD v0.7 - Point Cloud Data file format
VERSION 0.7
FIELDS x y z intensity ring
SIZE 4 4 4 4 2
TYPE F F F F U
COUNT 1 1 1 1 1
WIDTH 103
HEIGHT 1
VIEWPOINT 0 0 0 1 0 0 0
POINTS 103
DATA ascii
2.8472927 -0.84827375 -0.47055492 36 3
2.8885303 -0.88256109 -0.47837666 5 3
2.8898392 -0.90506673 -0.47962815 4 3
2.895999 -0.90866137 -0.37267649 30 4
2.9187505 -0.93429947 -0.59570575 28 2
2.921232 -0.93678021 -0.4858855 4 3
2.9179327 -0.93796933 -0.37633255 58 4
2.9364092 -0.96260351 -0.60066676 67 2
2.9390185 -0.96516347 -0.4899528 54 3
2.9435375 -0.96835512 -0.38047612 46 4
2.9423254 -0.97023344 -0.27105436 45 5
2.9449191 -0.99393648 -0.2719259 49 5
2.9895296 -1.0264603 -0.61440504 3 2
2.96822 -1.0208813 -0.49714881 4 3
2.9896088 -1.0305723 -0.38827574 56 4
2.9812236 -1.0294285 -0.27593508 47 5
2.984014 -1.0327243 -0.16548631 27 6
2.991369 -1.0510805 -0.6163131 5 2
2.9869254 -1.0512764 -0.50152892 47 3
2.9933898 -1.0559011 -0.3897382 52 4
2.9963238 -1.0587003 -0.27802682 55 5
2.9934919 -1.0600511 -0.16642836 6 6
3.0003989 -1.0784358 -0.61974764 50 2
3.007205 -1.0826604 -0.50622195 51 3
3.0175009 -1.0887475 -0.39388174 48 4
3.0158758 -1.0923272 -0.16810311 6 6
3.0340204 -1.1006962 -0.056336369 9 7
3.007834 -1.1030926 -0.73963904 13 1
3.0239315 -1.1113919 -0.62623513 50 2
3.0179183 -1.1109757 -0.50935066 47 3
3.0431559 -1.1226795 -0.39826906 8 4
3.0182433 -1.1152846 -0.28151307 5 5
3.0435686 -1.1270581 -0.17009188 5 6
3.0260034 -1.1325804 -0.74593771 51 1
3.0326743 -1.1393032 -0.51310509 46 3
3.0711432 -1.1555904 -0.4029001 49 4
3.053658 -1.1514456 -0.28552222 47 5
3.0455692 -1.1502172 -0.17061524 6 6
3.0728602 -1.1740257 0.057418417 36 8
3.1543076 -1.2070369 0.17700022 22 9
3.0763555 -1.1784387 -0.64035505 61 2
3.0486224 -1.169646 -0.5171724 52 3
3.0796776 -1.1834111 -0.40509373 62 4
3.0845904 -1.187771 -0.28918275 4 5
3.0616901 -1.180794 -0.17197597 5 6
3.0853245 -1.1917651 -0.05773256 5 7
3.1140203 -1.2134796 -0.89551395 2 0
3.0999851 -1.209257 0.058081608 51 8
3.0570951 -1.1931411 -0.75763518 48 1
3.1420834 -1.2275749 0.17679088 34 9
3.0753672 -1.2027472 -0.64188147 63 2
3.071651 -1.2031484 -0.52249116 42 3
3.0861247 -1.2106819 -0.40704364 8 4
3.0986872 -1.2174826 -0.29127449 5 5
3.0942569 -1.2182364 -0.17427875 5 6
3.0955322 -1.2206109 -0.058081608 32 7
3.1072679 -1.2359039 -0.89603156 6 0
3.1288424 -1.2451175 0.058779709 46 8
3.0794673 -1.2267141 -0.76528347 58 1
3.0871677 -1.231655 -0.6460793 56 2
3.1070836 -1.2440029 -0.41094348 3 4
3.1196997 -1.25095 -0.29406345 5 5
3.1285212 -1.256389 -0.17668621 44 6
3.1184728 -1.2548827 -0.058674991 50 7
3.1552761 -1.2812247 0.059442896 44 8
3.0909059 -1.2557151 -0.77023244 60 1
3.1187921 -1.2714858 -0.5334416 4 3
3.126111 -1.2763788 -0.41459954 2 4
3.1237991 -1.27798 -0.29528365 47 5
3.1603332 -1.2948585 -0.17898898 28 6
3.1450088 -1.2905034 -0.059338182 17 7
3.0982666 -1.2839776 -0.7742815 30 1
3.158515 -1.3115301 -0.66477859 7 2
3.140847 -1.3061223 -0.53876036 9 3
3.1611044 -1.316488 -0.42044926 5 4
3.1387045 -1.3097315 -0.29754972 3 5
3.1709716 -1.3270965 -0.060001373 61 7
3.156513 -1.3366106 -0.66630507 50 2
3.1316521 -1.3280175 -0.53876036 5 3
3.1701083 -1.3462843 -0.42288667 4 4
3.170053 -1.3482202 -0.30138457 4 5
3.1639948 -1.348253 -0.18024506 46 6
3.1947355 -1.3633292 -0.060629662 59 7
3.1551797 -1.3634073 -0.54439199 2 3
3.1879578 -1.3802133 -0.42654276 4 4
3.2227144 -1.397265 -0.30731115 65 5
3.2078729 -1.392826 -0.18328053 52 6
3.201643 -1.3927785 -0.060943801 50 7
3.188972 -1.40451 -0.55190086 3 3
3.2091186 -1.416059 -0.4306863 63 4
3.2055917 -1.4165084 -0.30661389 58 5
3.2254672 -1.4273102 -0.1848506 49 6
3.2119508 -1.4240112 -0.061327755 13 7
3.2208807 -1.4481968 -0.43361115 49 4
3.2265089 -1.4527589 -0.3095772 43 5
3.2497628 -1.4659586 -0.18683939 54 6
3.2594209 -1.4929674 -0.4401921 8 4
3.2359495 -1.4849505 -0.31149462 56 5
3.2575972 -1.49695 -0.1878861 52 6
3.2579937 -1.5226902 -0.31463224 47 5
3.261539 -1.5264285 -0.18872347 50 6
3.2835376 -1.5619483 -0.31811845 47 5
3.3174584 -1.6087252 -0.19322437 32 6
