# .PCD v0.7 - Point Cloud Data file format
VERSION 0.7
FIELDS x y z intensity ring
SIZE 4 4 4 4 2
TYPE F F F F U
COUNT 1 1 1 1 1
WIDTH 121
HEIGHT 1
VIEWPOINT 0 0 0 1 0 0 0
POINTS 121
DATA ascii
2.4800303 0.71020097 -0.50144607 1 2
2.4622345 0.68654215 -0.49686664 31 2
2.4549627 0.68312949 -0.40360096 32 3
2.4859149 0.67447656 -0.50068283 7 2
2.4863658 0.6732015 -0.40798113 6 3
2.5304277 0.66762298 -0.50869679 7 2
2.5062873 0.65985054 -0.41048408 28 3
2.5266411 0.66379482 -0.32076016 24 4
2.5312233 0.64896584 -0.50793356 58 2
2.5471945 0.65163946 -0.4164286 47 3
2.5562179 0.65252215 -0.32392874 37 4
2.5789006 0.64394927 -0.61366647 7 1
2.5661736 0.63886857 -0.51403946 49 2
2.5746865 0.63955653 -0.42018303 45 3
2.5860419 0.63902271 -0.23305444 20 5
2.5795457 0.62501043 -0.61276668 46 1
2.601105 0.62831336 -0.52014536 52 2
2.6596529 0.63950926 -0.33587193 4 4
2.63694 0.632101 -0.23723793 42 5
2.6532168 0.62132877 -0.5296858 11 2
2.6333785 0.61522883 -0.42831761 5 3
2.6717863 0.62272692 -0.33684689 8 4
2.6684585 0.61998892 -0.23967829 44 5
2.688925 0.62326044 -0.1446566 30 6
2.6298242 0.59844726 -0.62266451 7 1
2.665148 0.60452908 -0.53121227 45 2
2.6819227 0.60685778 -0.43551362 23 3
2.6934958 0.60799295 -0.33904055 53 4
2.7038226 0.60834056 -0.24246727 51 5
2.6605821 0.5859409 -0.62896317 37 1
2.6923149 0.59095907 -0.5357917 56 2
2.7073205 0.59276718 -0.43895519 7 3
2.7345228 0.59722298 -0.34367159 34 4
2.715791 0.59114456 -0.24316452 42 5
2.7324975 0.59328282 -0.1465407 5 6
2.7517765 0.5959602 -0.049145978 10 7
2.6827843 0.57269216 -0.73504615 1 0
2.6951034 0.57384676 -0.63616157 45 1
2.7232618 0.57785398 -0.54113436 47 2
2.7365158 0.57916921 -0.44302243 3 3
2.7510467 0.57873416 -0.24595349 41 5
2.7737114 0.58198577 -0.14852946 6 6
2.7951179 0.5844391 -0.049844075 44 7
2.7038426 0.55698794 -0.73970485 43 0
2.7201385 0.55886042 -0.64111048 49 1
2.779299 0.56747597 -0.44927984 3 3
2.7874315 0.56761628 -0.34927759 46 4
2.7882133 0.56625533 -0.2489168 38 5
2.8169568 0.57004553 -0.15062289 34 6
2.8206916 0.56926411 -0.050228026 14 7
2.7493508 0.54638219 -0.75109291 6 0
2.8519862 0.56574291 0.0507516 36 8
2.7717628 0.54932779 -0.65235806 12 1
2.8197575 0.55679429 -0.55868876 9 2
2.8006365 0.55149382 -0.45209566 17 3
2.8166487 0.55311519 -0.35244617 43 4
2.8215237 0.55202711 -0.25153148 42 5
2.8501143 0.55452287 -0.050681788 5 7
2.7682779 0.53008008 -0.755234 22 0
2.9010413 0.55445385 0.051554412 51 8
2.7736166 0.52959704 -0.65190816 59 1
2.8139324 0.53526068 -0.5567807 51 2
2.831589 0.53708327 -0.45647582 50 3
2.8379958 0.53675932 -0.3546398 49 4
2.8737144 0.53987801 -0.1532397 5 6
2.903054 0.54381657 -0.051554412 12 7
2.7947092 0.51494294 -0.76144564 48 0
2.9343421 0.53961235 0.052077983 44 8
2.8136628 0.51691091 -0.6604563 50 1
2.8807349 0.52403748 -0.35951459 43 4
2.9034536 0.52607799 -0.25815532 29 5
2.9226186 0.52797025 -0.15564716 8 6
2.9402361 0.52956337 -0.052147791 44 7
2.8210633 0.49946117 -0.76765728 53 0
2.9754524 0.52572429 0.05274117 40 8
2.869472 0.50441575 -0.56632113 4 2
2.9030213 0.5087465 -0.46680051 8 3
2.9156108 0.50937957 -0.36341441 49 4
2.9188333 0.50784302 -0.25920117 43 5
2.9518158 0.51198947 -0.15700789 4 6
2.957655 0.51140726 -0.052392125 6 7
2.8359089 0.48169526 -0.77076316 44 0
2.9810221 0.50527167 0.05277608 11 8
2.872483 0.48636046 -0.67260367 3 1
2.9116421 0.49090013 -0.57395351 3 2
2.9142942 0.48977816 -0.46805197 54 3
2.9563808 0.494728 -0.36804545 40 4
2.9907818 0.49726585 -0.15889199 6 6
3.006614 0.49774155 -0.053194933 8 7
2.9124396 0.47171274 -0.68115181 3 1
2.9460089 0.47556704 -0.58005941 61 2
2.945029 0.47329965 -0.47243217 48 3
2.9911239 0.47910127 -0.37194526 13 4
3.0043383 0.47960463 -0.26617363 4 5
3.0060987 0.47773242 -0.15952002 5 6
3.0317416 0.48018035 -0.053578887 35 7
2.9368458 0.45464802 -0.68610072 30 1
2.9881434 0.46045357 -0.58769172 7 2
2.9912164 0.45932397 -0.47931525 33 3
3.0337219 0.46368349 -0.37682006 8 4
3.0529957 0.46499369 -0.27018279 7 5
3.0488532 0.46272957 -0.16161345 35 6
3.086509 0.46623909 -0.054486416 46 7
3.030133 0.44529006 -0.5953241 3 2
3.0139725 0.44076598 -0.48244393 51 3
3.0506358 0.44449636 -0.37852621 56 4
3.0739131 0.44624457 -0.27175158 5 5
3.0580635 0.42542967 -0.48901421 42 3
3.0871661 0.42728174 -0.38266978 36 4
3.1125548 0.42913494 -0.2748892 5 5
3.1421523 0.43153939 -0.16621901 5 6
3.0825722 0.4063758 -0.49245578 39 3
3.1431327 0.41101146 -0.27732956 3 5
3.1610048 0.41110426 -0.16705638 37 6
3.1499598 0.39123321 -0.3897382 3 4
3.1656985 0.39150506 -0.27907267 39 5
3.195446 0.39348549 -0.16873114 47 6
3.1703589 0.37130949 -0.39193183 32 4
3.2000186 0.37308493 -0.28186166 3 5
3.2461791 0.35494241 -0.28569651 3 5
3.2644346 0.33389145 -0.28709102 36 5
