# .PCD v0.7 - Point Cloud Data file format
VERSION 0.7
FIELDS x y z intensity ring
SIZE 4 4 4 4 2
TYPE F F F F U
COUNT 1 1 1 1 1
WIDTH 1346
HEIGHT 1
VIEWPOINT 0 0 0 1 0 0 0
POINTS 1346
DATA ascii
-4.5657163 9.5379219 0.18457665 11 8
-1.9917319 4.1626544 -1.0653682 17 1
-4.5818691 9.584548 0.55674994 18 9
-2.3683183 4.958602 -1.0681487 12 2
-4.1528134 8.6987324 0.84331894 2 10
-2.8421082 5.9586062 -1.0456082 8 3
-4.7933865 10.058569 1.3681054 6 11
-3.5512497 7.4553957 -1.0139531 8 4
-8.1525087 17.130531 3.0047934 6 12
-4.2219672 8.8754473 -0.85987854 8 5
-4.3228803 9.1039658 -0.52817452 12 6
-4.8429976 10.203926 2.6076326 6 14
-4.4321942 9.3468065 -0.1805626 11 7
-6.8907027 14.544529 4.3124433 11 15
-1.7010183 3.6148465 -1.0704756 12 0
-4.5577121 9.6900167 0.18691526 11 8
-1.9626225 4.1764579 -1.0653682 14 1
-4.7007842 10.007799 0.57946378 11 9
-2.3411839 4.9888258 -1.0712018 13 2
-4.6645908 9.9487867 0.96132785 9 10
-2.8081894 5.9921231 -1.0481111 8 3
-6.1936836 13.228098 1.7934294 4 11
-3.5008006 7.4836006 -1.0144405 8 4
-4.5550227 9.7416239 1.7032586 1 12
-4.2248387 9.0436993 -0.87330055 9 5
-7.390749 15.835083 3.3967817 5 13
-4.3342781 9.2906475 -0.53728098 12 6
-4.710721 10.106781 2.5743399 15 14
-4.4520931 9.5606117 -0.18408798 10 7
-4.4584012 9.5785265 2.8309629 21 15
-1.6763735 3.6263413 -1.0704756 11 0
-4.5905676 9.9394512 0.19110386 10 8
-1.9349656 4.1914897 -1.0658182 16 1
-4.722816 10.239875 0.59097767 11 9
-2.312052 5.0175295 -1.073873 15 2
-4.4859076 9.7396221 0.93814445 6 10
-2.7712455 6.0223479 -1.0499883 8 3
-4.6094689 10.026308 1.3549435 23 11
-3.4547534 7.5180798 -1.015903 8 4
-9.7122822 21.154892 3.6868479 3 12
-4.2404628 9.240654 -0.88951147 9 5
-7.3425279 16.015299 3.4246399 12 13
-4.3441634 9.4841061 -0.54670143 12 6
-8.0635633 17.612335 4.4720268 5 14
-4.4434752 9.7143517 -0.18646152 11 7
-4.4090915 9.6480713 2.8423507 16 15
-1.6494192 3.6344376 -1.0694402 11 0
-4.6169786 10.178072 0.19508299 10 8
-1.9096785 4.2137709 -1.0680676 10 1
-4.4296684 9.7787542 0.56261158 10 9
-2.2729881 5.022419 -1.0715834 11 2
-4.4867539 9.9231987 0.95278651 9 10
-2.7399509 6.0626731 -1.0537428 8 3
-3.389123 7.513063 -1.0120032 6 4
-4.3398914 9.6252232 1.6722846 7 12
-4.234766 9.4008265 -0.90206194 8 5
-8.2086868 18.239597 3.8879244 6 13
-4.3557119 9.6828508 -0.55643594 12 6
-4.5445666 10.112111 2.5594931 17 14
-4.4689279 9.9530983 -0.19044067 9 7
-4.673945 10.414585 3.0587237 4 15
-1.6224339 3.6423352 -1.068405 12 0
-4.5635409 10.254697 0.19592072 10 8
-1.8817984 4.2305617 -1.0689675 11 1
-4.6150708 10.385123 0.5955832 13 9
-2.2338037 5.0313778 -1.0700569 10 2
-4.6808257 10.547968 1.0096121 8 10
-2.6964974 6.0821242 -1.0537428 8 3
-4.6201682 10.430913 1.4007664 19 11
-3.2144403 7.2606359 -0.97495478 22 4
-7.9433222 17.958958 3.1102304 1 12
-4.2592611 9.6342545 -0.92158478 6 5
-7.9320283 17.958834 3.81618 5 13
-4.3806486 9.9275618 -0.56868255 13 6
-4.4950929 10.191734 2.5716403 4 14
-4.4839931 10.176199 -0.19410567 11 7
-4.7798839 10.857964 3.1788156 21 15
-1.6039295 3.6695044 -1.0730639 13 0
-4.6065145 10.543897 0.20084229 15 8
-1.8537766 4.2471676 -1.0698671 14 1
-4.7846661 10.967318 0.6270895 12 9
-2.2010734 5.050066 -1.0708202 11 2
-4.8655844 11.174074 1.0662633 10 10
-2.6581881 6.107583 -1.0549942 8 3
-4.3076358 9.9068832 1.326426 9 11
-3.1518097 7.2555895 -0.97129875 40 4
-7.8948474 18.182932 3.1396401 1 12
-3.1635468 7.2930555 -0.69550282 36 5
-7.7174654 17.808416 3.7726758 4 13
-4.3844185 10.122094 -0.57810301 11 6
-7.6581197 17.696863 4.4517813 0 14
-4.491405 10.388968 -0.19756125 10 7
-4.409306 10.203955 2.9784896 8 15
-1.5796764 3.6821122 -1.0735815 12 0
-4.6667171 10.888256 0.20677611 8 8
-1.824824 4.2596879 -1.0698671 10 1
-4.7629919 11.128985 0.63441652 11 9
-2.1703944 5.0761399 -1.0731099 10 2
-4.7721868 11.166628 1.0624285 7 10
-2.6232409 6.1441588 -1.0581229 8 3
-4.5109568 10.57579 1.4117346 18 11
-3.0984566 7.267745 -0.97008008 37 4
-7.890017 18.524755 3.1890736 1 12
-3.1036859 7.2905884 -0.69323677 53 5
-7.6667581 18.026747 3.8077846 2 13
-3.109293 7.3179302 -0.41669893 35 6
-4.1347613 9.7361603 2.4420688 13 14
-4.4955635 10.596023 -0.2009121 9 7
-4.2082901 9.9285564 2.889456 5 15
-1.5569305 3.7001724 -1.075652 11 0
-4.6715689 11.107786 0.21033642 9 8
-1.7965531 4.2759161 -1.070767 10 1
-4.8209147 11.479723 0.65252477 9 9
-2.1304777 5.0781221 -1.0704385 12 2
-4.8165679 11.491838 1.090144 9 10
-2.5912833 6.1855564 -1.0621902 7 3
-4.0832648 9.7565775 1.2986398 22 11
-2.7964804 6.6884813 -0.89013374 10 4
-7.7424126 18.526999 3.1803131 3 12
-3.0711346 7.356205 -0.6974203 15 5
-7.499155 17.980171 3.7867954 2 13
-4.5113535 10.843163 -0.20499596 8 7
-4.0523391 9.7447042 2.827857 21 15
-1.5317082 3.7106843 -1.075652 11 0
-4.7082605 11.417432 0.21557212 9 8
-1.7681487 4.2898474 -1.0712169 10 1
-4.857008 11.79566 0.66853952 11 9
-2.0942245 5.0910573 -1.0700569 11 2
-4.7086916 11.452489 1.0833459 5 10
-2.5562897 6.223597 -1.0656317 6 3
-2.726784 6.6485891 -0.88233411 6 4
-9.1886311 22.426498 3.8385894 1 12
-4.2703085 10.432816 -0.98625439 7 5
-7.4115329 18.116203 3.8047316 1 13
-4.420342 10.815528 -0.61233073 10 6
-7.7596431 19.004944 4.7392688 11 14
-4.5568218 11.166151 -0.21051092 10 7
-4.0133815 9.8443127 2.8485625 15 15
-1.5064901 3.7230783 -1.0761696 10 0
-4.5782256 11.325808 0.2132335 11 8
-1.742537 4.3129277 -1.0739163 8 1
-4.8477993 12.010785 0.67879742 8 9
-2.0630388 5.116478 -1.0723467 11 2
-4.7455492 11.775213 1.1107128 6 10
-2.5135193 6.2431231 -1.0659446 3 3
-4.2999797 10.691133 1.4149032 2 11
-2.6321781 6.5477424 -0.86649108 2 4
-8.4915056 21.144619 3.6089437 1 12
-3.6224337 9.0292997 -0.85116297 3 5
-7.9592953 19.849411 4.1569653 3 13
-4.4784117 11.17985 -0.6311717 5 6
-3.9871559 9.9635458 2.4776111 7 14
-4.5411363 11.353653 -0.21344294 9 7
-1.4740525 3.7173426 -1.0715109 4 0
-4.7457595 11.980307 0.22492662 9 8
-1.7116673 4.3231764 -1.0734664 7 1
-4.8835688 12.347071 0.69585896 17 9
-2.0287118 5.1344075 -1.0731099 11 2
-4.3946452 11.127962 1.0467404 1 10
-2.4285512 6.1557784 -1.0481111 1 3
-4.6029968 11.679401 1.5414037 5 11
-2.5572972 6.4920821 -0.85674155 4 4
-8.9447842 22.730906 3.8689375 1 12
-3.5477629 9.0203733 -0.84802538 9 5
-7.8657656 20.019608 4.1810069 4 13
-3.5669084 9.0876598 -0.51163632 4 6
-8.68538 22.139736 5.4906054 6 14
-4.587996 11.707173 -0.21948145 9 7
-3.8332858 9.7914553 2.8175042 19 15
-1.4004953 3.605092 -1.0363115 1 0
-4.7755656 12.299406 0.23030196 8 8
-1.6758064 4.3204856 -1.0698671 6 1
-4.8672733 12.555075 0.70569807 9 9
-1.996552 5.1554213 -1.0746363 7 2
-5.6259236 14.542118 1.3641616 6 10
-2.4393127 6.3085074 -1.0712634 1 3
-5.6356406 14.589931 1.9204172 17 11
-2.5119147 6.5097756 -0.85674155 3 4
-7.9148479 20.522459 3.4837959 1 12
-3.4933021 9.0672302 -0.85011709 7 5
-7.6722178 19.93478 4.1520038 4 13
-3.4992318 9.0968161 -0.51079899 11 6
-9.4470062 24.584618 6.0804267 3 14
-4.6179404 12.030154 -0.22492662 6 7
-3.732645 9.7289391 2.7921398 15 15
-4.779139 12.567955 0.23469996 9 8
-1.6553591 4.355473 -1.0757159 5 1
-4.9120708 12.937918 0.72527176 9 9
-1.9605117 5.1692343 -1.0746363 7 2
-4.4173503 11.653255 1.0903183 5 10
-2.4036059 6.3475509 -1.0750178 1 3
-5.5371585 14.638205 1.921636 17 11
-2.4853523 6.577291 -0.8633225 0 4
-5.5101085 14.589771 2.4701006 15 12
-2.9559021 7.834969 -0.73263115 7 5
-7.6457148 20.28731 4.2142076 2 13
-4.5050516 11.960129 -0.66979563 3 6
-8.1091452 21.55117 5.3160434 10 14
-4.64642 12.361591 -0.23051138 6 7
-8.0983372 21.556686 6.1702466 9 15
-4.8398895 13.000181 0.24213469 5 8
-1.6275461 4.3763404 -1.0779655 4 1
-4.9271712 13.262934 0.74149591 4 9
-1.9216421 5.1754327 -1.0731099 3 2
-4.3837342 11.819065 1.1028687 1 10
-2.3800838 6.4238629 -1.0850296 1 3
-2.4910259 6.7341166 -0.88160288 4 4
-5.4096732 14.639945 2.4719777 12 12
-2.8921587 7.8311172 -0.7303651 19 5
-5.3865242 14.600807 3.0250859 21 13
-2.9041061 7.8803902 -0.44014546 11 6
-5.3465219 14.515775 3.5713229 9 14
-4.6801519 12.720273 -0.23658483 4 7
-7.5333514 20.497114 5.8513813 2 15
-4.8309097 13.265594 0.24642798 8 8
-1.6002862 4.3967514 -1.080215 2 1
-4.9784617 13.693064 0.76358169 11 9
-1.8832182 5.1853604 -1.0723467 2 2
-6.1583452 16.965942 1.5790876 1 10
-2.3324854 6.4328942 -1.0837781 1 3
-8.6455002 23.869911 3.1171744 1 11
-2.4540875 6.7793417 -0.88525897 5 4
-2.8394485 7.856739 -0.73088807 8 5
-5.2857933 14.641749 3.0258491 24 13
-2.8679905 7.9530802 -0.44307625 5 6
-5.2364621 14.528915 3.565474 21 14
-4.6982589 13.049911 -0.24209979 4 7
-3.6603863 10.178256 2.8982558 13 15
-4.8660641 13.650402 0.25295517 4 8
-5.0143843 14.089791 0.78378338 3 9
-1.8544549 5.2165575 -1.0761628 1 2
-6.0124078 16.931547 1.571941 10 10
-2.312429 6.5156398 -1.0950414 1 3
-8.2294455 23.213486 3.0240662 1 11
-2.4769387 6.9946594 -0.91109526 0 4
-8.5922861 24.277334 4.0788727 3 12
-2.935277 8.3027792 -0.77045673 10 5
-2.9440756 8.3415632 -0.46359196 11 6
-4.704679 13.359657 -0.24723078 2 7
-3.211972 9.1259699 2.5923316 8 15
-4.918757 14.108897 0.26080877 4 8
-5.0511289 14.51303 0.80534577 3 9
-1.8244381 5.247921 -1.0799789 1 2
-5.8767476 16.913738 1.5665373 7 10
-5.9117379 17.052807 2.2160723 8 11
-2.9049859 8.3843689 -1.089512 0 4
-7.1899304 20.774981 3.4819188 1 12
-3.8120193 11.027127 -1.020768 1 5
-8.9968023 26.039957 5.3552456 3 13
-12.368394 35.879734 8.7618437 7 14
-4.7367425 13.748703 -0.25382781 3 7
-6.8721895 19.969606 5.6588197 4 15
-4.9317465 14.470342 0.26684731 2 8
-1.7953392 5.2828355 -1.0845585 1 2
-5.7572508 16.950577 1.5661887 8 10
-5.7600427 16.997784 2.2036417 11 11
-5.7850294 17.100969 2.8593097 13 12
-3.7483361 11.093108 -1.0244286 1 5
-6.8568444 20.304346 4.1657419 11 13
-15.203184 45.123177 10.992908 6 14
-6.8397694 20.335705 5.748889 8 15
-1.7522271 5.276608 -1.0807421 1 2
-5.6424909 17.041346 2.204129 20 11
-5.6500111 17.094046 2.8514876 18 12
-5.6501179 17.124453 3.5051615 16 13
-5.3692007 16.311331 3.9645374 1 14
-6.708487 20.415993 5.7582064 4 15
-5.0113106 15.404922 0.2827639 2 8
-1.3677149 4.2068934 -1.0212778 0 1
-1.7214038 5.3073874 -1.0845585 1 2
-8.231802 25.39518 2.3355994 2 10
-5.558198 17.187984 2.2180221 8 11
-5.538415 17.157516 2.8555553 9 12
-5.5153685 17.11677 3.4956212 19 13
-5.4991179 17.10721 4.1485476 9 14
-4.6941595 14.629351 4.116776 1 15
-8.1804085 25.913383 3.3365393 1 11
-5.4541268 17.308804 2.8743272 3 12
-3.5566485 11.293985 -1.0359331 1 5
-5.3238792 16.926371 3.4490635 7 13
-5.3965545 17.188868 4.1593451 7 14
-5.339036 17.047321 4.7865996 6 15
-1.4057096 4.5383101 -1.0968614 0 1
-7.989799 25.922935 3.3306894 1 11
-6.3596244 20.672274 3.4256022 5 12
-5.2942805 17.252163 3.5078328 1 13
-4.9539585 16.173365 3.9051502 1 14
-3.8944283 12.738091 3.5691149 1 15
-1.3883193 4.5925422 -1.107659 0 1
-6.5080466 21.651255 2.7759402 1 11
-6.7964187 22.653639 3.74598 1 12
-3.8397427 12.822915 2.6018715 4 13
-4.7873931 16.018129 3.8597102 3 14
-3.8015413 12.752009 3.5654914 7 15
-6.3823109 21.769339 2.7854459 4 11
-7.3110948 24.985807 4.1233001 1 12
-3.6175704 12.395213 2.5099015 8 13
-4.7250423 16.22142 3.9006512 4 14
-3.7297533 12.829532 3.5799851 5 15
-6.2705097 21.954618 2.8034828 2 11
-5.8498693 20.522537 3.3799233 1 12
-3.4998095 12.310638 2.4877679 9 13
-3.9271095 13.841221 3.3216274 3 14
-6.4954329 22.939089 6.3881721 1 15
-4.7859273 17.210808 2.1934047 0 11
-3.388566 12.21878 2.0083058 5 12
-3.4949479 12.628051 2.5469186 11 13
-6.2387056 22.587877 5.4100728 2 14
-3.9543195 14.356068 3.9899545 3 15
-3.3181009 12.271864 1.5609027 5 11
-3.2779713 12.148687 1.9929754 1 12
-3.4218438 12.717194 2.5598936 7 13
-3.7921944 14.123085 3.3760653 0 14
-3.7969992 14.170598 3.9309437 3 15
-3.2288136 12.281292 1.5591965 1 11
-3.2009718 12.210048 1.9992328 0 12
-3.3071408 12.642006 2.5400493 6 13
-4.0725021 15.601093 3.7224898 1 14
-3.3728673 12.957888 3.5877497 0 15
-5.6840692 22.234612 2.8178632 2 11
-3.1360333 12.294174 2.0095575 0 12
-3.2663217 12.832994 2.5740135 6 13
-5.8280544 22.964794 5.4699101 1 14
-3.2593477 12.871354 3.5577266 2 15
-5.1193471 20.624557 2.6092229 1 11
-5.4919386 22.175285 3.6183295 1 12
-3.1596961 12.786869 2.5602751 6 13
-3.3102043 13.436254 3.1947548 3 14
-3.3755319 13.732371 3.7891109 1 15
-3.0334764 12.596589 1.5908825 1 11
-5.3120728 22.109367 3.6014347 1 12
-3.1330473 13.070173 2.6125569 3 13
-2.1882572 9.1428757 -0.49269074 38 6
-3.2235744 13.48936 3.2019532 3 14
-3.1635463 13.268893 3.6550426 0 15
-2.9630675 12.69285 1.6003884 2 11
-3.1128197 13.397697 2.6736159 1 13
-3.1666965 13.672907 3.2401948 1 14
-5.1070409 22.103411 6.0786247 1 15
-2.9041507 12.844889 1.6169626 1 11
-2.9713688 13.206497 2.6312563 1 13
-2.1724517 9.6714048 -0.51948678 28 6
-3.0633121 13.648511 3.2293973 1 14
-5.0217719 22.447704 6.163517 1 15
-2.8836908 13.24802 2.6354539 0 13
-3.2267911 14.8617 3.5110362 0 14
-4.705296 21.726137 5.9564619 1 15
0.80341947 4.2560439 -1.1605446 1 0
0.92868584 4.9055395 -1.1526492 0 1
0.83125263 4.2408528 -1.1579564 2 0
0.96140468 4.8912888 -1.1508496 0 1
1.1772003 5.9671512 -1.1822525 1 2
0.86314803 4.246305 -1.1610622 3 0
0.99825305 4.8978238 -1.1539989 2 1
1.2105656 5.9183965 -1.1742386 2 2
0.88879156 4.2212715 -1.1558858 6 0
1.0344347 4.900269 -1.1562485 3 1
1.2559226 5.9290071 -1.1780548 2 2
0.91906232 4.218739 -1.1569211 7 0
1.0682038 4.8910236 -1.1557984 4 1
1.2960235 5.914341 -1.1769099 4 2
0.94849229 4.2122197 -1.1569211 7 0
1.1036109 4.8891501 -1.1571481 5 1
1.3381463 5.9089794 -1.1776732 6 2
0.97875112 4.2092586 -1.1579564 7 0
1.1394862 4.8889184 -1.1589478 6 1
1.3811569 5.9071393 -1.1791997 6 2
1.0076606 4.2004452 -1.1574388 9 0
1.1744983 4.884634 -1.1598476 6 1
1.4223628 5.8973536 -1.1791997 6 2
1.0323232 4.1745543 -1.1522624 9 0
1.2095085 4.8800983 -1.1607474 6 1
1.465391 5.8949008 -1.1807261 7 2
1.8471695 7.4141178 -1.2101772 1 3
1.0690734 4.1971984 -1.1605446 9 0
1.2430688 4.8696465 -1.1602976 8 1
1.5128394 5.9092522 -1.1856872 7 2
1.8939757 7.3819075 -1.2070485 1 3
2.5468543 9.9050026 -1.2557418 7 4
9.7828369 37.90929 7.6102266 7 13
1.0973675 4.1858959 -1.1595093 9 0
1.2750543 4.8533101 -1.1584979 8 1
1.5550573 5.9023438 -1.1864504 7 2
1.9479898 7.3780541 -1.2086128 2 3
2.6189935 9.8984938 -1.2572043 7 4
9.8371592 37.048805 7.4510918 10 13
1.1295813 4.1893239 -1.1626152 9 0
1.3119533 4.8555789 -1.1611973 8 1
1.5926346 5.878078 -1.1837791 9 2
2.0046268 7.383338 -1.2117414 3 3
9.8486633 36.149384 5.9341855 7 12
9.9761114 36.541733 7.3629379 6 13
1.1593169 4.183198 -1.1631329 10 0
1.3458197 4.8463011 -1.1611973 10 1
1.6367893 5.8781648 -1.1860688 10 2
2.0561197 7.3691635 -1.2117414 3 3
9.942627 35.514778 5.8412633 6 12
9.8990316 35.287876 7.1240454 12 13
1.1853173 4.1638551 -1.160027 10 0
1.3838944 4.8517804 -1.1647966 13 1
1.6875038 5.9005713 -1.1929379 10 2
10.646086 37.200832 3.3853035 14 10
2.1162226 7.3850136 -1.2167474 5 3
10.72251 37.295509 6.1463108 26 12
9.9957132 34.699108 7.0191002 21 13
1.2143596 4.1554775 -1.160027 11 0
1.4171871 4.8401299 -1.1643466 17 1
1.7325271 5.9018326 -1.1956092 13 2
2.1627116 7.3530035 -1.2139316 6 3
10.976657 37.271477 4.7706981 18 11
2.9145527 9.8900576 -1.2659788 1 4
11.011674 37.318268 6.16258 33 12
4.5061193 15.251503 -1.3913542 0 5
10.041216 33.963886 6.8843889 23 13
1.2438954 4.1487489 -1.1605446 13 0
1.4503825 4.8282518 -1.1638968 16 1
1.7776477 5.9027534 -1.1982806 13 2
10.936234 36.291222 3.3161016 9 10
2.2168455 7.3471813 -1.2154959 7 3
2.9858251 9.8770704 -1.2669538 1 4
11.170074 36.903942 6.1068892 15 12
4.6194196 15.242555 -1.393446 0 5
10.084941 33.256054 6.7550201 22 13
9.7364149 32.066452 -1.7562902 3 6
1.2739644 4.1436572 -1.16158 11 0
1.4846283 4.8198705 -1.1643466 15 1
1.8228709 5.9033289 -1.2009518 11 2
10.989334 35.566769 3.2568357 8 10
2.2756739 7.3560586 -1.2195632 7 3
3.061759 9.8787374 -1.2698786 2 4
11.214334 36.138329 5.9930048 14 12
4.7523141 15.295555 -1.4012901 1 5
10.129192 32.581173 6.6321397 23 13
9.8804998 31.742153 -1.7422642 3 6
1.3028595 4.1346626 -1.16158 12 0
11.096273 35.171513 0.64374948 4 8
1.5217588 4.8205395 -1.1670461 14 1
1.8622624 5.8848438 -1.199807 13 2
11.035302 34.850967 3.1982672 12 10
2.3401067 7.3814182 -1.2264463 7 3
3.1324539 9.8627977 -1.2706099 2 4
11.250836 35.381462 5.880372 21 12
4.8771219 15.318957 -1.4065193 0 5
10.169272 31.922291 6.5123115 25 13
10.169835 31.885519 -1.7539873 7 6
10.506317 32.881012 -0.6025269 12 7
1.3281326 4.1144357 -1.1584741 12 0
10.593168 32.777493 0.60127032 22 8
1.5595726 4.8227773 -1.1701953 20 1
1.9081413 5.8866415 -1.20286 14 2
10.731879 33.088245 3.0433042 3 10
2.3934083 7.3705387 -1.2273849 7 3
11.283906 34.707718 4.4811358 2 11
3.2085972 9.8633423 -1.2735348 2 4
11.284094 34.646538 5.7711811 20 12
4.9888916 15.29969 -1.4079139 1 5
10.207384 31.284985 6.3966813 26 13
10.626614 32.531387 -1.7935534 15 6
10.257166 31.363348 7.6181922 21 14
10.688969 32.664322 -0.59990901 30 7
1.3616763 4.1197362 -1.1626152 12 0
10.822979 32.706535 0.60134012 45 8
1.5950439 4.8173213 -1.171545 18 1
10.850776 32.733067 1.8072654 31 9
1.9522831 5.882493 -1.2047681 16 2
10.867159 32.725109 3.016809 37 10
2.4429364 7.3480263 -1.2264463 11 3
10.905928 32.765312 4.2400784 33 11
3.2911777 9.8821363 -1.278897 3 4
10.933979 32.792282 5.474894 42 12
5.1143484 15.329638 -1.4138404 1 5
10.241443 30.661776 6.2837224 28 13
10.920593 32.657196 -1.8046486 23 6
10.228036 30.568369 7.4418306 42 14
10.950397 32.689407 -0.60175902 30 7
1.3928787 4.1174502 -1.1646857 11 0
11.07613 32.72303 0.60301554 46 8
1.6292592 4.8079147 -1.1719949 18 1
11.106681 32.756805 1.8127084 31 9
1.9960653 5.8802218 -1.2070577 13 2
11.128055 32.744656 3.0256989 37 10
2.5017998 7.3574114 -1.2308265 10 3
11.156195 32.77113 4.2505593 38 11
3.3677771 9.881465 -1.2818218 3 4
11.191349 32.818066 5.4917893 36 12
5.2431388 15.357665 -1.419767 2 5
10.281259 30.080513 6.1791592 27 13
10.943589 32.000038 -1.7724097 3 6
10.398888 30.372698 7.4116874 15 14
11.158894 32.555412 -0.60071182 18 7
1.4284511 4.1297827 -1.1708974 12 0
11.224481 32.414371 0.59875721 22 8
1.6638621 4.8022375 -1.1733446 18 1
11.244771 32.418068 1.7982635 3 9
2.0364244 5.8642893 -1.2066761 13 2
11.202637 32.223923 2.9847355 15 10
2.5167601 7.2352853 -1.2133058 6 3
11.415391 32.780556 4.2620149 18 11
3.4379828 9.8614626 -1.2823093 3 4
11.398069 32.67572 5.4811516 24 12
5.3672996 15.369596 -1.4242991 1 5
10.318017 29.513184 6.0772672 25 13
11.024503 31.49864 -1.7489632 14 6
10.349176 29.552635 7.2290273 9 14
11.204641 31.959648 -0.5911479 17 7
1.4547437 4.1103492 -1.1683092 11 0
11.268467 31.803577 0.58894891 3 8
1.6988347 4.7920446 -1.1737946 16 1
11.284074 31.794689 1.768118 3 9
2.0796506 5.8532662 -1.2074393 19 2
11.242645 31.607933 2.9350569 21 10
2.6035731 7.3157253 -1.229888 3 3
11.594375 32.542824 4.2417846 2 11
3.5211327 9.8721333 -1.2869403 3 4
11.436399 32.046345 5.3891678 23 12
5.4905572 15.368316 -1.4277853 1 5
10.383489 29.031906 5.9933109 18 13
11.085326 30.960138 -1.7234231 14 6
10.407907 29.052202 7.1246495 20 14
11.231191 31.315851 -0.58071136 5 7
1.4828043 4.0962014 -1.167274 10 0
11.319981 31.237072 0.57994348 7 8
1.7390606 4.7962537 -1.1778437 17 1
11.34092 31.243778 1.74195 3 9
2.130199 5.8622227 -1.2124004 15 2
11.286017 31.04184 2.8897357 20 10
2.6585591 7.3043323 -1.2311394 8 3
11.505502 31.576813 4.1264963 4 11
3.5926869 9.8547707 -1.2879153 3 4
11.566549 31.692762 5.3434892 2 12
5.6209431 15.393245 -1.4337119 1 5
10.484135 28.680277 5.9356866 14 13
11.148153 30.463728 -1.7000813 10 6
10.440962 28.515862 7.0108247 25 14
11.31467 30.86867 -0.57387 2 7
1.5180655 4.103869 -1.1724503 10 0
11.354671 30.679199 0.57100785 3 8
1.7691149 4.7748604 -1.1755942 16 1
11.36729 30.663965 1.7138981 3 9
2.1755142 5.8623133 -1.2154534 15 2
11.323461 30.480429 2.8447635 19 10
2.6958249 7.2527394 -1.2255077 27 3
11.593487 31.157301 4.0818925 2 11
3.677336 9.8722343 -1.2935213 3 4
11.590918 31.100569 5.256824 5 12
5.7491651 15.40963 -1.4389412 1 5
10.299426 27.576456 5.7219806 1 13
11.245477 30.093412 -1.6836479 10 6
11.332121 30.260836 -0.56402689 2 7
10.327827 27.564323 7.8872519 2 15
1.5459664 4.0934396 -1.1724503 10 0
11.374796 30.086674 0.56144392 6 8
1.7981304 4.7535934 -1.1733446 13 1
11.373132 30.034721 1.6831244 3 9
2.2184756 5.8524899 -1.2165983 20 2
11.358262 29.948097 2.8022313 22 10
2.7513044 7.2466679 -1.2276978 30 3
11.597738 30.515215 4.0082831 2 11
3.7609863 9.8852844 -1.2986398 3 4
5.8849754 15.443592 -1.4459137 1 5
10.883555 28.531097 5.9356866 30 13
10.802233 28.303076 -1.5876638 20 6
10.510507 27.509893 6.7989206 22 14
10.877336 28.440241 -0.53149563 22 7
10.535188 27.53125 7.8986402 2 15
1.5745234 4.0804701 -1.1719327 12 0
10.942857 28.34437 0.53034377 16 8
1.8349104 4.7478752 -1.1751443 12 1
11.005493 28.447489 1.5985496 25 9
2.2670779 5.8569975 -1.220796 15 2
11.089256 28.619469 2.6852684 28 10
2.8080869 7.2396879 -1.229888 15 3
11.144725 28.717979 3.7823372 12 11
3.8299067 9.8587866 -1.2986398 3 4
11.191043 28.777714 4.8904548 2 12
6.0489988 15.546961 -1.45951 1 5
11.002673 28.249527 5.8929453 34 13
10.869543 27.878937 -1.5681947 24 6
10.53942 27.01828 6.6954432 20 14
10.967243 28.086065 -0.52629477 38 7
10.58212 27.071911 7.788383 4 15
1.5994298 4.0603919 -1.1693444 10 0
11.007499 27.915604 0.5237816 33 8
1.8687248 4.736763 -1.1755942 18 1
11.075444 28.044878 1.580232 31 9
2.309653 5.8424501 -1.2211776 14 2
11.137831 28.159689 2.6493602 30 10
2.8723807 7.2548027 -1.2358325 5 3
11.191238 28.237028 3.7294459 32 11
3.9015727 9.8391886 -1.2996148 3 4
10.958048 27.606449 4.7042975 25 12
6.2248383 15.666217 -1.4748495 1 5
11.140153 28.022429 5.8616524 41 13
11.090482 27.869184 -1.571963 28 6
10.57311 26.542074 6.5960145 22 14
11.033479 27.683741 -0.52018642 2 7
10.611223 26.597239 7.6729498 26 15
1.6291791 4.052712 -1.1703798 10 0
11.100594 27.585777 0.51903456 31 8
1.9002925 4.719986 -1.1746944 16 1
11.207505 27.809412 1.571335 2 9
2.3547919 5.8371081 -1.2234674 14 2
11.255106 27.885403 2.6308832 22 10
2.918519 7.2235832 -1.2339553 2 3
11.299517 27.939224 3.7004411 52 11
3.9858043 9.8503542 -1.3047333 2 4
11.318096 27.943062 4.7750063 42 12
6.408927 15.807015 -1.4922807 0 5
11.350261 27.980362 5.8692851 60 13
11.311839 27.857693 -1.5757312 17 6
10.605522 26.09211 6.5024352 22 14
11.322162 27.841284 -0.52461934 15 7
10.561384 25.944572 7.5057526 54 15
1.6610978 4.0501761 -1.1729679 12 0
11.44481 27.877579 0.52601552 5 8
1.9339385 4.7084074 -1.1751443 14 1
11.481896 27.926291 1.5824301 28 9
2.3947353 5.8187118 -1.2230858 13 2
11.355456 27.577696 2.6092687 2 10
2.9673691 7.1993809 -1.2333294 2 3
11.393599 27.615597 3.6680238 14 11
4.0575008 9.8296299 -1.3057083 2 4
11.555898 27.96743 4.79284 46 12
6.5894375 15.939787 -1.5090145 0 5
11.580605 27.985703 5.8872213 62 13
11.350891 27.403461 -1.5544827 2 6
10.627686 25.644863 6.4088554 21 14
11.461852 27.630421 -0.5221411 4 7
10.681492 25.723913 7.463306 20 15
1.6893309 4.0384812 -1.1729679 12 0
11.53933 27.572142 0.52172226 2 8
1.9629949 4.6858048 -1.1728948 17 1
11.606854 27.692764 1.5736376 2 9
2.4441576 5.8258128 -1.2280468 13 2
11.59938 27.620831 2.6209474 22 10
3.027786 7.2063313 -1.2380226 2 3
11.617479 27.623405 3.6794796 18 11
4.1398897 9.8339968 -1.3100955 2 4
11.787402 27.986429 4.8097348 15 12
6.7779574 16.076984 -1.5264456 0 5
11.802429 27.967476 5.9005775 40 13
11.376335 26.944693 -1.5328157 5 6
10.653991 25.209238 6.3184252 24 14
11.456568 27.081947 -0.51327527 2 7
1.7167828 4.0268879 -1.1729679 12 0
11.540801 27.043983 0.51324034 5 8
1.9986732 4.6812949 -1.1751443 16 1
11.587974 27.115189 1.5453763 2 9
2.4840007 5.8068013 -1.2276652 15 2
11.625619 27.163914 2.5850394 21 10
3.08113 7.1922827 -1.239274 2 3
11.701301 27.288031 3.6455998 30 11
4.2036009 9.7982912 -1.3091207 2 4
11.813357 27.509581 4.7418423 2 12
6.9713883 16.226353 -1.545097 0 5
11.828083 27.504145 5.819675 24 13
11.417298 26.52339 -1.5133467 5 6
10.663456 24.760281 6.2239456 26 14
11.487082 26.647081 -0.50650376 4 7
10.719819 24.843401 7.2500391 20 15
1.7487022 4.023664 -1.1755562 10 0
11.615389 26.713558 0.50845838 2 8
2.0398581 4.6868834 -1.1800933 16 1
11.609623 26.662115 1.5240232 2 9
2.5226843 5.7879586 -1.2272835 15 2
11.65565 26.71685 2.5501771 23 10
3.1347561 7.1820064 -1.2411512 2 3
11.738954 26.869406 3.6002645 20 11
4.2870154 9.8032627 -1.3137517 3 4
11.861773 27.111826 4.6870899 2 12
7.2027869 16.447393 -1.5708951 1 5
11.859019 27.054087 5.7418246 26 13
11.437931 26.081076 -1.492517 2 6
10.688797 24.349768 6.1393642 22 14
11.508722 26.192766 -0.49938318 2 7
10.739408 24.430304 7.1506529 28 15
1.7728381 4.0025258 -1.1729679 12 0
11.62308 26.21661 0.50056994 5 8
2.0764797 4.6814351 -1.1823426 12 1
11.634785 26.205969 1.5026702 5 9
2.5680239 5.778729 -1.2291917 16 2
11.68081 26.272537 2.5154891 22 10
3.1965101 7.1828523 -1.2452185 2 3
11.76856 26.42024 3.5512729 28 11
4.3578649 9.774148 -1.3139954 2 4
11.913846 26.70874 4.6320248 2 12
7.4372659 16.657406 -1.5959959 1 5
11.884895 26.593922 5.6620665 26 13
11.47916 25.674009 -1.4738853 5 6
10.722663 23.959599 6.0601811 22 14
11.550345 25.784899 -0.49317011 2 7
10.768581 24.028456 7.0554075 30 15
1.7998444 3.9862165 -1.1719327 11 0
11.657644 25.806797 0.49428704 2 8
2.1099262 4.6664562 -1.1823426 18 1
11.683665 25.816349 1.4850852 5 9
2.6172092 5.7803345 -1.2333894 13 2
11.718829 25.857998 2.4837642 22 10
3.2478275 7.1597948 -1.2452185 2 3
11.801786 26.004824 3.5064251 24 11
4.4424148 9.7796335 -1.3188702 2 4
11.947672 26.27755 4.5719543 2 12
7.6490717 16.815456 -1.6162161 1 5
11.910803 26.160101 5.5872693 28 13
11.510187 25.256802 -1.4546257 2 6
10.823367 23.738764 6.0232892 21 14
11.602223 25.423473 -0.48779476 2 7
10.794968 23.632725 6.9617147 42 15
1.8332802 3.9858396 -1.1755562 13 0
11.699854 25.413921 0.48835325 5 8
2.1408224 4.6480727 -1.181443 18 1
11.744876 25.476593 1.4702218 7 9
2.6675534 5.7810674 -1.2375872 11 2
11.743742 25.439093 2.4513423 21 10
3.2952442 7.131568 -1.2442799 2 3
11.825914 25.570169 3.4591396 26 11
4.5080762 9.742979 -1.318139 2 4
11.979759 25.86726 4.5150123 2 12
7.8722692 16.982626 -1.6376563 1 5
11.941175 25.74859 5.5170517 28 13
11.533186 24.846121 -1.4355755 5 6
10.861584 23.377937 5.9513049 22 14
11.627709 25.015451 -0.48151192 2 7
10.817071 23.250265 6.8711281 31 15
1.8610638 3.9729426 -1.1755562 14 0
11.708896 24.973133 0.48144206 2 8
2.1798427 4.6471267 -1.1850421 16 1
11.718723 24.960085 1.4451005 2 9
2.7028382 5.7516422 -1.2352976 5 2
11.780325 25.05718 2.4224067 21 10
3.3575675 7.1351995 -1.2489729 2 3
11.856117 25.172709 3.4164853 29 11
4.575985 9.7112694 -1.318139 2 4
11.958665 25.355989 4.4402361 1 12
8.1547804 17.274992 -1.6712985 1 5
11.973087 25.352156 5.4498868 24 13
11.172887 23.636448 -1.3701555 5 6
10.921196 23.083105 5.8955173 13 14
11.191205 23.643154 -0.45658985 18 7
10.844317 22.889606 6.7867537 33 15
1.8879213 3.9581106 -1.1750386 11 0
11.297123 23.663658 0.45770684 9 8
2.2206292 4.6493812 -1.1895411 14 1
11.31899 23.677568 1.375389 14 9
2.7234395 5.6918988 -1.2265203 6 2
11.420753 23.85833 2.3141594 6 10
3.414984 7.1276169 -1.2517889 2 3
4.6591311 9.7112989 -1.3225262 3 4
11.984885 24.958485 4.3851714 3 12
8.3718491 17.418764 -1.6908214 1 5
11.298653 23.476887 -1.3654453 37 6
11.342555 23.547043 6.0340872 39 14
11.323872 23.497797 -0.45529839 54 7
10.862853 22.521019 6.69979 36 15
1.9121327 3.9378827 -1.1729679 12 0
11.424465 23.506876 0.4562059 47 8
2.259851 4.6477857 -1.1931404 15 1
11.444685 23.517155 1.3706788 52 9
2.7579491 5.662158 -1.2242306 6 2
11.454373 23.505775 2.2876639 31 10
3.4689872 7.1124806 -1.253353 3 3
11.506271 23.570478 3.2205195 31 11
4.7320375 9.6892405 -1.3239887 3 4
11.542046 23.612394 4.1627216 22 12
8.5895739 17.556755 -1.7099956 1 5
11.599155 23.697771 5.1285648 10 13
11.509736 23.494284 -1.3710976 27 6
11.560706 23.57752 6.0624309 43 14
11.524641 23.493567 -0.45676437 50 7
10.879321 22.15851 6.6143799 34 15
1.9395777 3.9244375 -1.1729679 11 0
11.6344 23.519749 0.45802096 51 8
2.2887862 4.6249094 -1.1913408 17 1
11.657344 23.535118 1.3764358 57 9
2.8061311 5.6603556 -1.2280468 6 2
11.66777 23.52519 2.2974253 36 10
3.5211921 7.0933981 -1.2542918 6 3
11.686443 23.521576 3.2249069 51 11
4.8048673 9.6666346 -1.3254511 2 4
11.718048 23.554232 4.1667891 45 12
8.8415823 17.756756 -1.7354451 1 5
11.7328 23.552954 5.1148262 46 13
11.667227 23.400852 -1.3703649 7 6
11.760703 23.56773 6.0808768 48 14
11.717841 23.471582 -0.45791623 5 7
10.900772 21.815886 6.5346637 37 15
1.9721344 3.9211569 -1.1760738 12 0
11.826188 23.493324 0.45910302 11 8
2.319263 4.6053381 -1.190441 18 1
11.824062 23.458511 1.3767499 30 9
2.8491168 5.6476388 -1.2295732 6 2
11.873017 23.524982 2.3054438 31 10
3.5750811 7.0774589 -1.2558562 3 3
11.89963 23.53685 3.2383125 55 11
4.8668604 9.6222258 -1.3239887 2 4
11.933949 23.57407 4.1849351 45 12
9.1094122 17.978964 -1.7633349 1 5
11.952866 23.580791 5.1388683 54 13
10.682703 21.056767 -1.2374314 13 6
11.977005 23.587568 6.1074214 43 14
11.760059 23.150303 -0.45323899 1 7
10.923231 21.484388 6.4580531 37 15
2.0021033 3.912452 -1.1776267 13 0
11.837682 23.112955 0.45327392 4 8
2.3620241 4.6098452 -1.1958399 21 1
11.841723 23.091042 1.3600023 27 9
2.8920584 5.6345978 -1.2310997 6 2
11.906818 23.188068 2.2805171 21 10
3.6361389 7.0751691 -1.2599235 3 3
11.980124 23.290798 3.2158885 31 11
4.9420877 9.6039028 -1.3261824 2 4
9.4528856 18.338186 -1.8049954 7 5
12.148694 23.55784 5.1522245 10 13
11.719839 22.706778 -1.3391726 7 6
12.152129 23.524149 6.1128201 22 14
11.782761 22.799391 -0.44796836 3 7
10.948708 21.167374 6.3855839 40 15
2.0284767 3.8966658 -1.1771091 15 0
11.837046 22.719404 0.44716558 4 8
2.400454 4.6053391 -1.1989892 21 1
11.871453 22.756363 1.3451389 27 9
2.9295104 5.6107888 -1.2303365 6 2
11.927266 22.834188 2.2538474 21 10
3.6854477 7.0496101 -1.2599235 2 3
12.001625 22.937487 3.1785965 31 11
5.0228286 9.5955439 -1.3298384 2 4
12.100593 23.097183 4.1298704 3 12
9.5038776 18.125294 -1.7905275 1 5
12.152351 23.166466 5.0850601 4 13
11.733233 22.348545 -1.3228438 4 6
12.168299 23.157555 6.0394859 26 14
11.799271 22.445766 -0.44262794 1 7
10.962182 20.835688 6.3084555 40 15
2.0493014 3.8704593 -1.1734856 13 0
11.875518 22.410046 0.44269773 2 8
2.4371088 4.5970783 -1.2012386 26 1
11.89336 22.415344 1.3298568 27 9
2.966768 5.5867319 -1.2295732 6 2
11.951783 22.496996 2.2287467 21 10
3.7392101 7.0324297 -1.2614876 2 3
12.033696 22.613066 3.1452043 33 11
5.0859642 9.553236 -1.3288634 2 4
12.132419 22.769825 4.0863814 1 12
10.180516 19.090462 -1.8928484 10 5
12.181628 22.833366 5.0304885 4 13
11.75916 22.022951 -1.3083991 4 6
12.186389 22.803919 5.9693012 22 14
11.891584 22.242924 -0.44025442 1 7
10.980689 20.521883 6.2365041 42 15
2.0735247 3.8509552 -1.1719327 13 0
11.915956 22.111822 0.43843937 2 8
2.4663684 4.5748057 -1.1998889 22 1
11.921535 22.094467 1.315726 29 9
3.0131588 5.5797052 -1.2326262 6 2
11.976927 22.169344 2.2045174 20 10
3.7929087 7.0148435 -1.263052 2 3
12.052391 22.271864 3.1093748 28 11
5.1733217 9.5559044 -1.3342258 2 4
15.373972 28.37438 5.11134 2 12
10.322094 19.034687 -1.8944173 8 5
12.232141 22.547588 4.9862208 1 13
11.795402 21.724424 -1.2955244 2 6
12.205727 22.461449 5.9018159 27 14
11.872753 21.839611 -0.43390173 3 7
10.994432 20.207155 6.1640348 39 15
2.1096361 3.8533309 -1.1771091 11 0
11.011098 20.095535 0.39997426 24 8
2.4963732 4.5540586 -1.1989892 20 1
11.939068 21.762058 1.3008627 29 9
3.0520389 5.5585332 -1.2326262 6 2
11.999981 21.845957 2.1806366 20 10
3.8474991 6.9985795 -1.2649293 2 3
12.066926 21.931509 3.0735452 31 11
5.24157 9.5186405 -1.3342258 2 4
12.184187 22.117205 3.9994042 1 12
10.375848 18.819092 -1.8801236 7 5
12.252796 22.20508 4.9297414 1 13
10.98347 19.896517 -1.1910619 10 6
12.22087 22.119833 5.8343306 27 14
11.045608 19.976107 -0.39843845 1 7
11.01834 19.918606 6.0993299 45 15
2.137156 3.838136 -1.1771091 12 0
11.939361 21.433195 0.42824715 2 8
2.5402844 4.5565033 -1.2043879 23 1
11.960192 21.435377 1.286418 25 9
3.0945981 5.5439477 -1.2341527 6 2
12.006357 21.491663 2.1537926 4 10
3.9071209 6.9881091 -1.2680578 2 3
11.200299 20.024149 2.817132 6 11
5.3108034 9.487011 -1.3349569 2 4
12.172203 21.726149 3.944339 1 12
10.397864 18.551542 -1.8606008 7 5
12.282666 21.896399 4.8801312 2 13
11.827573 21.067863 -1.2662162 6 6
12.246181 21.804592 5.7735934 28 14
11.880479 21.136171 -0.42322087 1 7
11.059243 19.659092 6.0439425 33 15
2.1591392 3.8147166 -1.1745209 11 0
12.092428 21.34721 0.42824715 2 8
2.5816407 4.5556116 -1.208887 23 1
11.993279 21.146357 1.2740667 36 9
3.1341906 5.5216613 -1.2341527 6 2
12.053787 21.227137 2.1356642 20 10
3.9548361 6.9589448 -1.267745 2 3
12.125498 21.318724 3.0113916 46 11
5.3985033 9.4876604 -1.3403192 2 4
12.071393 21.197765 3.8636191 30 12
10.423803 18.289715 -1.8417752 7 5
12.283537 21.544056 4.8205991 1 13
11.857553 20.780088 -1.253865 9 6
12.26659 21.479496 5.7106075 31 14
11.9583 20.931177 -0.4207775 4 7
11.150192 19.500904 6.0190959 45 15
2.1857202 3.7995489 -1.1745209 11 0
12.034634 20.903534 0.42102185 4 8
2.6192176 4.5476098 -1.2115864 20 1
12.01893 20.851004 1.2612966 38 9
3.1756032 5.5047493 -1.2352976 7 2
12.073216 20.919859 2.113178 18 10
4.0102348 6.943141 -1.2699351 2 3
12.13991 21.001543 2.978487 30 11
5.4765377 9.4703598 -1.343244 2 4
12.102319 20.911238 3.8267004 30 12
10.437395 18.019953 -1.8219036 7 5
12.39623 21.393232 4.8060975 1 13
11.887112 20.498108 -1.2418277 6 6
12.293004 21.180965 5.6539197 30 14
11.936455 20.558384 -0.4149484 3 7
11.156983 19.200428 5.9502501 37 15
2.2160926 3.7908685 -1.1765914 13 0
12.022735 20.549757 0.4155767 4 8
2.6518867 4.5308957 -1.2120364 21 1
12.041039 20.556345 1.2485267 36 9
3.2248802 5.5010743 -1.2394953 6 2
12.101035 20.633989 2.0927837 13 10
4.062613 6.9217882 -1.2711866 2 3
12.160554 20.702322 2.9480195 33 11
5.5545845 9.4524355 -1.3461689 2 4
12.114826 20.599773 3.7850888 18 12
10.459861 17.771507 -1.8041239 6 5
12.31617 20.917061 4.7183251 5 13
11.028109 18.71455 -1.1384119 12 6
12.313853 20.879776 5.5963321 30 14
11.084902 18.788431 -0.38077661 15 7
11.24851 19.050543 5.9279919 25 15
2.2513812 3.7902541 -1.1812501 11 0
12.085181 20.329529 0.41281924 4 8
2.6804631 4.5072474 -1.2106866 21 1
12.060658 20.264111 1.2358613 32 9
3.2642109 5.4801126 -1.2398769 5 2
12.097927 20.30254 2.0676827 3 10
4.1189308 6.9068294 -1.2736895 2 3
12.180673 20.408964 2.9182835 33 11
5.6367216 9.4406977 -1.3500687 2 4
12.16006 20.350208 3.7547405 15 12
10.483462 17.530476 -1.7870414 6 5
12.333892 20.6166 4.6698594 4 13
11.033324 18.428043 -1.1256418 12 6
12.325102 20.569302 5.5360456 30 14
11.106819 18.52878 -0.37707669 15 7
11.552172 19.256487 6.0170255 34 15
2.2787852 3.776098 -1.1817677 10 0
11.644792 19.280952 0.39316782 46 8
2.7300038 4.5184474 -1.2187848 15 1
11.677888 19.312895 1.1827927 31 9
3.3034067 5.4588709 -1.2402586 6 2
11.722442 19.363676 1.9803529 14 10
4.1916156 6.9184537 -1.2811985 2 3
12.197283 20.116348 2.8885474 31 11
5.7138176 9.4197855 -1.3527498 2 4
12.23622 20.156754 3.7347169 19 12
10.501109 17.284878 -1.7694358 7 5
12.357194 20.332029 4.6248288 2 13
11.051688 18.169689 -1.1145467 12 6
12.346809 20.283005 5.4820571 27 14
11.116295 18.254375 -0.37306264 13 7
11.629019 19.081339 5.9875197 40 15
2.2990341 3.7502155 -1.1786621 10 0
11.669312 19.020216 0.38950279 46 8
2.760463 4.4976177 -1.2183349 18 1
11.720443 19.081137 1.1735816 43 9
3.3414338 5.4356771 -1.2402586 6 2
11.791589 19.174446 1.9693711 29 10
4.2439513 6.8957524 -1.2824498 2 3
11.874166 19.278553 2.7800837 52 11
5.7825603 9.3847389 -1.3534811 2 4
11.887267 19.277212 3.5870426 48 12
10.51689 17.041595 -1.7520047 6 5
11.917168 19.303074 4.409596 52 13
11.063839 17.906889 -1.1031374 14 6
11.947992 19.322832 5.2449589 35 14
11.117227 17.97225 -0.36887407 13 7
11.794479 19.052256 6.0040846 57 15
2.3312881 3.7439117 -1.1817677 11 0
11.847282 19.011267 0.39100373 50 8
2.7917969 4.4782352 -1.2183349 5 1
11.856529 19.003935 1.1738956 46 9
3.3876183 5.425539 -1.2433115 6 2
11.874491 19.010551 1.9610043 40 10
4.3014135 6.8810325 -1.2852658 2 3
11.900027 19.021849 2.7549787 52 11
5.8447781 9.3390923 -1.3527498 2 4
11.914607 19.022995 3.5551302 50 12
10.53613 16.809076 -1.7356194 6 5
11.946298 19.051413 4.3710527 60 13
11.084534 17.663429 -1.0928795 14 6
11.97793 19.072262 5.1995187 46 14
11.136035 17.724878 -0.3653836 15 7
11.984796 19.061029 6.0330725 67 15
2.3563344 3.7259138 -1.1812501 11 0
12.041744 19.026098 0.3930282 48 8
2.8083963 4.4355865 -1.2120364 6 1
12.061608 19.035421 1.1810133 56 9
3.4254155 5.4017553 -1.2433115 6 2
12.069889 19.026451 1.9712887 34 10
4.3398209 6.8358231 -1.2824498 2 3
12.09427 19.035492 2.7691157 46 11
5.9290066 9.3282137 -1.3571371 2 4
12.110726 19.039364 3.5739021 50 12
10.683181 16.782171 -1.7405002 6 5
12.122239 19.03545 4.3866992 56 13
11.210797 17.590664 -1.0931935 18 6
12.154801 19.057184 5.2184148 47 14
11.199273 17.552299 -0.36342892 13 7
12.171638 19.061563 6.0599895 55 15
2.3885524 3.7191257 -1.184356 12 0
2.8350782 4.4093151 -1.2102367 6 1
12.165024 18.905401 1.1781871 15 9
3.4715447 5.3909163 -1.2463645 6 2
4.3949285 6.8169842 -1.2846401 1 3
12.273144 19.02232 2.7795961 54 11
6.0112047 9.313282 -1.3610369 2 4
12.30873 19.055569 3.5929871 58 12
10.748171 16.62686 -1.7321332 17 5
12.328398 19.064108 4.4130306 57 13
11.391937 17.602509 -1.0988458 16 6
12.35216 19.071642 5.2458587 43 14
11.31611 17.46529 -0.3632544 28 7
12.370623 19.078247 6.0926003 58 15
2.4186797 3.7088323 -1.1864265 11 0
12.322613 18.881233 0.39355177 8 8
2.8636613 4.3861523 -1.2093369 5 1
12.178727 18.639439 1.1668826 43 9
3.5080211 5.3649058 -1.2459828 5 2
12.348544 18.877748 1.9735546 3 10
4.4532318 6.8026614 -1.2877687 1 3
12.296865 18.770126 2.7552223 36 11
6.065196 9.2544861 -1.3585995 1 4
12.341793 18.817207 3.5642033 26 12
10.761209 16.394854 -1.715748 13 5
11.539767 17.560947 -1.1012534 6 6
11.486115 17.459373 -0.3647902 19 7
12.466331 18.934946 6.0744834 40 15
2.4402454 3.6854146 -1.184356 11 0
12.250884 18.488028 0.38712928 3 8
2.8920572 4.3628058 -1.2084371 6 1
12.199252 18.389191 1.1565201 39 9
3.5486474 5.3451915 -1.2471277 6 2
12.302567 18.523867 1.9454904 3 10
4.5082688 6.7829232 -1.2899587 2 3
12.318764 18.520187 2.7310922 43 11
6.1631637 9.25877 -1.3656679 2 4
12.354614 18.553015 3.5304134 28 12
10.789224 16.190004 -1.7021517 12 5
12.476847 18.708252 4.3710527 6 13
11.675385 17.499891 -1.1025094 2 6
12.507949 18.733629 5.2004185 2 14
11.665195 17.458206 -0.36650056 15 7
12.487641 18.682026 6.0211668 46 15
2.4665554 3.6678584 -1.184356 12 0
12.209995 18.149851 0.38182375 5 8
2.9340858 4.3581638 -1.212936 6 1
12.221163 18.139099 1.1462622 38 9
3.5836806 5.3170328 -1.2463645 6 2
12.293311 18.225584 1.9233528 4 10
4.5611115 6.7570376 -1.2912103 2 3
12.336667 18.269222 2.7067184 41 11
6.2509928 9.2500563 -1.3707864 2 4
12.3764 18.300503 3.4991267 28 12
10.813791 15.983922 -1.6883811 16 5
12.469567 18.417479 4.3233504 4 13
12.07367 17.819342 -1.1280493 4 6
12.524717 18.478088 5.1536288 2 14
12.161724 17.929075 -0.37815875 4 7
12.497314 18.409975 5.9621558 46 15
2.4942818 3.653739 -1.1853913 12 0
12.252701 17.934875 0.37913609 3 8
2.9578447 4.3279195 -1.2102367 6 1
12.248279 17.908264 1.1370511 40 9
3.6327252 5.3074532 -1.2501806 6 2
12.323446 17.997936 1.9083622 3 10
4.6081705 6.7250328 -1.2912103 2 3
12.361553 18.026585 2.6838069 40 11
6.350225 9.2569399 -1.3783424 2 4
12.395412 18.055683 3.4687784 38 12
10.868712 15.825923 -1.6796654 12 5
12.516666 18.211864 4.2954922 5 13
12.084594 17.570055 -1.1175821 6 6
12.556208 18.24892 5.1140375 1 14
12.186798 17.698795 -0.37508711 4 7
12.511544 18.156836 5.9083214 39 15
2.5285313 3.6489396 -1.1895324 12 0
12.241197 17.658783 0.37505224 3 8
2.9857657 4.3039622 -1.2093369 6 1
12.250319 17.652193 1.1260605 42 9
3.6687706 5.2826014 -1.2501806 6 2
12.393069 17.831303 1.8998208 3 10
4.649332 6.6870203 -1.2899587 2 3
12.355845 17.7579 2.6562645 42 11
6.4260435 9.2286682 -1.3807799 2 4
12.413013 17.820154 3.4396813 42 12
10.973243 15.741483 -1.6787939 12 5
13.500558 19.352594 4.5866671 2 13
12.109042 17.351452 -1.1088943 6 6
12.663218 18.132059 5.1059394 1 14
12.240175 17.513309 -0.37295792 4 7
12.531888 17.924013 5.8601809 45 15
2.5577531 3.6379664 -1.1916029 11 0
12.236462 17.391352 0.37117779 3 8
3.0217206 4.2931018 -1.2120364 6 1
12.266301 17.414381 1.1163261 40 9
3.7123446 5.2664895 -1.2524703 6 2
12.400494 17.585329 1.8825639 3 10
4.7107067 6.6753831 -1.294026 1 3
12.375312 17.523647 2.6340842 41 11
6.5436869 9.2625399 -1.3924793 2 4
12.420802 17.568537 3.4077687 44 12
11.111641 15.705152 -1.6831516 9 5
13.71703 19.380444 4.6152883 2 13
12.119058 17.110025 -1.0988458 6 6
12.671159 17.876282 5.0586991 2 14
12.212211 17.222416 -0.36852503 2 7
12.547145 17.681694 5.8094525 45 15
2.5898209 3.6294563 -1.1947087 11 0
12.416837 17.388504 0.37295792 3 8
3.0493529 4.2687302 -1.2111365 6 1
12.286516 17.18697 1.1072196 42 9
3.7535908 5.2468314 -1.2539968 6 2
12.420913 17.355757 1.8672247 9 10
4.7548943 6.6391215 -1.2934003 2 3
12.394437 17.293222 2.6123915 42 11
6.6440506 9.2666435 -1.4000351 1 4
12.43491 17.330521 3.3783591 41 12
11.165227 15.54952 -1.6747848 16 5
12.558891 17.483982 4.1844416 2 13
12.141448 16.890406 -1.0901581 6 6
13.950718 19.393061 5.5153499 1 14
12.380037 17.203287 -0.36995614 4 7
12.555127 17.433769 5.7566533 45 15
2.6116972 3.6065934 -1.1931559 14 0
12.284471 16.951641 0.36541849 3 8
3.0882301 4.2599597 -1.2147356 6 1
12.301824 16.956896 1.0979037 40 9
3.7993562 5.2332077 -1.2570497 6 2
12.449281 17.141264 1.853454 10 10
4.8139033 6.6233411 -1.2968419 2 3
12.412102 17.065004 2.5909424 42 11
6.748291 9.2746077 -1.4083222 1 4
12.453264 17.102764 3.3508265 42 12
11.227749 15.408391 -1.6679865 14 5
14.140106 19.398029 4.6660433 4 13
12.147249 16.651941 -1.0802143 6 6
12.695469 17.390694 4.9709687 1 14
12.236836 16.756319 -0.36217234 2 7
12.565971 17.194393 5.7064424 48 15
2.6379561 3.5898292 -1.1936734 12 0
12.439241 16.915407 0.36650056 3 8
3.113276 4.2320166 -1.212936 6 1
12.316889 16.730667 1.0887973 39 9
3.8334694 5.2033944 -1.2562865 6 2
12.398433 16.822977 1.828353 3 10
4.8494725 6.5752645 -1.294026 1 3
12.422484 16.830996 2.5685184 39 11
6.84589 9.2719841 -1.4151469 1 4
12.472582 16.880367 3.3242328 46 12
11.166839 15.102146 -1.6432343 9 5
14.361572 19.415648 4.694283 4 13
12.169328 16.439911 -1.0719451 8 6
12.712172 17.160707 4.9304771 1 14
12.421383 16.76206 -0.36416191 4 7
12.578687 16.961937 5.6583023 52 15
2.6756566 3.5883613 -1.1993675 14 0
12.35013 16.550894 0.36046201 3 8
3.142745 4.2101789 -1.212936 6 1
12.328197 16.503466 1.0795861 39 9
3.8838084 5.1953745 -1.2608659 6 2
12.484545 16.69453 1.8238209 4 10
4.8999934 6.547575 -1.2952776 1 3
12.427827 16.594501 2.5456071 41 11
6.9675851 9.3002224 -1.4268464 1 4
12.488218 16.656958 3.2973261 45 12
11.190698 14.915442 -1.6313812 10 5
14.587513 19.435816 4.7236676 5 13
12.186655 16.225193 -1.0634668 12 6
14.433419 19.20257 5.5459433 1 14
12.301359 16.360064 -0.35728565 4 7
12.589927 16.731699 5.6106796 50 15
2.7064688 3.5772989 -1.2019557 16 0
12.359161 16.323967 0.35739037 5 8
3.1697061 4.1850305 -1.2120364 6 1
12.336956 16.276922 1.0703751 39 9
3.9199843 5.1681342 -1.2608659 6 2
12.510475 16.487919 1.8107476 8 10
4.9503627 6.5194998 -1.2965289 1 3
12.450891 16.385639 2.5268393 44 11
7.0611744 9.2892818 -1.4326961 1 4
12.498949 16.431019 3.2697935 46 12
11.060427 14.529408 -1.5975647 10 5
12.594937 16.539227 4.0409532 6 13
12.208828 16.020582 -1.0556163 14 6
12.62437 16.553873 4.8063045 2 14
12.314596 16.141834 -0.35438859 4 7
12.606786 16.512878 5.5666804 52 15
2.7290246 3.5552518 -1.2009205 16 0
12.347352 16.073946 0.3537952 7 8
3.2083447 4.1751614 -1.2156355 6 1
12.360193 16.073235 1.0626293 45 9
3.953572 5.1375313 -1.2601026 6 2
12.429602 16.145996 1.7826835 2 10
5.001781 6.4926071 -1.2980933 2 3
12.465603 16.169395 2.5068526 41 11
7.1953697 9.3265314 -1.4463456 1 4
12.502328 16.199484 3.2410095 47 12
11.1689 14.461299 -1.5986106 6 5
12.601318 16.304205 4.0054626 1 13
12.222644 15.808553 -1.0472425 14 6
12.652577 16.352823 4.7734613 4 14
12.374699 15.982149 -0.35281786 5 7
12.616475 16.288534 5.5206108 46 15
2.7579575 3.5402045 -1.2024734 14 0
12.364612 15.86591 0.35110751 7 8
3.2429333 4.1582427 -1.2174351 6 1
12.376589 15.858416 1.0542556 45 9
3.9917588 5.1128998 -1.2608659 6 2
12.542369 16.053499 1.7823349 4 10
5.0566301 6.4675431 -1.3002834 2 3
12.480346 15.956884 2.4873536 44 11
7.316587 9.3479786 -1.4575576 1 4
12.520482 15.985192 3.2159801 47 12
11.020134 14.064607 -1.5632254 8 5
12.488306 15.926927 3.9340999 46 13
12.231888 15.588698 -1.0384501 8 6
12.662953 16.132261 4.7347698 4 14
12.322919 15.687791 -0.34821042 3 7
12.692118 16.146198 5.5030107 23 15
2.7862008 3.5254097 -1.2040263 15 0
12.415807 15.698602 0.34936228 5 8
3.2791409 4.14467 -1.2201345 6 1
12.397727 15.658885 1.0467192 43 9
4.0379972 5.0965157 -1.2639189 6 2
12.555132 15.840631 1.7683899 5 10
5.0918388 6.4197016 -1.2977805 2 3
12.499184 15.747445 2.4685855 45 11
7.4680729 9.4054976 -1.4746192 1 4
12.540838 15.782948 3.1928279 47 12
11.162656 14.038409 -1.569152 4 5
12.503865 15.719512 3.9043341 51 13
12.255837 15.396666 -1.0313325 6 6
12.688212 15.928448 4.7014771 4 14
12.358614 15.509108 -0.34615105 3 7
2.8155766 3.5119026 -1.2060968 12 0
12.490062 15.567867 0.34838495 4 8
3.2982383 4.1095176 -1.2165353 6 1
12.407942 15.448935 1.0384501 35 9
4.0808587 5.0773821 -1.2662085 6 2
12.54431 15.601982 1.7514818 8 10
5.141489 6.3901515 -1.299032 1 3
12.504242 15.529922 2.4481115 44 11
7.6082706 9.4458866 -1.4892435 1 4
12.547825 15.567359 3.1668599 51 12
11.110279 13.774049 -1.5482345 6 5
12.501113 15.492797 3.8696065 52 13
12.748896 15.777328 4.6830311 1 14
11.951173 14.784844 -0.33184007 2 7
12.760802 15.77516 5.4367528 1 15
2.8497767 3.5041509 -1.2102379 9 0
11.939551 14.670682 0.33016464 19 8
3.3366885 4.0984831 -1.2201345 6 1
12.009625 14.741015 0.99647671 4 9
4.1186895 5.0518098 -1.2669718 6 2
12.061079 14.788352 1.6695553 2 10
5.1909719 6.3602233 -1.3002834 1 3
12.107554 14.824194 2.3501287 42 11
7.7343173 9.4663286 -1.5009429 1 4
12.141042 14.849321 3.0379574 48 12
11.201122 13.689981 -1.5475373 8 5
12.186174 14.888607 3.7398565 45 13
11.903907 14.533376 -0.9845441 40 6
12.200291 14.884627 4.443233 22 14
11.945065 14.568058 -0.32883826 42 7
12.229727 14.904615 5.1660285 15 15
2.8495843 3.4543653 -1.1998851 9 0
11.988206 14.522206 0.32869864 48 8
3.3726652 4.0841045 -1.222834 6 1
12.038461 14.567513 0.9904058 56 9
4.1438456 5.0108314 -1.2639189 6 2
12.063705 14.582506 1.6557848 31 10
5.2478414 6.3390465 -1.3034122 2 3
12.174025 14.694975 2.3430603 34 11
7.8838129 9.5129824 -1.5170298 1 4
12.163711 14.666887 3.0179341 20 12
11.138651 13.42133 -1.5259228 6 5
12.035711 14.486787 -0.9870562 48 6
12.032412 14.467399 -0.32845432 51 7
12.243261 14.710485 5.1282406 6 15
2.86991 3.429944 -1.1983322 6 0
12.149643 14.510215 0.33033916 56 8
3.3985908 4.0574727 -1.2219341 6 1
12.160389 14.507609 0.99208051 58 9
4.1938672 4.9998293 -1.2684983 6 2
12.158806 14.490304 1.6549132 31 10
5.297049 6.3083062 -1.3046635 1 3
12.185648 14.501722 2.3257549 46 11
8.0257845 9.544445 -1.5311666 1 4
12.19842 14.501485 3.0013521 42 12
11.591333 13.770035 -1.5747299 14 5
12.211195 14.490998 -0.99312723 40 6
12.222037 14.48332 -0.3307929 52 7
12.259675 14.522794 5.0925236 45 15
2.896883 3.4122639 -1.1993675 6 0
12.323136 14.510395 0.33229381 56 8
3.4325881 4.0389872 -1.2237337 6 1
12.344113 14.514548 0.9985702 55 9
4.231215 4.9734197 -1.2692615 6 2
12.356468 14.513671 1.6676379 31 10
5.3420548 6.2702398 -1.3046635 1 3
12.372863 14.517523 2.3420851 48 11
8.1875448 9.5999498 -1.5492033 1 4
12.395484 14.523515 3.0241914 46 12
12.287456 14.391852 -1.6556104 33 5
12.409866 14.524959 3.7135251 54 13
12.328854 14.419944 -0.99427861 14 6
12.435866 14.539968 4.4171391 42 14
12.451253 14.537401 5.1287584 50 15
2.9244146 3.3963497 -1.2009205 7 0
12.499752 14.506675 0.33424848 16 8
3.4530663 4.0060701 -1.2210344 6 1
12.488194 14.477925 1.0020244 13 9
4.276958 4.9549041 -1.2723144 6 2
12.539527 14.522057 1.6786195 31 10
5.4011974 6.2507281 -1.308418 1 3
12.566022 14.53222 2.3589032 50 11
8.3063135 9.6026096 -1.5589528 1 4
12.592247 14.547149 3.0473437 52 12
12.603536 14.544794 3.7410014 49 13
12.33763 14.227895 -0.98695159 10 6
