# .PCD v0.7 - Point Cloud Data file format
VERSION 0.7
FIELDS x y z intensity ring
SIZE 4 4 4 4 2
TYPE F F F F U
COUNT 1 1 1 1 1
WIDTH 85
HEIGHT 1
VIEWPOINT 0 0 0 1 0 0 0
POINTS 85
DATA ascii
2.975848 1.2552118 -0.51154077 50 3
3.0328925 1.2525461 -0.4029001 35 4
3.0649107 1.2414184 -0.52374262 6 3
3.0585544 1.2369801 -0.40509373 53 4
3.0992081 1.2301927 -0.52812284 40 3
3.1077161 1.2316867 -0.410456 44 4
3.1237071 1.2355037 -0.29388916 39 5
3.1611958 1.2312272 -0.65943593 7 2
3.1298134 1.2171174 -0.53187722 45 3
3.153249 1.2243308 -0.41533077 48 4
3.164211 1.2070302 -0.65829104 32 2
3.1714623 1.2078944 -0.5375089 29 3
3.1914065 1.2135777 -0.41923055 45 4
3.1834977 1.2080255 -0.29789832 45 5
3.2124567 1.2170906 -0.1800357 21 6
3.2093439 1.1986486 -0.66592342 56 2
3.2094319 1.196767 -0.5425148 45 3
3.2146838 1.1968087 -0.42118049 46 4
3.2198682 1.1961801 -0.300513 52 5
3.2283652 1.1974136 -0.1804544 5 6
3.2434487 1.1856506 -0.67126608 51 2
3.2473991 1.1851676 -0.5475207 50 3
3.2528031 1.1852103 -0.4250803 42 4
3.2629297 1.1843866 -0.1819198 5 6
3.291971 1.1929779 -0.061118327 3 7
3.2775271 1.1722344 -0.67660874 58 2
3.2890799 1.1744244 -0.55315232 10 3
3.3057113 1.1758114 -0.30696252 5 5
3.3106432 1.1756135 -0.18411791 6 6
3.3021042 1.1706347 -0.061153233 42 7
3.3270378 1.1618538 -0.55815822 6 3
3.3496354 1.167778 -0.43556106 7 4
3.3307762 1.1585943 -0.30853131 15 5
3.3489583 1.1629536 -0.18579267 6 6
3.391537 1.1631668 0.062584333 34 8
3.3274343 1.1405348 -0.81207329 21 1
3.3623068 1.1498637 -0.6907286 16 2
3.3462846 1.1424278 -0.56003547 43 3
3.3783753 1.151409 -0.4382422 21 4
3.3821683 1.1500671 -0.3125405 4 5
3.3853638 1.1491766 -0.18736275 4 6
3.407141 1.1545799 -0.062793761 4 7
3.4337034 1.1509 0.063212618 56 8
3.3482504 1.12161 -0.81522262 58 1
3.3963206 1.1350763 -0.69607127 50 2
3.4164648 1.137833 -0.44214204 3 4
3.426039 1.1383635 -0.3158524 5 5
3.4425924 1.1418625 -0.19008422 21 6
3.4511869 1.1427078 -0.063456953 44 7
3.4758613 1.1381025 0.063840903 46 8
3.385633 1.107903 -0.82242107 54 1
3.4558167 1.1261994 -0.57567888 3 3
3.4679401 1.127471 -0.44774801 3 4
3.4793849 1.129178 -0.32003587 47 5
3.4960811 1.1325735 -0.19259633 50 6
3.480206 1.1247469 -0.063840903 22 7
3.4698246 1.1060271 -0.70790142 2 2
3.4788473 1.1062303 -0.57818186 3 3
3.4965389 1.1098406 -0.45042911 56 4
3.498579 1.1084722 -0.32108176 24 5
3.5203934 1.1106511 -0.064434282 8 7
3.511395 1.091662 -0.71477056 26 2
3.518558 1.0918691 -0.58350062 47 3
3.5444932 1.0951719 -0.32456797 3 5
3.5575478 1.0971653 -0.19510846 37 6
3.5529063 1.0936971 -0.064888045 33 7
3.5896056 1.0844486 -0.4604224 6 4
3.5787594 1.0784481 -0.32700834 47 5
3.6091108 1.0855335 -0.19751592 39 6
3.6159973 1.0855407 -0.065900289 46 7
3.5959823 1.0610844 -0.59382528 20 3
3.6028011 1.061046 -0.46115363 39 4
3.632081 1.0669124 -0.33119181 55 5
3.6453507 1.0687375 -0.199086 33 6
3.6657109 1.0726228 -0.06666819 11 7
3.6444664 1.045723 -0.46554092 44 4
3.6758349 1.0519469 -0.33450374 22 5
3.6930523 1.0547825 -0.20128411 50 6
3.7109463 1.0368134 -0.47309685 16 4
3.7003627 1.031072 -0.33607253 55 5
3.7426596 1.0407462 -0.20358689 60 6
3.7401612 1.0140769 -0.33903584 46 5
3.7614017 1.0177221 -0.20421492 22 6
3.7856801 0.99810159 -0.34252208 21 5
3.81284 1.0031275 -0.20662238 39 6
