# .PCD v0.7 - Point Cloud Data file format
VERSION 0.7
FIELDS x y z intensity ring
SIZE 4 4 4 4 2
TYPE F F F F U
COUNT 1 1 1 1 1
WIDTH 1255
HEIGHT 1
VIEWPOINT 0 0 0 1 0 0 0
POINTS 1255
DATA ascii
2.7070241 -0.41229901 0.1435052 75 9
4.6461997 -0.70930862 -0.91359347 1 2
2.7061172 -0.41361073 0.23950398 8 10
5.5688028 -0.85314131 -0.89230233 1 3
2.7292728 -0.41910005 0.33904055 7 11
6.816824 -1.0528637 -0.60346633 18 5
2.7647793 -0.42751637 0.54380566 54 13
6.7796416 -1.0507556 -0.35954806 23 6
6.8283339 -1.0607432 1.5953529 7 14
6.8071198 -1.0586646 -0.12024708 26 7
6.7781491 -1.0565822 1.8381329 15 15
3.4191623 -0.54215389 -0.92760748 2 0
6.6120043 -1.0507878 0.11686131 31 8
3.9241261 -0.62432909 -0.91735035 2 1
2.7099969 -0.4321309 0.14381923 33 9
4.6566443 -0.74420649 -0.91664648 1 2
2.7070982 -0.43312231 0.23985259 8 10
2.7478123 -0.44308001 0.44083238 56 12
6.4729729 -1.0460742 -0.57365906 21 5
6.507803 -1.0540341 1.2814733 14 13
6.4507847 -1.0459546 -0.34248653 22 6
6.4745307 -1.0521244 1.5143706 9 14
6.4816051 -1.0555965 -0.11462741 25 7
6.4464726 -1.0510297 1.7501343 22 15
3.4018548 -0.56439346 -0.92398405 2 0
6.2947984 -1.0454837 0.11138126 32 8
3.923403 -0.65303326 -0.9182502 2 1
6.2726083 -1.0462986 0.33327541 23 9
4.6552076 -0.77734423 -0.91740966 1 2
2.7216153 -0.45544216 0.24142142 8 10
2.7368596 -0.45946649 0.34074673 61 11
6.0919933 -1.0249161 -0.75851488 1 4
2.7465193 -0.4630599 0.44114524 59 12
6.1472464 -1.0375218 -0.54542065 24 5
6.2060504 -1.0496747 1.2234674 17 13
6.1379128 -1.0403541 -0.32626238 29 6
6.1500163 -1.0435098 1.4401367 7 14
6.1389399 -1.0438352 -0.10869358 28 7
6.1150384 -1.0419676 1.662136 16 15
3.3902173 -0.58681095 -0.9219135 2 0
5.9738817 -1.0361639 0.10583139 27 8
3.9302685 -0.68240786 -0.92094964 3 1
5.9680285 -1.038368 0.31746995 24 9
4.645658 -0.80996168 -0.91664648 1 2
2.7360337 -0.4775143 0.24299021 36 10
2.7491436 -0.48178032 0.34269661 63 11
5.8461509 -1.0255747 -0.72877878 10 4
2.7646208 -0.48598474 0.44458681 48 12
5.8629971 -1.0327494 -0.52084273 10 5
5.9008226 -1.0404742 1.1646981 12 13
5.8295803 -1.0300106 -0.3102476 19 6
5.8583946 -1.0372107 1.3735511 7 14
5.8243375 -1.0322293 -0.10324844 22 7
5.8242035 -1.0343026 1.5850078 19 15
3.3803344 -0.60943633 -0.92036057 2 0
5.6910048 -1.0280756 0.10094472 30 8
3.9311614 -0.71086979 -0.92229939 3 1
5.6913929 -1.0312233 0.30312988 24 9
4.6360269 -0.84167308 -0.91588324 1 2
5.6612954 -1.0288317 0.50341159 21 10
5.5756726 -1.0152822 -0.8976211 3 3
2.7671947 -0.50488049 0.34537774 69 11
5.602561 -1.0232092 -0.69928634 12 4
5.5930414 -1.0255061 -0.49748495 12 5
5.6192131 -1.0313185 1.1105084 18 13
5.5865293 -1.0273359 -0.29768693 16 6
5.6133676 -1.0342971 1.3177633 7 14
5.5751057 -1.0282532 -0.09895514 20 7
5.5603828 -1.0275449 1.5151267 13 15
3.3892887 -0.63551277 -0.92398405 2 0
5.4792957 -1.029382 0.097314619 25 8
3.9165268 -0.73649615 -0.92004979 2 1
5.4858198 -1.0335819 0.29255801 17 9
4.6454716 -0.87693119 -0.91893619 1 2
5.4738617 -1.034297 0.48737493 15 10
5.4830494 -1.0380152 -0.88385481 10 3
2.765553 -0.52455652 0.3456215 65 11
5.5036192 -1.0448947 -0.68783063 9 4
2.7789121 -0.52859795 0.44802836 7 12
5.4898448 -1.0462509 -0.4889437 10 5
5.4575977 -1.0410925 1.0799789 13 13
5.4870186 -1.04869 -0.29276738 21 6
5.4758601 -1.0485387 1.2871699 5 14
5.489234 -1.0520927 -0.097558953 23 7
5.4240651 -1.0415653 1.4799274 12 15
3.3980432 -0.6617437 -0.92760748 3 0
5.46805 -1.0668435 0.097244807 27 8
3.9055519 -0.76270002 -0.9187001 2 1
5.4706302 -1.0703206 0.29213932 19 9
4.6585021 -0.91311753 -0.92275238 1 2
5.4645524 -1.0721024 0.48720059 20 10
5.4834228 -1.0777925 -0.88510633 9 3
2.7696142 -0.54538494 0.34659645 61 11
5.4786615 -1.0798366 -0.685637 8 4
2.8003476 -0.55296016 0.45209566 17 12
5.4726348 -1.0826182 -0.48807216 9 5
5.4463449 -1.0784054 1.0792158 13 13
5.4619322 -1.0834731 -0.29182532 18 6
5.4454708 -1.0821835 1.2817712 5 14
5.4719486 -1.0884383 -0.09738443 21 7
5.4242401 -1.0809168 1.481998 12 15
3.3856468 -0.68451107 -0.92553693 3 0
5.466156 -1.1071354 0.097349517 21 8
3.8999944 -0.79062784 -0.9187001 2 1
5.4569592 -1.1082473 0.29182532 19 9
4.6364579 -0.94329798 -0.91969937 1 2
5.4606452 -1.1119734 0.48754922 18 10
5.4871821 -1.1193721 -0.88698351 9 3
5.4690442 -1.1176608 0.68539321 8 11
5.4844079 -1.1217977 -0.68734318 9 4
2.7924485 -0.57219166 0.45146993 40 12
5.4686508 -1.1225528 -0.48842075 9 5
5.4519501 -1.1201162 1.081887 12 13
5.4657764 -1.1249456 -0.29245335 18 6
4.9241753 -1.015267 1.1607474 0 14
5.4640203 -1.1275666 -0.09738443 21 7
5.4201498 -1.1204861 1.4830333 12 15
3.3864577 -0.70931864 -0.92708987 3 0
5.4798212 -1.1497859 0.097733475 24 8
3.909637 -0.8210395 -0.92229939 2 1
5.4627705 -1.149195 0.29255801 15 9
4.6143913 -0.97240472 -0.91664648 1 2
5.4566488 -1.1508908 0.48789781 17 10
5.4908299 -1.1601024 -0.8888607 9 3
5.4611082 -1.1558143 0.68539321 10 11
5.4803267 -1.1608812 -0.68783063 9 4
5.4531007 -1.1571029 0.88291621 11 12
5.4665275 -1.1619463 -0.4889437 9 5
5.4593601 -1.1614187 1.0849401 12 13
5.467557 -1.1651574 -0.29297671 16 6
4.8712282 -1.0398554 1.1499498 0 14
5.4560151 -1.1656847 -0.09738443 21 7
5.4159737 -1.159107 1.4840684 12 15
3.3776472 -0.73212457 -0.92605454 2 0
5.4638443 -1.1863168 0.097593859 25 8
3.905714 -0.84872741 -0.92274922 2 1
5.4702272 -1.1907023 0.2933954 16 9
4.6189995 -1.0071046 -0.91893619 1 2
5.4484811 -1.1889571 0.48789781 16 10
5.4864573 -1.1992507 -0.88948649 27 3
5.4684196 -1.1973082 0.68734318 8 11
5.5011754 -1.2054862 -0.69148672 39 4
5.4429607 -1.194721 0.88260335 11 12
5.4446611 -1.1970862 -0.48772353 14 5
5.4492016 -1.1990818 1.0845585 13 13
5.4748931 -1.2067388 -0.29381409 52 6
4.7839279 -1.056192 1.1310539 0 14
5.4303842 -1.2018985 1.4902802 43 15
3.3781092 -0.75695425 -0.92760748 3 0
5.4320154 -1.2191775 0.097175002 14 8
3.8977923 -0.87554651 -0.92229939 2 1
5.4539866 -1.2271086 0.29297671 11 9
4.6463299 -1.0470957 -0.92580527 1 2
5.4225559 -1.2230202 0.48632905 8 10
5.3970246 -1.2192417 -0.87634599 5 3
5.4134607 -1.2249411 0.68149346 6 11
5.397758 -1.2223783 -0.6795435 6 4
5.3786206 -1.2200184 0.87353015 6 12
5.3603983 -1.2178526 -0.48092538 4 5
5.3468924 -1.2157656 1.0658592 6 13
5.3767548 -1.2245296 -0.28899917 8 6
4.7650375 -1.0869638 1.1283545 0 14
3.380271 -0.78226143 -0.92967808 4 0
5.2402549 -1.2146258 0.093893945 6 8
3.8915849 -0.90273666 -0.92229939 2 1
5.2449074 -1.2185982 0.28219551 6 9
4.6236095 -1.0759475 -0.92275238 1 2
5.2256603 -1.2170107 0.46942082 7 10
5.1921606 -1.2111198 -0.84443337 3 3
5.2153392 -1.218446 0.65760702 5 11
5.1182694 -1.1976522 -0.64542013 6 4
5.1872544 -1.2147493 0.84380758 6 12
5.184948 -1.2161185 -0.46593457 5 5
5.1756015 -1.2158325 1.0334216 6 13
5.1561518 -1.2122132 -0.27758995 8 6
4.7725081 -1.1237764 1.1319537 0 14
5.1732712 -1.2200496 -0.092776999 6 7
4.2680364 -1.0073482 1.1750386 1 15
3.3783445 -0.80732799 -0.93071336 18 0
5.0721698 -1.2130398 0.091031753 7 8
3.8869207 -0.93101478 -0.92274922 2 1
5.0767956 -1.2178937 0.27361241 7 9
4.6159854 -1.1082001 -0.92275238 1 2
5.0463462 -1.2133837 0.45408139 7 10
5.0124388 -1.2070817 -0.81658798 3 3
5.0445991 -1.2157581 0.63713294 6 11
4.9824247 -1.2026142 -0.62933332 9 4
5.0075431 -1.2105271 0.81596226 7 12
5.0078535 -1.2115272 -0.45076951 5 5
5.0048032 -1.2126387 1.0009841 8 13
4.986248 -1.2099857 -0.26890215 7 6
4.7645464 -1.1570672 1.1319537 0 14
4.985867 -1.212658 -0.089565754 7 7
4.1293306 -1.0058588 1.1388038 1 15
3.3351107 -0.82165098 -0.92036057 37 0
4.8866858 -1.2057126 0.087855421 2 8
3.880326 -0.95812774 -0.92274922 2 1
4.8975501 -1.2111139 0.26440126 7 9
4.6193709 -1.1440344 -0.92504203 1 2
4.8849759 -1.2107191 0.44031078 6 10
4.8524308 -1.2044508 -0.79187137 5 3
4.8778005 -1.2125558 0.61714637 6 11
4.8525457 -1.2071772 -0.61397779 36 4
4.841794 -1.2062973 0.79030699 7 12
4.8386064 -1.2072971 -0.43630162 4 5
4.8476434 -1.2104506 0.97121781 8 13
4.8246093 -1.2064885 -0.26063308 8 6
4.7410221 -1.1873442 1.1283545 0 14
4.8027058 -1.2036833 -0.086424313 6 7
4.0716171 -1.0219641 1.1248276 2 15
3.3274207 -0.84443897 -0.9198429 23 0
4.5699944 -1.1614797 0.082305551 8 8
3.8962061 -0.99095815 -0.92814809 2 1
4.7418809 -1.2078089 0.25644621 6 9
4.6112719 -1.1762555 -0.92504203 3 2
4.7161746 -1.203891 0.42584294 6 10
4.7118497 -1.2045393 -0.7702834 4 3
4.7346015 -1.2121165 0.60008472 6 11
4.7016988 -1.2045673 -0.59594113 5 4
4.6916628 -1.2037414 0.76715469 7 12
4.6756835 -1.2013814 -0.42235672 5 5
4.6869626 -1.2051514 0.94068843 8 13
4.6690726 -1.2022892 -0.25267801 8 6
4.6835551 -1.207762 1.116657 6 14
4.6567111 -1.2017064 -0.083946079 8 7
4.0325871 -1.042147 1.1160278 1 15
4.352838 -1.1386983 0.078535825 1 8
3.8759964 -1.0146797 -0.9249987 2 1
4.611619 -1.2089753 0.24985188 7 9
4.54598 -1.1934637 -0.91359347 11 2
4.5766191 -1.2023611 0.41398975 6 10
4.4205914 -1.1630195 -0.72397882 1 3
4.5839744 -1.2077153 0.582048 6 11
4.5223398 -1.1923208 -0.57424843 7 4
4.5341706 -1.1971329 0.74275094 7 12
4.5207915 -1.1952888 -0.40910906 9 5
4.5284972 -1.1981719 0.91054058 9 13
4.5061145 -1.1939328 -0.24430427 17 6
4.5337415 -1.2029468 1.0829144 7 14
4.5129175 -1.1982645 -0.081502736 11 7
4.0289469 -1.0712669 1.117063 1 15
3.3544855 -0.90134215 -0.93071336 2 0
4.3911266 -1.1815288 0.079373546 21 8
3.8518827 -1.0371543 -0.92094964 2 1
4.4835062 -1.2089032 0.24336222 7 9
4.4313965 -1.1965122 -0.89222288 7 2
4.3892355 -1.1859506 0.39777881 25 10
4.4066439 -1.1923047 -0.72304016 6 3
4.4010744 -1.1924468 0.5598678 28 11
4.4200258 -1.1984097 -0.56230521 5 4
4.4046707 -1.197548 -0.3993476 7 5
4.4044642 -1.1983174 0.88726187 10 13
4.3878288 -1.1954368 -0.23833798 8 6
4.3955112 -1.1991781 1.0518711 5 14
4.3886962 -1.1981418 -0.079408452 8 7
3.9803739 -1.0881603 1.105675 1 15
3.3536975 -0.92628169 -0.93226624 2 0
3.5121179 -0.97201633 -0.84131694 14 1
3.5414715 -0.9814713 0.19259633 1 9
3.5262411 -0.97857589 -0.71133596 22 2
3.5265632 -0.98065442 -0.57974619 25 3
3.5164492 -0.98048723 -0.44823548 25 4
3.4876521 -0.97311383 0.57348883 14 12
3.5288599 -0.98593926 -0.32055882 39 5
3.4806986 -0.97379327 0.70255876 29 13
3.5023472 -0.9805091 -0.19060758 24 6
3.4751 -0.97418934 0.83321869 40 14
3.5059333 -0.98415297 -0.063561663 28 7
3.4686558 -0.97434193 0.96539509 56 15
3.3488417 -0.95078373 -0.93278384 6 0
3.462429 -0.98368597 0.06282866 27 8
3.4824951 -0.99201465 0.18977019 37 9
3.4211445 -0.97518426 -0.69149184 21 2
3.4313362 -0.97938448 0.31219187 5 10
3.428288 -0.97980881 -0.5647285 23 3
3.4793317 -0.99505413 0.44433567 48 11
3.4179161 -0.97878057 -0.43653604 25 4
3.421735 -0.98116672 0.56378984 29 12
3.4050689 -0.97703105 -0.30992582 30 5
3.4492855 -0.99102139 0.69759774 26 13
3.4261427 -0.98566699 -0.18683939 33 6
3.4307606 -0.98764402 0.82422066 20 14
3.4201972 -0.98589605 -0.062130567 33 7
3.4059119 -0.98306602 0.94986594 28 15
3.2994649 -0.9617064 -0.92087817 2 0
3.3593209 -0.98042512 0.061083425 32 8
3.3296716 -0.97240251 -0.80082577 10 1
3.3758016 -0.98715335 0.18432724 33 9
3.3236396 -0.97315973 -0.67317414 22 2
3.3441107 -0.97978741 0.30487078 29 10
3.3190074 -0.97369063 -0.54783356 28 3
3.3730822 -0.99083322 0.43166125 27 11
3.3327432 -0.98024756 -0.42654276 27 4
3.3390017 -0.98272157 0.55127513 29 12
3.3081672 -0.9749015 -0.30173317 31 5
3.3234775 -0.98067439 0.67355579 23 13
3.3253179 -0.98184824 -0.18171045 28 6
3.3301663 -0.98454374 0.80172557 21 14
3.3210175 -0.98309976 -0.060455136 33 7
3.2952373 -0.97609383 0.92087817 25 15
3.2661901 -0.97804016 0.059512705 37 8
3.2348957 -0.96989983 -0.77968031 30 1
3.2825699 -0.98544264 0.17961702 36 9
3.2471955 -0.97544098 -0.65905434 23 2
3.2606957 -0.98073739 0.29789832 24 10
3.2249475 -0.97121292 -0.5334416 27 3
3.2710493 -0.9857195 0.4194743 26 11
3.2402976 -0.97768635 -0.41557449 26 4
3.2486815 -0.98145336 0.5375089 30 12
3.2230873 -0.97433519 -0.29458639 37 5
3.231992 -0.97825843 0.65638298 29 13
3.2207248 -0.97607541 -0.17637219 29 6
3.2486167 -0.98514748 0.78372949 21 14
3.2298822 -0.98069745 -0.058919325 35 7
3.2216287 -0.97941977 0.9022432 27 15
3.1711788 -0.9743703 0.057907082 33 8
3.1255977 -0.96096236 -0.75493574 27 1
3.1801672 -0.97895473 0.17438343 34 9
3.1519527 -0.97147399 -0.64111823 30 2
3.1661899 -0.97646725 0.28988001 24 10
3.142591 -0.97039074 -0.52092683 29 3
3.169086 -0.97978389 0.40728739 27 11
3.1442614 -0.97271013 -0.40411878 30 4
3.1587253 -0.97839284 0.52374262 30 12
3.1362774 -0.97203982 -0.28726533 37 5
3.1482069 -0.97694176 0.64073664 25 13
3.12991 -0.97246194 -0.17176662 33 6
3.1579199 -0.98176891 0.76348388 23 14
3.1408558 -0.9776662 -0.057418417 32 7
3.1372497 -0.97774512 0.88050246 29 15
3.0881748 -0.97192031 0.056510892 35 8
3.0611947 -0.9646036 -0.74098879 30 1
3.1010466 -0.97775626 0.17040588 40 9
3.0703797 -0.96926558 -0.62585354 31 2
3.0985036 -0.97933316 0.28430203 33 10
3.0568089 -0.96674162 -0.50778633 31 3
3.0961063 -0.98035872 0.3987565 33 11
3.0579185 -0.96944147 -0.39388174 30 4
3.080442 -0.97717375 0.51185364 30 12
3.0591547 -0.97159642 -0.28081581 35 5
3.0833106 -0.98045343 0.62890649 25 13
3.0623147 -0.97436553 -0.16841713 38 6
3.0692899 -0.97776496 0.74368823 23 14
3.059653 -0.97587156 -0.056057129 39 7
3.0532248 -0.97440827 0.85876161 25 15
3.0223143 -0.97443354 0.055428844 37 8
2.9859371 -0.9632805 -0.72434241 37 1
3.0200226 -0.97544074 0.16632369 39 9
2.9832139 -0.96470195 -0.60944396 32 2
3.0045669 -0.97218627 0.27628368 26 10
2.9860919 -0.96735978 -0.49714881 29 3
3.0249863 -0.98112679 0.39046943 30 11
2.9832754 -0.96817386 -0.38510716 30 4
2.9796104 -0.96813411 0.49621019 34 12
2.9746163 -0.96765953 -0.27366903 40 5
3.0000248 -0.97650403 0.61326015 28 13
2.9813778 -0.97158563 -0.16433492 32 6
2.9993999 -0.97861701 0.72839153 22 14
2.9692976 -0.96936893 -0.054521319 35 7
2.9765699 -0.972893 0.83909136 29 15
2.9464927 -0.97160763 -0.83132678 1 0
2.9337854 -0.96855301 0.053927936 35 8
2.918076 -0.9639315 -0.7094956 34 1
2.950563 -0.97580534 0.16286951 42 9
2.9204936 -0.96699202 -0.5979954 35 2
2.9239461 -0.96870136 0.26948556 33 10
2.9061432 -0.96392924 -0.48494691 34 3
2.9464736 -0.97844797 0.38120735 35 11
2.9218128 -0.97082508 -0.37803873 32 4
2.9146729 -0.96958256 0.48651123 35 12
2.8997369 -0.96573848 -0.2673938 39 5
2.9204946 -0.97321796 0.59837705 29 13
2.9157898 -0.97278106 -0.16109009 36 6
2.9148636 -0.97360295 0.7094956 28 14
2.9036636 -0.97042537 -0.053439267 36 7
2.8909285 -0.96729112 0.81683296 30 15
2.8316436 -0.95570505 -0.80078614 24 0
2.864435 -0.96788633 0.05277608 39 8
2.8429706 -0.96118653 -0.69284928 38 1
2.8869238 -0.97716975 0.15972935 42 9
2.848593 -0.9653039 -0.58463877 38 2
2.8529582 -0.9673382 0.26355895 34 10
2.8413558 -0.96451032 -0.47524795 41 3
2.8719082 -0.97599953 0.37243277 34 11
2.8508949 -0.96996856 -0.36975163 35 4
2.8536031 -0.97144574 0.47743803 34 12
2.8288047 -0.96410567 -0.26146722 38 5
2.842849 -0.96999997 0.58387554 29 13
2.8408825 -0.96988261 -0.1573219 36 6
2.8545196 -0.97565091 0.6964485 26 14
2.8285336 -0.96787196 -0.052182697 35 7
2.825619 -0.96742564 0.80026853 30 15
2.7790837 -0.96017176 -0.78784519 40 0
2.7971294 -0.96695298 0.051659122 42 8
2.7605152 -0.95537454 -0.67440325 33 1
2.8081443 -0.972956 0.15575182 42 9
2.793556 -0.96844769 -0.57471669 37 2
2.7951422 -0.97009063 0.25885254 34 10
2.7709389 -0.96277457 -0.4646104 32 3
2.7975237 -0.97255874 0.36365816 37 11
2.7671874 -0.96309501 -0.35975835 30 4
2.790617 -0.97234184 0.46805197 39 12
2.7693279 -0.9654659 -0.25658652 37 5
2.7841072 -0.97170854 0.57319027 35 13
2.7584507 -0.96383429 -0.15313502 38 6
2.7685378 -0.96790111 0.67710268 28 14
2.7707472 -0.96975893 -0.051240265 37 7
2.7693982 -0.9703722 0.78629225 35 15
2.7012746 -0.95444971 -0.76765728 32 0
2.7316968 -0.96627158 0.050577074 35 8
2.7041774 -0.95706832 -0.66225594 35 1
2.7391582 -0.97052485 0.15229765 43 9
2.716243 -0.96347284 -0.56021523 36 2
2.724462 -0.96692371 0.25292596 35 10
2.7064476 -0.96159405 -0.4549115 36 3
2.7343836 -0.9725948 0.35634598 37 11
2.6986802 -0.96042615 -0.35171497 37 4
2.7186329 -0.96859628 0.45710155 37 12
2.7024653 -0.96336758 -0.25100854 38 5
2.7143881 -0.96868593 0.56021523 27 13
2.6989913 -0.96425354 -0.15020421 41 6
2.7066622 -0.96752679 0.66360557 32 14
2.6885986 -0.96212828 -0.049844075 38 7
2.6916282 -0.96427244 0.7661044 33 15
2.6400368 -0.95359594 -0.75212818 28 0
2.67804 -0.96785122 0.049704451 37 8
2.6516175 -0.95934862 -0.65100831 33 1
2.6799045 -0.97011191 0.14936683 46 9
2.6542482 -0.96187258 -0.54876673 33 2
2.655838 -0.9634974 0.24717368 39 10
2.6534183 -0.96314377 -0.44708973 37 3
2.6791911 -0.97355741 0.35000879 29 11
2.641541 -0.96092021 -0.34513399 38 4
2.6395831 -0.96072966 0.44489968 34 12
2.6245382 -0.95629138 -0.24438471 36 5
2.659605 -0.97012031 0.55029315 31 13
2.6323266 -0.9606908 -0.14685471 41 6
2.6522515 -0.96901178 0.65190816 33 14
2.6198413 -0.95820737 -0.048692215 40 7
2.6287625 -0.96199054 0.75005764 35 15
2.5736742 -0.94947845 -0.73504615 30 0
2.603687 -0.96158355 0.048447877 44 8
2.5901878 -0.9571119 -0.63751125 33 1
2.6168704 -0.96800971 0.14622667 46 9
2.5959182 -0.96128953 -0.53808141 40 2
2.589433 -0.95940202 0.24159572 39 10
2.5836592 -0.95828855 -0.43645221 37 3
2.6165001 -0.97150856 0.34269661 41 11
2.5958617 -0.96436101 -0.3400155 39 4
2.5920789 -0.96398556 0.43801656 39 12
2.569418 -0.95606852 -0.23985259 40 5
2.5995872 -0.96832758 0.53922629 36 13
2.5843849 -0.96369225 -0.14455192 45 6
2.6054263 -0.97205621 0.64201027 35 14
2.5701725 -0.95992565 -0.047889404 39 7
2.5604591 -0.95731646 0.73245794 39 15
2.5199816 -0.94970942 -0.72158754 39 0
2.5409486 -0.95811784 0.047400735 44 8
2.523278 -0.95246094 -0.62266451 37 1
2.5728519 -0.97168648 0.14413324 45 9
2.5397322 -0.96019137 -0.52777767 43 2
2.5360873 -0.95982534 0.23723793 41 10
2.5235028 -0.95556593 -0.42737901 41 3
2.5541408 -0.96818721 0.33538446 42 11
2.5500908 -0.96767014 -0.33489698 42 4
2.5429823 -0.96548045 0.43082058 44 12
2.5235701 -0.95911837 -0.23619205 41 5
2.5212014 -0.95922542 0.52434313 35 13
2.5255008 -0.96136588 -0.14162111 47 6
2.5457675 -0.97009814 0.62896317 37 14
2.5223041 -0.96216547 -0.047121495 41 7
2.4997377 -0.9540571 0.71692878 39 15
2.4698539 -0.95105678 -0.70916426 37 0
2.4890761 -0.9594565 0.046563022 42 8
2.4727609 -0.95366323 -0.61186683 37 1
2.5097635 -0.96894032 0.14099309 49 9
2.4996626 -0.96604359 -0.52090853 43 2
2.4901297 -0.96285886 0.23357739 45 10
2.4759023 -0.95835114 -0.4204959 43 3
2.4951472 -0.96680188 0.32855979 43 11
2.4875751 -0.96436727 -0.32758483 44 4
2.4861143 -0.96479934 0.42237309 39 12
2.4811854 -0.9638834 -0.23288015 40 5
2.4795046 -0.96372843 0.51709241 36 13
2.4662685 -0.959575 -0.13869029 45 6
2.4768484 -0.96468693 0.61366647 38 14
2.485543 -0.96857291 -0.046563022 42 7
2.4602814 -0.95971829 0.70761132 43 15
2.4325893 -0.95626104 -0.70036435 39 0
2.4469619 -0.9628973 0.045899831 46 8
2.4315908 -0.95733887 -0.60331875 39 1
2.4490514 -0.96520072 0.1379576 48 9
2.4344172 -0.96041512 -0.50869679 45 2
2.4425757 -0.96412641 0.22974254 43 10
2.4287336 -0.95964271 -0.41361275 41 3
2.4440343 -0.96667486 0.32271007 42 11
2.427253 -0.96052736 -0.32051641 38 4
2.4242222 -0.96030688 0.41298702 40 12
2.418833 -0.959149 -0.22765081 36 5
2.4362183 -0.96653503 0.50946003 36 13
2.422385 -0.96202558 -0.13659686 47 6
2.4284027 -0.96539706 0.60331875 37 14
2.422977 -0.96372974 -0.045515876 42 7
2.4104457 -0.95972013 0.69518799 43 15
2.4012115 -0.96430719 0.045166828 44 8
2.3778338 -0.95540106 -0.59162128 6 1
2.4014871 -0.96587861 0.13565481 47 9
2.3784945 -0.95807797 0.22433887 34 10
2.4004097 -0.96885395 0.31783527 34 11
2.4002407 -0.96927285 -0.31783527 10 4
2.368011 -0.9572193 0.40453959 37 12
2.3586838 -0.95392805 -0.22259577 6 5
2.3748178 -0.96141785 0.4980115 29 13
2.3802385 -0.96506315 0.59297097 28 14
2.3587499 -0.95730942 -0.044433825 13 7
2.3589418 -0.95834661 0.68224704 42 15
2.3349705 -0.95573735 -0.6760354 10 0
2.3316739 -0.95486319 0.043980066 53 8
2.3458624 -0.96163005 -0.58532268 12 1
2.343116 -0.96098191 0.13272399 17 9
2.3519297 -0.96555585 -0.49419534 12 2
2.321991 -0.95421219 0.21963248 13 10
2.3513272 -0.96674746 -0.40266237 11 3
2.3460312 -0.96552747 0.31149808 12 11
2.3456941 -0.96634638 -0.31149808 11 4
2.313956 -0.95374382 0.39640498 11 12
2.3280234 -0.96049285 -0.22032972 11 5
2.3190541 -0.95773965 0.48770785 12 13
2.3405924 -0.9671129 -0.13272399 14 6
2.3374274 -0.96676052 0.58397293 10 14
2.324295 -0.9622792 -0.043910254 11 7
2.2952504 -0.95072395 0.66568261 10 15
2.3284109 -0.97160876 -0.6760354 10 0
2.3120344 -0.9657228 0.043735731 10 8
2.3374643 -0.97682399 -0.58487272 12 1
2.3381929 -0.97808719 0.13282867 13 9
2.3469424 -0.98270994 -0.49457693 13 2
2.320955 -0.97230464 0.22015539 12 10
2.3390558 -0.98084742 -0.40172374 12 3
2.3300812 -0.97804058 0.31027937 12 11
2.3518739 -0.98767078 -0.31320426 12 4
2.3218095 -0.97599882 0.39890796 11 12
2.3322799 -0.98135829 -0.22137558 13 5
2.3161004 -0.97502619 0.48847106 12 13
2.3264215 -0.98032737 -0.13230531 14 6
2.3306212 -0.98305517 0.58397293 11 14
2.3379571 -0.9866302 -0.044294208 12 7
2.3010144 -0.97198659 0.6693061 13 15
2.3286815 -0.99086583 -0.67810595 8 0
2.3236339 -0.98967618 0.044084776 20 8
2.3234169 -0.99006283 -0.58307308 9 1
2.3294704 -0.99360329 0.13272399 17 9
2.3490527 -1.0029252 -0.49648505 11 2
2.3232718 -0.99239731 0.22102696 12 10
2.3448653 -1.0025892 -0.40391383 8 3
2.3286717 -0.99662697 0.31101057 15 11
2.3376217 -1.0009402 -0.31222928 9 4
2.3276486 -0.99763149 0.40109801 13 12
2.3272028 -0.99840212 -0.22154988 8 5
2.3236697 -0.99736655 0.49152401 12 13
2.3121808 -0.99339128 -0.13188663 9 6
2.3201208 -0.99776208 0.58307308 10 14
2.3310122 -1.0029279 -0.044294208 18 7
2.3065927 -0.99337572 0.67292953 13 15
2.3287964 -1.0101739 -0.68017644 10 0
2.3148339 -1.0050775 0.044049874 14 8
2.3218105 -1.0085883 -0.58442283 11 1
2.3114874 -1.0050634 0.13209596 18 9
2.3275926 -1.0130323 -0.4934321 12 2
2.3181136 -1.009388 0.22120127 12 10
2.334187 -1.0173564 -0.4032881 11 3
2.3198376 -1.012066 0.31076685 12 11
2.3287578 -1.0164415 -0.31198555 11 4
2.3061459 -1.0075305 0.39859506 13 12
2.3165252 -1.013028 -0.22120127 12 5
2.3112545 -1.0112036 0.49037915 12 13
2.317996 -1.0151174 -0.13261932 12 6
2.3059597 -1.0108057 0.5812735 10 14
2.3111346 -1.013555 -0.044049874 11 7
2.2978325 -1.0086778 0.67241186 13 15
2.3146198 -1.0232828 -0.67810595 10 0
2.3132467 -1.023641 0.044154592 11 8
2.328968 -1.0310841 -0.58802205 11 1
2.3153703 -1.0260309 0.13272399 13 9
2.3348207 -1.0356255 -0.49648505 11 2
2.303726 -1.0223142 0.22050403 10 10
2.3324437 -1.0360328 -0.40422669 12 3
2.3145294 -1.0290432 0.31101057 12 11
2.3107224 -1.0278336 -0.31052312 11 4
2.3044698 -1.0260161 0.39953369 11 12
2.3093965 -1.0291755 -0.22120127 10 5
2.3274488 -1.0377076 0.4953402 12 13
2.3126764 -1.032089 -0.13272399 11 6
2.3059638 -1.0300587 0.58307308 10 14
2.2966995 -1.0264014 -0.043910254 10 7
2.2854445 -1.0223287 0.67085898 12 15
2.3056583 -1.0386232 -0.67758828 9 0
2.3078671 -1.0405874 0.044189494 13 8
2.3252659 -1.0489208 -0.58892184 11 1
2.3136122 -1.0446359 0.13303801 12 9
2.3239558 -1.050283 -0.49572179 12 2
2.2947173 -1.0375513 0.22032972 11 10
2.3269536 -1.0531055 -0.40453959 12 3
2.3181384 -1.050091 0.31247303 12 11
2.3288038 -1.0554122 -0.31393546 11 4
2.3080444 -1.0469755 0.40141091 11 12
2.3021553 -1.0452731 -0.22120127 11 5
2.3076351 -1.048247 0.49266884 12 13
2.3235965 -1.056476 -0.13377072 14 6
2.3058114 -1.0493611 0.58487272 10 14
2.3076773 -1.0506964 -0.044259302 10 7
2.2852833 -1.0414635 0.67292953 13 15
2.3176651 -1.0635574 -0.68328232 10 0
2.3041804 -1.0583432 0.044259302 12 8
2.3143449 -1.0635011 -0.58802205 12 1
2.3189645 -1.0666045 0.13377072 13 9
2.3379669 -1.0763335 -0.50030124 11 2
2.2982757 -1.058547 0.22137558 11 10
2.3159571 -1.0676708 -0.40391383 11 3
2.3125536 -1.0670806 0.31271678 12 11
2.3321927 -1.0766364 -0.31539789 11 4
2.3060584 -1.0655485 0.40234947 12 12
2.3110774 -1.0688467 -0.22277008 13 5
2.2984791 -1.0635072 0.49228725 12 13
2.3107274 -1.070154 -0.13345671 15 6
2.3161097 -1.0736285 0.58937174 10 14
2.3147986 -1.0735118 -0.044538539 13 7
2.2902229 -1.063086 0.67655301 15 15
2.3136837 -1.0813476 -0.68431759 10 0
2.3166602 -1.083724 0.044643257 14 8
2.3103938 -1.0812843 -0.58892184 12 1
2.309653 -1.0819206 0.13366605 12 9
2.3375061 -1.095963 -0.50182766 12 2
2.3142793 -1.0855656 0.22364163 11 10
2.3191757 -1.0888503 -0.40579104 12 3
2.3052366 -1.0827968 0.31271678 12 11
2.330009 -1.0954257 -0.31612909 12 4
2.3092875 -1.0866681 0.40422669 11 12
2.3127613 -1.0887959 -0.22364163 10 5
2.3034303 -1.0853854 0.49495855 12 13
2.3194575 -1.0939273 -0.13439874 15 6
2.3016984 -1.0860425 0.58757216 11 14
2.3126724 -1.0922078 -0.044643257 12 7
2.2934139 -1.0836021 0.67965883 13 15
2.320226 -1.1037099 -0.68845868 10 0
2.3110354 -1.1003275 0.044678163 12 8
2.3117771 -1.1011755 -0.59117132 12 1
2.3094466 -1.1010548 0.13408473 15 9
2.3335357 -1.1135395 -0.50259089 12 2
2.3158267 -1.105585 0.2245132 11 10
2.3224044 -1.1097209 -0.40766826 11 3
2.3067679 -1.1027439 0.31393546 12 11
2.3135452 -1.106976 -0.31491041 11 4
2.3071826 -1.1049216 0.40516531 11 12
2.3178742 -1.1105392 -0.22486182 11 5
2.3154616 -1.1103772 0.49915636 12 13
2.3245621 -1.1157396 -0.13513145 16 6
2.3012795 -1.1050587 0.58937174 10 14
2.3105915 -1.110523 -0.044747971 14 7
2.2877259 -1.1000247 0.68017644 13 15
2.3196151 -1.1228446 -0.69052929 15 0
2.3178892 -1.1230078 0.044957399 13 8
2.3182569 -1.1236857 -0.59477055 12 1
2.3108833 -1.1211081 0.13460809 13 9
2.3276682 -1.1302549 -0.50297254 18 2
2.3044677 -1.1199837 0.22416456 12 10
2.3290093 -1.1324135 -0.41017124 14 3
2.3186474 -1.1283762 0.31661656 12 11
2.3218229 -1.1309241 -0.31710407 13 4
2.3029635 -1.1227329 0.40579104 11 12
2.3100648 -1.1266938 -0.22486182 13 5
2.3217676 -1.133405 0.50220931 12 13
2.3256888 -1.1363246 -0.13565481 20 6
2.3110163 -1.1296556 0.59387076 10 14
2.3009861 -1.1257479 -0.044713065 16 7
2.2867358 -1.1197655 0.68224704 13 15
2.3078568 -1.138109 -0.68949395 36 0
2.3361676 -1.1535913 -0.60151911 34 1
2.318718 -1.1459817 0.13555014 59 9
2.33008 -1.1521033 -0.50526226 34 2
2.2928228 -1.1346779 0.22381593 39 10
2.3171055 -1.1477019 -0.40954545 32 3
2.3227637 -1.1515143 0.31832278 51 11
2.3190057 -1.1501555 -0.31783527 30 4
2.291332 -1.1374271 0.40516531 30 12
2.3035278 -1.1444836 -0.22503611 26 5
2.2940598 -1.1407781 0.4980115 27 13
2.3318036 -1.1600546 -0.13649218 38 6
2.3026736 -1.1465657 0.59387076 25 14
2.3105698 -1.151504 -0.045062114 38 7
2.2769356 -1.1352382 0.68172938 23 15
2.2720301 -1.1407254 -0.68121177 30 0
2.2852969 -1.1483853 0.044643257 35 8
2.2686553 -1.1405187 -0.58622247 25 1
2.3086741 -1.161647 0.13544546 42 9
2.2882564 -1.1523746 -0.4980115 29 2
2.2828655 -1.1501592 0.22364163 33 10
2.2700295 -1.144686 -0.40266237 27 3
2.296742 -1.1591618 0.31588537 28 11
2.2841356 -1.1532996 -0.31417918 26 4
2.2743189 -1.1493394 0.40360096 32 12
2.2721665 -1.1492476 -0.22277008 28 5
2.2807844 -1.1541064 0.49686664 31 13
2.2699893 -1.1496392 -0.13335203 32 6
2.2874575 -1.1594895 0.59207118 25 14
2.2668049 -1.1495183 -0.044364017 32 7
2.2618632 -1.1480051 0.67965883 29 15
2.231324 -1.1398611 -0.67137665 29 0
2.2451758 -1.1479257 0.044014968 37 8
2.225939 -1.1385803 -0.57722443 25 1
2.2507286 -1.1522517 0.13251466 36 9
2.2417164 -1.1486257 -0.48961592 28 2
2.242866 -1.1497091 0.22050403 29 10
2.2373769 -1.1478816 -0.39828217 29 3
2.2409148 -1.1506852 0.30930442 26 11
2.2389481 -1.150169 -0.30906066 28 4
2.238131 -1.1507369 0.39859506 33 12
2.2392857 -1.1523191 -0.22032972 34 5
2.2360158 -1.1511301 0.48885265 28 13
2.22995 -1.1489922 -0.13146794 31 6
2.2342749 -1.1522079 0.5803737 27 14
2.2391763 -1.15523 -0.043980066 31 7
2.2228961 -1.1478137 0.67034137 32 15
2.1941705 -1.1402665 -0.66257679 27 0
2.2087219 -1.1488081 0.043456491 32 8
2.1902766 -1.1397001 -0.57002598 27 1
2.2107439 -1.1513308 0.13063055 42 9
2.2094705 -1.1511579 -0.48427325 30 2
2.2065191 -1.1505996 0.21771504 28 10
2.2047918 -1.150678 -0.39390203 31 3
2.2154338 -1.1567242 0.30686703 33 11
2.1974361 -1.1483036 -0.30442965 32 4
2.1882324 -1.1439803 0.39108619 33 12
2.1978488 -1.1499846 -0.21701778 30 5
2.2000978 -1.1521398 0.48274681 30 13
2.1937706 -1.1493144 -0.12979318 35 6
2.1918631 -1.1492902 0.57137567 27 14
2.1887608 -1.1481507 -0.043142349 33 7
2.192796 -1.1512437 0.66361207 30 15
2.1487801 -1.1353208 -0.65118873 30 0
2.1763034 -1.1503487 0.042967826 35 8
2.1600749 -1.1427356 -0.56417727 29 1
2.1765804 -1.1519537 0.12906048 43 9
2.1651506 -1.1468722 -0.47625926 29 2
2.1634295 -1.1469277 0.21422882 33 10
2.160464 -1.1458385 -0.38733178 33 3
2.1794546 -1.1568855 0.30296722 33 11
2.1634738 -1.1488867 -0.30077356 31 4
2.1455088 -1.1403069 0.38482881 32 12
2.1530311 -1.145269 -0.21335725 28 5
2.1612117 -1.1501045 0.47587767 28 13
2.1647429 -1.1529535 -0.12853712 39 6
2.1532354 -1.1473069 0.56327748 25 14
2.1526632 -1.147967 -0.042583872 36 7
2.1405971 -1.1424923 0.65015346 30 15
2.1037576 -1.1294436 -0.63980073 31 0
2.1384771 -1.1490452 0.042374443 39 8
2.1215522 -1.1404284 -0.55607903 29 1
2.1475825 -1.1553872 0.12780441 43 9
2.1244507 -1.1438988 -0.46900854 35 2
2.1134784 -1.1389426 0.21004534 34 10
2.1178389 -1.1417695 -0.3810744 34 3
2.1435776 -1.1566117 0.29906741 32 11
2.1204669 -1.1450977 -0.2958988 30 4
2.1237936 -1.147373 0.38232586 31 12
2.108381 -1.1399974 -0.20969671 30 5
2.1237769 -1.1492801 0.46939012 32 13
2.1338105 -1.1556729 -0.12717639 41 6
2.1211855 -1.149314 0.55697882 26 14
2.1006498 -1.1391361 -0.041711252 36 7
2.1003089 -1.1399 0.64031839 31 15
2.0735805 -1.1324314 -0.63307142 33 0
2.0898421 -1.1422595 0.041571636 36 8
2.0808506 -1.1378167 -0.54753083 32 1
2.107723 -1.1534663 0.12592033 38 9
2.0903823 -1.1449251 -0.46328428 29 2
2.0843089 -1.1425446 0.2079536 32 10
2.0819018 -1.1416976 -0.3760685 34 3
2.1039221 -1.154729 0.29468012 32 11
2.0913398 -1.1487733 -0.29297391 30 4
2.0878296 -1.1473194 0.37731999 34 12
2.0774741 -1.1425734 -0.20743066 35 5
2.0845401 -1.1474073 0.46252102 35 13
2.0712554 -1.1410371 -0.12393155 39 6
2.0924268 -1.1531763 0.55158001 27 14
2.0749347 -1.1444807 -0.041362204 35 7
2.0684204 -1.1418294 0.63307142 31 15
2.0232036 -1.1237893 -0.62013048 31 0
2.0606413 -1.1455253 0.041152775 40 8
2.0385938 -1.1337347 -0.53853279 30 1
2.0575314 -1.1452072 0.12340819 39 9
2.0615547 -1.1483893 -0.45870483 32 2
2.055397 -1.1454294 0.20586187 30 10
2.0374498 -1.13636 -0.36949828 31 3
2.057472 -1.1484689 0.28931785 37 11
2.0416732 -1.1401174 -0.28712422 31 4
2.0502522 -1.1458471 0.3720012 37 12
2.0449009 -1.1437935 -0.2049903 35 5
2.0319343 -1.1370063 0.45259899 27 13
2.0423279 -1.1437587 -0.12267549 39 6
2.0450227 -1.1462055 0.54123223 29 14
2.0459635 -1.1472024 -0.040943347 36 7
2.0384974 -1.1439513 0.62634212 34 15
2.0085797 -1.134087 -0.61805987 81 0
2.0264795 -1.1451266 0.040629201 39 8
2.0068793 -1.134513 -0.53223419 33 1
2.0199347 -1.1428241 0.12162878 40 9
2.0159028 -1.141472 -0.45030925 34 2
2.0230803 -1.1460025 0.2034215 35 10
2.0105641 -1.1398398 -0.36605671 33 3
2.0252326 -1.1490899 0.28590551 37 11
2.0112209 -1.1416041 -0.2839556 35 4
2.0112863 -1.1425695 0.36636955 38 12
2.0091538 -1.1422861 -0.20220132 35 5
2.0222402 -1.1501932 0.45221734 36 13
2.0082572 -1.1431681 -0.12110542 41 6
2.0098789 -1.1450204 0.53403378 35 14
2.0014205 -1.1406643 -0.040210344 37 7
2.0086465 -1.1457115 0.61961281 35 15
1.9805069 -1.1365433 -0.61184824 35 0
1.9906906 -1.1433113 0.040070724 37 8
1.9735646 -1.1339334 -0.52548569 35 1
1.9945929 -1.1469418 0.12058206 42 9
1.9857639 -1.1427873 -0.44534823 40 2
1.9787705 -1.1392225 0.19976096 38 10
1.9854418 -1.1439863 -0.362928 39 3
1.9982449 -1.1522925 0.28322437 38 11
1.9808488 -1.1427218 -0.28078699 38 4
1.9724675 -1.1388047 0.36073789 38 12
1.970078 -1.1383421 -0.19906372 35 5
1.9835662 -1.1465976 0.44534823 29 13
1.977753 -1.1441585 -0.11974468 42 6
1.9782258 -1.1453539 0.52773517 36 14
1.9622614 -1.1365683 -0.039582059 38 7
1.9588155 -1.1354855 0.60667187 31 15
1.9124472 -1.1153063 -0.59321326 34 0
1.9498466 -1.1380292 0.039407536 40 8
1.9487715 -1.1378576 -0.52098668 37 1
1.9710175 -1.1517695 0.11964 43 9
1.9540113 -1.142747 -0.44000554 40 2
1.9466932 -1.1389235 0.19732061 39 10
1.9450184 -1.138855 -0.35698348 39 3
1.9627484 -1.1501566 0.27932456 40 11
1.9454226 -1.14046 -0.27688718 38 4
1.9389123 -1.1375531 0.35604486 39 12
1.9311571 -1.1339093 -0.19592611 35 5
1.9399642 -1.139536 0.43733424 32 13
1.9421686 -1.1417428 -0.11806992 46 6
1.9533855 -1.1492548 0.52323616 34 14
1.935322 -1.1390821 -0.039198104 39 7
1.9208788 -1.1314842 0.59735435 33 15
1.8780228 -1.1128727 -0.58493102 35 0
1.9194943 -1.1383535 0.03895377 42 8
1.9139647 -1.1355255 -0.51378822 37 1
1.9354509 -1.1491867 0.11796526 43 9
1.9257327 -1.1443256 -0.43542615 40 2
1.9130052 -1.1372147 0.19470593 41 10
1.9115556 -1.1372561 -0.35229045 41 3
1.9256752 -1.1465666 0.275181 42 11
1.9218644 -1.1452065 -0.27469352 39 4
1.9156529 -1.1419584 0.35322908 37 12
1.9060836 -1.1371558 -0.19418299 35 5
1.8997328 -1.1342664 0.43008351 33 13
1.899857 -1.1347903 -0.11597649 43 6
1.9185519 -1.1468657 0.5160377 32 14
1.9048129 -1.1395555 -0.038744342 40 7
1.8946986 -1.1339538 0.59166032 32 15
1.8733213 -1.1282766 -0.58596635 41 0
1.8909467 -1.1393421 0.038534917 42 8
1.8707448 -1.1280602 -0.50434029 39 1
1.8912679 -1.141336 0.11576715 42 9
1.8908055 -1.1415071 -0.42932025 40 2
1.8809444 -1.1364499 0.19226557 41 10
1.8797034 -1.136596 -0.34791031 42 3
1.881955 -1.138406 0.27006248 38 11
1.8832557 -1.1400909 -0.27030623 35 4
1.8837793 -1.1413066 0.34884888 38 12
1.8708365 -1.1339117 -0.191394 37 5
1.883375 -1.1424104 0.42817542 35 13
1.869493 -1.1348827 -0.11461575 44 6
1.8838481 -1.144047 0.50883931 32 14
1.8728875 -1.1382856 -0.038255677 42 7
1.865079 -1.1344317 0.58493102 34 15
1.84892 -1.1312448 -0.58078998 43 0
1.8639861 -1.1413574 0.038150962 45 8
1.8462064 -1.1309135 -0.49984124 39 1
1.8560097 -1.1378098 0.11409239 42 9
1.8491206 -1.1344746 -0.4216879 40 2
1.8593804 -1.141216 0.19087107 42 10
1.8532075 -1.1383181 -0.34446874 37 3
1.8602315 -1.1435272 0.26811257 38 11
1.8414319 -1.1324135 -0.26543146 37 4
1.8471664 -1.1368288 0.34353012 40 12
1.8457104 -1.1368212 -0.18965089 37 5
1.8469391 -1.1380228 0.4216879 33 13
1.8462245 -1.1384717 -0.11367371 46 6
1.855713 -1.1452171 0.5034405 30 14
1.8410734 -1.1366261 -0.037767008 40 7
1.839036 -1.1362553 0.57923704 35 15
1.8048797 -1.1216911 -0.56940192 42 0
1.8406901 -1.1448375 0.03783682 49 8
1.8167564 -1.1303914 -0.49399251 37 1
1.8344576 -1.1422935 0.11325502 41 9
1.8178287 -1.1328195 -0.41634527 39 2
1.8158621 -1.1320343 0.18721053 38 10
1.828456 -1.140772 -0.34134007 39 3
1.8353647 -1.1459726 0.26567519 40 11
1.8166448 -1.1347249 -0.26299405 35 4
1.8157345 -1.1350375 0.33914998 41 12
1.8107035 -1.1327718 -0.1868619 39 5
1.8272997 -1.1435982 0.41901657 39 13
1.8196123 -1.1396711 -0.11252232 44 6
1.8096956 -1.1343398 0.49309272 33 14
1.8042923 -1.1313916 -0.037173625 37 7
1.7950591 -1.1264751 0.56784898 39 15
1.7659657 -1.1146723 -0.5595668 39 0
1.79884 -1.1363008 0.037138719 47 8
1.7956415 -1.1347188 -0.49039328 37 1
1.7994301 -1.137992 0.11158027 41 9
1.7966045 -1.1370832 -0.41329232 40 2
1.7893981 -1.1329598 0.18529311 41 10
1.7920809 -1.1355351 -0.33602124 43 3
1.8072023 -1.1460009 0.26275033 41 11
1.7885636 -1.134619 -0.26006919 40 4
1.7877542 -1.134981 0.33539551 41 12
1.7792079 -1.130427 -0.18442155 40 5
1.7861336 -1.1352646 0.41138422 40 13
1.793074 -1.1405551 -0.11137092 43 6
1.7984446 -1.144853 0.49219292 39 14
1.7794828 -1.1332189 -0.03682458 38 7
1.7643436 -1.1244438 0.56060207 39 15
1.7467558 -1.1196761 -0.55594331 41 0
1.7656163 -1.1326354 0.036615148 45 8
1.7532345 -1.1251245 -0.48094535 41 1
1.7796777 -1.1429714 0.11084756 45 9
1.772107 -1.1389832 -0.40947613 42 2
1.7630104 -1.1335715 0.18337567 43 10
1.7558699 -1.1298467 -0.33070248 46 3
1.7741233 -1.1424681 0.25909427 42 11
1.7722549 -1.1417027 -0.25885051 44 4
1.7582036 -1.1335193 0.33132821 45 12
1.7595534 -1.1352592 -0.18320136 41 5
1.750123 -1.1296074 0.40489674 38 13
1.7531918 -1.1324551 -0.10938216 45 6
1.7740425 -1.1468014 0.48769391 39 14
1.7564156 -1.1358415 -0.036510434 40 7
1.7402321 -1.1262375 0.5554257 39 15
1.7243251 -1.1223587 -0.55128461 39 0
1.7358837 -1.1307452 0.036161385 44 8
1.7257448 -1.1245697 -0.47554654 42 1
1.7482337 -1.1400942 0.10938216 44 9
1.7460272 -1.139524 -0.40527833 45 2
1.7450439 -1.1393166 0.1823298 43 10
1.7347097 -1.1334335 -0.32819954 46 3
1.7395211 -1.1374438 0.25519443 43 11
1.7376612 -1.1366606 -0.25495067 44 4
1.7419838 -1.1403564 0.32976389 41 12
1.7267835 -1.1308365 -0.1805867 39 5
1.7307 -1.1342646 0.40222538 39 13
1.723532 -1.1304271 -0.10802142 48 6
1.7336086 -1.1374691 0.47869584 40 14
1.7350709 -1.1392951 -0.036231197 42 7
1.7177969 -1.1288108 0.55076694 37 15
1.6971073 -1.1215878 -0.54507297 12 0
1.7164702 -1.1348146 0.035917051 46 8
1.688598 -1.1172348 -0.46744829 19 1
1.717116 -1.1365343 0.10791675 45 9
1.7054951 -1.129699 -0.39764598 17 2
1.7171196 -1.1382614 0.18023807 45 10
1.7039069 -1.1299309 -0.3238194 32 3
1.7118907 -1.1360859 0.25226957 42 11
1.7048794 -1.1322902 -0.25129461 37 4
1.7045654 -1.1325104 0.32413223 43 12
1.6972783 -1.1285231 -0.17832063 33 5
1.7014908 -1.1321808 0.39726433 36 13
1.6925211 -1.1266385 -0.10655601 46 6
1.6931889 -1.1279361 0.4696978 39 14
1.6937978 -1.1291957 -0.035533097 40 7
1.6859653 -1.1243992 0.54300237 35 15
1.3669491 -0.91682112 -0.44102767 8 0
1.3816503 -0.92773068 -0.3842164 6 1
1.378255 -0.92684734 -0.32284883 8 2
1.3780835 -0.92778039 -0.2631228 7 3
1.371043 -0.92443198 -0.20303436 8 4
1.3821865 -0.93229651 0.26406142 5 12
1.3623859 -0.91963297 -0.14380698 8 5
1.3768165 -0.93042362 -0.087087035 8 6
1.339597 -0.91244125 -0.43429837 43 0
1.3550786 -0.92333263 0.028621947 12 8
1.358876 -0.92661494 -0.37971738 43 1
1.3659815 -0.93215859 0.086668357 13 9
1.3636434 -0.93091226 -0.32094073 43 2
1.3588736 -0.9283514 0.14398128 14 10
1.3681479 -0.93538815 -0.26249707 50 3
1.3714358 -0.93798733 0.20400929 11 11
1.3629177 -0.93285978 -0.2027906 35 4
1.3559231 -0.92876756 0.26030698 22 12
1.3460711 -0.92236435 -0.14276111 42 5
1.3503569 -0.92599404 0.31826943 20 13
1.3553023 -0.93008095 -0.086144991 30 6
1.3623846 -0.93529099 0.38151699 18 14
1.3465787 -0.92513186 -0.028517231 28 7
1.335603 -0.91827762 0.43429837 15 15
1.3300163 -0.91957384 -0.43326309 69 0
1.33857 -0.92617869 0.028412517 36 8
1.34276 -0.92942435 -0.37701797 75 1
1.3627241 -0.94394684 0.086877696 58 9
1.353884 -0.938173 -0.32017753 75 2
1.3474476 -0.93440926 0.14345835 42 10
1.3421099 -0.93140179 -0.25874263 67 3
1.3452863 -0.93395406 0.20108443 48 11
1.3498509 -0.93782157 -0.20181565 62 4
1.3447037 -0.93459326 0.25936839 37 12
1.3330564 -0.92718863 -0.14206386 65 5
1.3358028 -0.92979074 0.31636134 31 13
1.3391058 -0.93243688 -0.085516959 60 6
1.3510253 -0.94143695 0.38016728 40 14
1.3435313 -0.93656331 -0.028587043 51 7
1.3261526 -0.92513686 0.43326309 42 15
1.3253077 -0.9297151 -0.43378076 81 0
1.3193034 -0.92584646 0.028133281 64 8
1.3140759 -0.92286289 -0.37071934 64 1
1.3384569 -0.94033432 0.085726306 100 9
1.3394367 -0.94172108 -0.31826943 68 2
1.3345382 -0.93897361 0.14276111 82 10
1.321365 -0.9300496 -0.25592682 71 3
1.3259146 -0.93394428 0.19913453 80 11
1.3192607 -0.92960197 -0.19815956 90 4
1.3237816 -0.93347919 0.25655255 61 12
1.3104358 -0.92475319 -0.14032075 61 5
1.3167758 -0.92957169 0.31330839 60 13
1.3147843 -0.92885363 -0.084365569 76 6
1.3224719 -0.93463069 0.37386864 57 14
1.3256967 -0.93760395 -0.028342709 76 7
1.3056332 -0.92409772 0.42860436 59 15
1.2923523 -0.91944593 -0.42498088 70 0
1.3129708 -0.93480527 0.028133281 75 8
1.2999899 -0.92590523 -0.36846983 60 1
1.3076291 -0.93203425 0.084156223 94 9
1.3074224 -0.93257535 -0.31216353 68 2
1.3070347 -0.93298739 0.14049506 65 10
1.3069658 -0.93328255 -0.25436246 64 3
1.3098363 -0.93602288 0.1976721 66 11
1.3030508 -0.93186116 -0.19669713 66 4
1.3075941 -0.93580031 0.25467533 60 12
1.2976308 -0.92901236 -0.13962351 62 5
1.3054663 -0.93531156 0.31216353 66 13
1.3066446 -0.93684608 -0.084260903 80 6
1.3032465 -0.93475407 0.37026942 61 14
1.294751 -0.92934525 -0.027819136 82 7
1.29915 -0.93319017 0.42860436 65 15
1.2730508 -0.91984308 -0.42083979 65 0
1.291662 -0.93363369 0.027819136 74 8
1.2805362 -0.92627263 -0.36487061 62 1
1.2942904 -0.93690997 0.083737537 91 9
1.2832242 -0.92924082 -0.30796573 62 2
1.2874186 -0.93296343 0.13910057 64 10
1.2936929 -0.93819916 -0.25311098 66 3
1.2933004 -0.9386034 0.19620967 66 11
1.2786791 -0.92833287 -0.19401602 68 4
1.2784907 -0.92887783 0.25029516 61 12
1.2650025 -0.91975284 -0.13683452 64 5
1.2922251 -0.94023561 0.31063706 62 13
1.2740705 -0.9273662 -0.082586147 75 6
1.2900589 -0.9396928 0.36846983 61 14
1.2701284 -0.92585397 -0.027435182 85 7
1.2690252 -0.92538905 0.42083979 69 15
1.244628 -0.91293299 -0.41359285 67 0
1.262215 -0.92651087 0.027330469 72 8
1.2675922 -0.93079847 -0.36307099 62 1
1.2746776 -0.93668622 0.082900167 91 9
1.2668885 -0.93164372 -0.30567604 61 2
1.2614506 -0.92798424 0.13700882 64 10
1.2662661 -0.93220806 -0.2490437 61 3
1.2881489 -0.9490115 0.19645341 61 11
1.2783953 -0.94216985 -0.19499096 69 4
1.2638623 -0.93214023 0.24873082 64 12
1.2503734 -0.92286563 -0.13596295 69 5
1.2635181 -0.93290812 0.30529439 69 13
1.2577637 -0.9293381 -0.081958115 68 6
1.2770339 -0.94426572 0.36667022 63 14
1.2523801 -0.92637426 -0.027190849 90 7
1.2483963 -0.92410171 0.41618103 73 15
1.2289258 -0.91467911 -0.41048703 64 0
1.2412825 -0.92454964 0.027016325 71 8
1.2454367 -0.92798173 -0.35857198 57 1
1.2649049 -0.94317454 0.08269082 91 9
1.2524862 -0.93459499 -0.30376795 66 2
1.2453619 -0.92961717 0.13596295 65 10
1.231241 -0.91974598 -0.24341206 64 3
1.2449237 -0.93064421 0.19084741 66 11
1.2558893 -0.93918347 -0.19255358 69 4
1.2462534 -0.93265581 0.24654076 61 12
1.2359263 -0.92560071 -0.13509139 72 5
1.2302636 -0.92169511 0.29880691 66 13
1.240059 -0.92970961 -0.08122541 70 6
1.2610577 -0.94614094 0.36397079 61 14
1.2394849 -0.93029338 -0.027051231 82 7
1.2264677 -0.92119277 0.41100466 69 15
1.219427 -0.9209078 -0.40945172 64 0
1.2252257 -0.92595875 0.026806895 71 8
1.2187194 -0.92137593 -0.35272324 66 1
1.2455474 -0.9423418 0.081853449 87 9
1.2443657 -0.94213098 -0.3033863 64 2
1.2324885 -0.9334771 0.13526571 65 10
1.2153443 -0.92115992 -0.24153483 64 3
1.2336513 -0.93571383 0.1901162 67 11
1.2303253 -0.93352926 -0.18962872 72 4
1.2381386 -0.94013894 0.24622789 66 12
1.223089 -0.92938471 -0.13439415 70 5
1.2191103 -0.92669719 0.29766205 68 13
1.2224112 -0.92987967 -0.080492713 72 6
1.2342644 -0.93957675 0.35812208 66 14
1.2234145 -0.93165475 -0.026841803 82 7
1.2153971 -0.92621976 0.40945172 72 15
1.2083678 -0.92587364 -0.40789884 65 0
1.2219054 -0.93692344 0.026876707 78 8
1.2014337 -0.92155921 -0.34957394 60 1
1.2072518 -0.92669165 0.079760008 87 9
1.2112904 -0.93046373 -0.29689881 70 2
1.2196224 -0.93720269 0.13456847 65 10
1.2135816 -0.93323463 -0.24247345 67 3
1.2176497 -0.93703949 0.18865377 68 11
1.2049023 -0.92756474 -0.18670385 72 4
1.2065072 -0.92947114 0.24122196 66 12
1.2071034 -0.93060195 -0.13334829 70 5
1.2063925 -0.93038964 0.29613557 69 13
1.2111461 -0.93473011 -0.080178693 70 6
1.1999134 -0.92672956 0.35002384 68 14
1.1947268 -0.92305672 -0.026353134 82 7
1.1936182 -0.92286581 0.40427536 73 15
1.177471 -0.9153167 -0.3996166 65 0
1.2011294 -0.93438047 0.026562562 74 8
1.190357 -0.92633396 -0.34822425 64 1
1.1976013 -0.93264294 0.079550661 95 9
1.1861825 -0.92441577 -0.29231939 70 2
1.1910515 -0.9285444 0.1321281 65 10
1.1945771 -0.9319635 -0.23997049 69 3
1.2016901 -0.93818784 0.18719132 68 11
1.1890105 -0.92862254 -0.18524142 74 4
1.1875378 -0.92813998 0.23871902 66 12
1.1819059 -0.92407066 -0.13125655 67 5
1.1921366 -0.93274027 0.29422748 66 13
1.1904378 -0.9320811 -0.079236642 68 6
1.1905092 -0.93247229 0.34912404 70 14
1.1803844 -0.92520696 -0.026178611 85 7
1.168906 -0.91686881 0.39806372 72 15
1.1482987 -0.90557069 -0.39185205 44 0
1.1743319 -0.92643356 0.0261088 67 8
1.1731541 -0.92616886 -0.34507492 62 1
1.1880904 -0.93829727 0.079341315 92 9
1.1798627 -0.93246835 -0.29231939 70 2
1.1673502 -0.92324162 0.13021068 58 10
1.1727142 -0.92781663 -0.23684181 68 3
1.1859381 -0.93895233 0.18572889 70 11
1.1762748 -0.93196976 -0.18426646 72 4
1.1719041 -0.92883968 0.23684181 66 12
1.16606 -0.92487061 -0.13021068 69 5
1.1702186 -0.92883468 0.29041129 65 13
1.1715525 -0.93022686 -0.078399271 68 6
1.1778674 -0.93591148 0.34732443 70 14
1.1692009 -0.92969114 -0.026073895 88 7
1.1520547 -0.91638577 0.39444023 69 15
0.98670906 -0.78909022 -0.33853534 53 0
1.1553454 -0.9246133 0.025829561 69 8
1.0010031 -0.80138123 -0.29603559 31 1
1.175276 -0.9415738 0.078922629 97 9
1.1319669 -0.9075253 -0.28201571 43 2
1.1579304 -0.92867303 0.12986206 60 10
1.1477216 -0.92114389 -0.23308739 66 3
1.1623294 -0.93353528 0.18304777 75 11
1.1606191 -0.93249476 -0.18280403 69 4
1.159233 -0.93204725 0.23559032 67 12
1.1471564 -0.92299682 -0.12881619 65 5
1.1485753 -0.92446876 0.28659514 65 13
1.1510308 -0.92710751 -0.077457219 70 6
1.1591671 -0.9343282 0.34372523 70 14
1.1503922 -0.92758656 -0.025794657 88 7
1.1396154 -0.91955358 0.39236969 75 15
0.97817552 -0.79352528 -0.33750004 54 0
1.1410997 -0.92635494 0.025655037 72 8
0.98479491 -0.79975051 -0.29288626 51 1
1.1469746 -0.93212098 0.077457219 100 9
1.0037521 -0.81630915 -0.25148627 50 2
1.1421458 -0.92918992 0.12881619 60 10
1.0033921 -0.81688952 -0.20492917 37 3
1.1357769 -0.92532718 0.17987917 70 11
1.1340766 -0.92427129 -0.17963544 56 4
1.1389207 -0.92888099 0.23277451 63 12
1.1345104 -0.92594367 -0.12811893 65 5
1.1360102 -0.92749816 0.28506866 62 13
1.1321572 -0.92501122 -0.076619849 76 6
1.1405467 -0.93252987 0.34012601 70 14
1.1376967 -0.93053102 -0.025655037 82 7
1.1286831 -0.9238165 0.39081678 73 15
0.96366143 -0.79296988 -0.33439422 55 0
1.1237991 -0.92540056 0.025410704 71 8
0.97166705 -0.80041099 -0.29063675 50 1
1.1219457 -0.92486072 0.076201163 100 9
0.98591298 -0.81330216 -0.24843332 54 2
1.1294841 -0.93206847 0.12811893 70 10
0.99157214 -0.81884336 -0.2036777 58 3
1.1262289 -0.93070483 0.1793917 67 11
0.98683822 -0.81580341 -0.15721147 55 4
1.1217538 -0.92799544 0.23058443 64 12
0.99910218 -0.82711673 -0.11347678 47 5
1.1264833 -0.93290186 0.28430542 62 13
1.0564708 -0.87554252 -0.071909614 42 6
1.1190085 -0.92802948 0.33562699 70 14
1.1065485 -0.9180221 -0.025096562 79 7
1.113288 -0.9242695 0.38771093 71 15
0.94475389 -0.78853697 -0.32973549 59 0
1.0958245 -0.915277 0.024922037 51 8
0.96007371 -0.80217689 -0.28883713 51 1
1.1123972 -0.93010843 0.075991817 100 9
0.9666599 -0.80882651 -0.24499875 58 2
1.1061435 -0.92586398 0.12620151 64 10
0.97371668 -0.81559837 -0.20117474 57 3
1.1181827 -0.93726927 0.17914794 75 11
0.97199214 -0.8150202 -0.15574904 57 4
1.1016289 -0.92437631 0.22776861 60 12
0.97194213 -0.81613457 -0.11103641 52 5
1.1154332 -0.93695527 0.28316057 63 13
0.98306233 -0.82635021 -0.067304045 58 6
1.10952 -0.93330997 0.33472717 76 14
0.97770798 -0.82272339 -0.022304177 61 7
1.0905535 -0.91833133 0.38201693 76 15
0.93037921 -0.78762412 -0.32662967 59 0
0.97955167 -0.82983887 0.02240889 52 8
0.94850338 -0.80382031 -0.28703755 50 1
1.0220983 -0.86680228 0.070234857 52 9
0.9594928 -0.8142851 -0.24461715 57 2
1.0282665 -0.87295943 0.11800887 42 10
0.9529447 -0.80958652 -0.19804606 56 3
1.1042138 -0.93843114 0.17792925 70 11
0.97232723 -0.82693011 -0.15672398 60 4
1.0891314 -0.92692339 0.22651713 63 12
0.95119381 -0.80981576 -0.1092933 51 5
1.0909317 -0.92944103 0.27858114 66 13
0.96663028 -0.82412261 -0.06657134 54 6
1.0942451 -0.93325317 0.33202776 70 14
0.96737742 -0.82563448 -0.022199461 68 7
1.0725237 -0.91569805 0.3778758 78 15
0.88981444 -0.76374137 -0.31420633 41 0
0.96174484 -0.82606357 0.022129651 52 8
0.92822927 -0.79755789 -0.28253853 50 1
0.98437178 -0.84639436 0.06803675 80 9
0.94797522 -0.81567526 -0.24309067 54 2
0.97246933 -0.83704621 0.1122566 54 10
0.9384318 -0.80831921 -0.19616884 57 3
0.98802048 -0.85133302 0.16013633 47 11
0.95915902 -0.82704782 -0.15550528 58 4
0.98558438 -0.85043353 0.20618065 45 12
0.94264317 -0.81366765 -0.10894467 53 5
1.0206938 -0.88166118 0.26217157 44 13
