# .PCD v0.7 - Point Cloud Data file format
VERSION 0.7
FIELDS x y z intensity ring
SIZE 4 4 4 4 2
TYPE F F F F U
COUNT 1 1 1 1 1
WIDTH 1196
HEIGHT 1
VIEWPOINT 0 0 0 1 0 0 0
POINTS 1196
DATA ascii
-1.3922633 -0.19938838 -0.2227627 22 3
-0.75461435 -0.10780082 0.093595661 100 11
-1.3206081 -0.18842095 -0.16379242 94 4
-0.75684416 -0.10771503 0.12108029 86 12
-1.3078085 -0.1858958 -0.11556852 87 5
-0.78724426 -0.11162113 0.15455531 3 13
-1.3190449 -0.18655367 -0.069816172 89 6
-0.83165133 -0.11747313 0.19390781 1 14
-0.8286531 -0.11424814 -0.22413731 62 0
-0.75872457 -0.10447202 0.013368543 48 8
-1.2201505 -0.16757378 -0.28433815 14 1
-0.75191849 -0.10313375 0.039775331 41 9
-1.381047 -0.18893442 -0.2709488 45 2
-1.3563998 -0.18483916 -0.21681818 79 3
-0.74746269 -0.10159241 0.092620708 100 11
-1.317957 -0.17866345 -0.16330492 100 4
-0.75951731 -0.10282587 0.12139316 97 12
-1.3189467 -0.17809409 -0.11644007 100 5
-0.80162412 -0.10795642 0.15722662 3 13
-1.3262225 -0.17836954 -0.070130184 100 6
-0.81699961 -0.10959159 0.19030859 3 14
-0.82254523 -0.11004341 -0.014485498 11 7
-0.83324254 -0.10910685 -0.22517258 61 0
-0.77529836 -0.10124407 0.013647783 53 8
-1.1574943 -0.15094884 -0.26949137 40 1
-0.75262016 -0.097881854 0.039775331 41 9
-1.3628628 -0.1767631 -0.26713261 45 2
-1.3380662 -0.17283469 -0.21368951 53 3
-0.75601202 -0.097518049 0.093595661 100 11
-1.3486758 -0.17348725 -0.16696103 71 4
-0.75237942 -0.096515387 0.12014168 94 12
-1.3260571 -0.16987196 -0.116963 100 5
-0.81402493 -0.10399009 0.15951632 3 13
-1.3254541 -0.16885436 -0.070025519 100 6
-0.80612773 -0.10255233 0.18760918 3 14
-0.82246292 -0.10200596 -0.22206675 63 0
-0.77795404 -0.09621004 0.013682687 47 8
-1.1759014 -0.14521608 -0.2735405 28 1
-0.76516265 -0.094221406 0.040403362 40 9
-1.3445482 -0.16508968 -0.26331642 45 2
-1.3235254 -0.16180503 -0.21118654 56 3
-0.76848102 -0.093813233 0.095058098 100 11
-1.3222376 -0.16094503 -0.16354866 63 4
-0.73929209 -0.089726038 0.11795159 100 12
-1.319271 -0.15988301 -0.11626577 81 5
-0.82251024 -0.099389061 0.16104279 3 13
-1.3265728 -0.15982834 -0.070025519 69 6
-0.79713315 -0.095899172 0.18535967 3 14
-0.81738198 -0.095731094 -0.22051384 67 0
-0.78454953 -0.091608196 0.013787401 49 8
-1.2329959 -0.14375308 -0.28658766 34 1
-0.78562534 -0.091316909 0.041450083 55 9
-1.3241885 -0.15344821 -0.25911862 49 2
-1.3010478 -0.15007634 -0.20743214 61 3
-0.76122892 -0.087538615 0.094083138 100 11
-1.3173863 -0.1512621 -0.16281746 68 4
-0.75166106 -0.086039625 0.11982881 100 12
-1.3005337 -0.14863692 -0.11452264 70 5
-0.80756265 -0.092010126 0.15798986 3 13
-1.3256456 -0.15056983 -0.069920845 88 6
-0.81132174 -0.092008159 0.18850899 1 14
-0.82571137 -0.090867639 -0.22258438 68 0
-0.77322847 -0.084955439 0.013577973 60 8
-1.1836033 -0.12962565 -0.27489018 68 1
-0.7723307 -0.084447578 0.040717378 58 9
-1.3173956 -0.14358032 -0.25759214 58 2
-1.2882921 -0.13972591 -0.20524204 71 3
-0.74996555 -0.081074931 0.092620708 100 11
-1.3105154 -0.14121066 -0.1618425 77 4
-0.75419331 -0.081132509 0.12014168 100 12
-1.3015397 -0.13955417 -0.11452264 87 5
-0.81599379 -0.087204725 0.15951632 3 13
-1.3067799 -0.13942373 -0.068874128 81 6
-0.84101146 -0.089433014 0.19525751 3 14
-0.82525146 -0.087465607 -0.014485498 11 7
-0.82823241 -0.085443325 -0.22310203 65 0
-0.7738027 -0.0795554 0.013577973 65 8
-1.1301786 -0.11599515 -0.26229292 49 1
-0.78482282 -0.080272973 0.04134541 93 9
-1.3164127 -0.1341809 -0.25721052 60 2
-1.2912014 -0.13092811 -0.2055549 75 3
-0.7485382 -0.075637802 0.09237697 100 11
-1.299596 -0.13109192 -0.16038008 83 4
-0.75670683 -0.076063022 0.12045455 100 12
-1.3064471 -0.13086148 -0.11487127 69 5
-0.79703337 -0.079695083 0.15570015 5 13
-1.3037465 -0.12990156 -0.068664782 81 6
-0.81058806 -0.080478735 0.18805908 3 14
-0.83457768 -0.080213763 -0.22465494 67 0
-0.78827339 -0.075485639 0.013822306 84 8
-1.2066169 -0.11533402 -0.27983913 35 1
-0.76150489 -0.072519936 0.040089346 100 9
-1.2880003 -0.12220541 -0.25148627 75 2
-1.2960173 -0.12228144 -0.20618065 75 3
-0.75695354 -0.071153477 0.093351923 32 11
-1.2886208 -0.12090292 -0.15891764 91 4
-0.74738538 -0.069859155 0.11889021 100 12
-1.3033612 -0.1213681 -0.11452264 89 5
-0.80929935 -0.075218938 0.15798986 3 13
-1.3026328 -0.12061238 -0.068560109 89 6
-0.81113011 -0.074818 0.18805908 3 14
-0.82164776 -0.073185593 -0.22103147 65 0
-0.77284616 -0.068566866 0.013543067 47 8
-1.197687 -0.10604805 -0.27758962 49 1
-0.76597172 -0.067552783 0.040298689 100 9
-1.2809992 -0.11252364 -0.2499598 77 2
-1.2889678 -0.11254358 -0.20492917 81 3
-0.75940943 -0.066039011 0.093595661 42 11
-1.2973441 -0.11259054 -0.15989259 94 4
-0.7380147 -0.063789196 0.11732586 100 12
-1.2962171 -0.11180899 -0.1138254 89 5
-0.81567287 -0.070071235 0.15913472 3 13
-1.3133931 -0.11236661 -0.069083467 73 6
-0.80967897 -0.069129288 0.18760918 3 14
-0.82021326 -0.067289673 -0.22051384 68 0
-0.76532286 -0.06265223 0.013403447 41 8
-1.237244 -0.10085045 -0.28658766 63 1
-0.77039516 -0.062661417 0.040508036 39 9
-1.2915195 -0.1045939 -0.25186789 83 2
-1.2739519 -0.10249984 -0.20242621 89 3
-0.77171391 -0.061819587 0.095058098 43 11
-1.2941411 -0.10321468 -0.15940511 94 4
-0.74433917 -0.059234489 0.11826447 100 12
-1.2850491 -0.10181249 -0.11277953 87 5
-0.79265606 -0.062522732 0.15455531 5 13
-1.3181099 -0.10373741 -0.069292814 92 6
-0.81597018 -0.06393183 0.18895888 3 14
-0.82835793 -0.062284674 -0.22258438 70 0
-0.77970052 -0.058352225 0.013647783 55 8
-1.150452 -0.085897379 -0.26634204 57 1
-0.77878094 -0.057873394 0.040926725 38 9
-1.3000498 -0.096154392 -0.25339437 90 2
-1.2746365 -0.093603477 -0.20242621 83 3
-0.75034869 -0.054838873 0.09237697 51 11
-1.2948135 -0.094403647 -0.15940511 91 4
-0.75064516 -0.054465439 0.11920308 100 12
-1.2896868 -0.093351051 -0.11312816 87 5
-0.80677056 -0.058113188 0.15722662 5 13
-1.3108332 -0.093961865 -0.068874128 81 6
-0.81833029 -0.058515001 0.18940879 3 14
-0.83262736 -0.056762919 -0.22361965 70 0
-0.766114 -0.052093979 0.013403447 51 8
-1.0790846 -0.072997145 -0.24969566 66 1
-0.77716404 -0.052436594 0.040822048 38 9
-1.3006743 -0.087302685 -0.25339437 91 2
-1.2831281 -0.085450158 -0.2036777 83 3
-0.75070459 -0.049730305 0.09237697 49 11
-1.2914795 -0.085100785 -0.15891764 94 4
-0.75888306 -0.049873035 0.12045455 100 12
-1.2962714 -0.084734946 -0.11365108 95 5
-0.82282948 -0.053498466 0.16027956 5 13
-1.3074563 -0.084778629 -0.068664782 83 6
-0.7973271 -0.051421158 0.18445987 3 14
-0.8329944 -0.051094275 -0.22361965 70 0
-0.77843493 -0.04747479 0.013612877 62 8
-1.1748687 -0.071446776 -0.27174088 49 1
-0.76355582 -0.046166107 0.040089346 61 9
-1.2894938 -0.077513643 -0.25110465 93 2
-1.2915809 -0.076960444 -0.20492917 83 3
-0.75103348 -0.044488009 0.09237697 49 11
-1.2880654 -0.076074213 -0.15843016 91 4
-0.74146491 -0.043531653 0.11763873 72 12
-1.2988071 -0.076026261 -0.1138254 89 5
-0.80161524 -0.046641968 0.15608177 5 13
-1.3080162 -0.0756488 -0.068664782 85 6
-0.83073229 -0.047899734 0.1921082 3 14
-0.77534759 -0.044163235 0.20809051 7 15
-0.82561481 -0.044858202 -0.22154912 70 0
-0.79072064 -0.042823888 0.013822306 67 8
-1.2162032 -0.065441452 -0.28118882 44 1
-0.76983553 -0.041288562 0.040403362 80 9
-1.2860706 -0.068525597 -0.25034142 93 2
-1.2999654 -0.068583421 -0.20618065 86 3
-0.74735421 -0.039167244 0.091889486 57 11
-1.2885652 -0.067079969 -0.15843016 94 4
-0.73779857 -0.038279116 0.11701299 81 12
-1.2873677 -0.06634149 -0.11277953 89 5
-0.79996067 -0.040944338 0.15570015 5 13
-1.314485 -0.067048877 -0.068978801 75 6
-0.82131523 -0.041606195 0.18985869 3 14
-0.81432289 -0.038687307 -0.21844329 75 0
-0.7710256 -0.036360592 0.013473257 62 8
-1.204941 -0.056612737 -0.27848941 40 1
-0.77210015 -0.036006134 0.040508036 79 9
-1.2865175 -0.059545763 -0.25034142 87 2
-1.284626 -0.058784205 -0.2036777 89 3
-0.76148468 -0.034712017 0.093595661 58 11
-1.2969242 -0.058666226 -0.15940511 94 4
-0.7459414 -0.03348168 0.11826447 79 12
-1.279828 -0.057221137 -0.11208228 84 5
-0.79041427 -0.035063192 0.15379207 5 13
-1.3169162 -0.05795854 -0.069083467 100 6
-0.81184506 -0.035587993 0.18760918 3 14
-0.82807916 -0.033693455 -0.22206675 72 0
-0.76925719 -0.031030934 0.013438353 65 8
-1.176091 -0.047236826 -0.27174088 51 1
-0.76234895 -0.030352484 0.039984677 41 9
-1.286893 -0.050787322 -0.25034142 89 2
-1.2849964 -0.050038654 -0.2036777 91 3
-0.74781811 -0.028989671 0.091889486 70 11
-1.3052281 -0.050141782 -0.16038008 97 4
-0.74220413 -0.028253328 0.11763873 87 12
-1.2921337 -0.048961237 -0.11312816 87 5
-0.79455835 -0.029829687 0.15455531 5 13
-1.3092967 -0.048696283 -0.068664782 85 6
-0.82764775 -0.030637812 0.19120839 3 14
-0.82931626 -0.03040972 -0.014485498 11 7
-0.8302201 -0.028121505 -0.22258438 81 0
-1.0712117 -0.035722971 -0.24744615 53 1
-0.7445724 -0.024569968 0.039042629 22 9
-1.2911335 -0.042154659 -0.25110465 89 2
-1.2853073 -0.041290786 -0.2036777 91 3
-0.75593442 -0.024152501 0.092864446 68 11
-1.3055391 -0.041256193 -0.16038008 100 4
-0.75817454 -0.023694271 0.12014168 92 12
-1.298411 -0.040350471 -0.11365108 95 5
-0.80847925 -0.024842681 0.15722662 7 13
-1.3095978 -0.039783038 -0.068664782 83 6
-0.82199353 -0.024827175 0.18985869 3 14
-0.82950407 -0.024764026 -0.014485498 11 7
-0.83618575 -0.02262648 -0.22413731 76 0
-0.73362666 -0.019595062 0.012810066 5 8
-1.0870146 -0.028844157 -0.25104538 60 1
-0.76069492 -0.0199195 0.039880004 41 9
-1.2796148 -0.033061255 -0.24881494 85 2
-1.2895081 -0.032640975 -0.20430344 99 3
-0.74219012 -0.018657248 0.091158278 91 11
-1.3018206 -0.032270622 -0.15989259 100 4
-0.73857039 -0.018050352 0.11701299 119 12
-1.3086147 -0.031753168 -0.11452264 100 5
-0.79096538 -0.018916499 0.15379207 5 13
-1.3058449 -0.030774154 -0.068455435 83 6
-0.81435066 -0.019049166 0.18805908 3 14
-0.82087439 -0.016334813 -0.2199962 81 0
-1.2196826 -0.023631977 -0.28163874 60 1
-0.7568242 -0.014399776 0.039670657 42 9
-1.2758929 -0.023830375 -0.2480517 83 2
-1.3015589 -0.023628065 -0.20618065 100 3
-0.76413953 -0.013604946 0.0938394 73 11
-1.3079727 -0.023059469 -0.1606238 100 4
-0.73473048 -0.01269654 0.11638726 115 12
-1.2968597 -0.021957645 -0.11347678 100 5
-0.80678433 -0.013519142 0.156845 5 13
-1.3140197 -0.021560019 -0.068874128 93 6
-0.80082899 -0.012859958 0.18490976 3 14
-0.7697857 -0.012227261 -0.013438353 14 7
-0.82676357 -0.010678679 -0.22154912 81 0
-1.2393037 -0.015358184 -0.28613773 43 1
-0.75690627 -0.0091157965 0.039670657 21 9
-1.2721018 -0.014876164 -0.24728847 99 2
-1.2858901 -0.014364069 -0.2036777 92 3
-0.77017075 -0.0083345389 0.094570614 90 11
-1.2961919 -0.013800421 -0.15916139 86 4
-0.73875171 -0.007607704 0.11701299 131 12
-1.2910044 -0.012843858 -0.11295383 69 5
-0.78919059 -0.0077137011 0.15341043 9 13
-1.3081467 -0.012329434 -0.068560109 79 6
-0.83012915 -0.0075342869 0.1916583 3 14
-0.76985228 -0.0068528443 -0.013438353 14 7
-0.7746442 -0.0066250935 0.20757288 8 15
-0.81909072 -0.0048608603 -0.21947856 89 0
-1.2062526 -0.0065265945 -0.27848941 57 1
-0.76893491 -0.0038920273 0.040298689 20 9
-1.2800276 -0.0060321675 -0.24881494 96 2
-1.2681808 -0.0053123478 -0.20086187 66 3
-0.74638921 -0.0028658831 0.091645755 126 11
-1.2982417 -0.0047585443 -0.15940511 78 4
-0.74471295 -0.0024695343 0.11795159 123 12
-1.285085 -0.0040374836 -0.11243091 89 5
-0.78529871 -0.0021929597 0.1526472 8 13
-1.3042064 -0.0031867884 -0.06835077 77 6
-0.81846881 -0.0018570615 0.18895888 3 14
-0.76988137 -0.0014780951 -0.013438353 14 7
-0.81330919 0.00085171539 -0.21792565 79 0
-0.80187732 0.00097949826 0.01399683 4 8
-1.1945763 0.0018764288 -0.27579001 43 1
-0.76894355 0.001341864 0.040298689 20 9
-1.2761126 0.0026726383 -0.2480517 87 2
-1.2622615 0.0033045115 -0.19992328 75 3
-0.75433177 0.002238085 0.092620708 109 11
-1.2823626 0.0042526522 -0.15745521 86 4
-0.74866325 0.002613246 0.11857734 121 12
-1.2890664 0.0049498058 -0.11277953 89 5
-0.7931478 0.0033222181 0.15417367 9 13
-1.2922144 0.0056384658 -0.06772273 89 6
-0.82625669 0.003893509 0.1907585 3 14
-0.82986301 0.0042001689 -0.014485498 11 7
-0.87125325 0.0045619216 0.23345479 4 15
-0.83646607 0.0065696002 -0.22413731 86 0
-1.2335093 0.010333844 -0.28478804 56 1
-0.76891547 0.0067102527 0.040298689 20 9
-1.2564311 0.011403042 -0.24423553 75 2
-1.2701087 0.012192525 -0.20117474 91 3
-0.76223773 0.0075832512 0.093595661 111 11
-1.2703941 0.012860465 -0.15599278 94 4
-0.7407257 0.0077570952 0.11732586 138 12
-1.2929876 0.013766224 -0.11312816 89 5
-0.81273824 0.0089368038 0.15798986 8 13
-1.3061235 0.01481798 -0.068455435 83 6
-0.816468 0.0094053457 0.18850899 3 14
-0.77461475 0.0094642267 0.20757288 8 15
-0.81901503 0.012151149 -0.21947856 89 0
-0.80178756 0.012035519 0.01399683 4 8
-1.2412012 0.019064827 -0.28658766 68 1
-0.7528758 0.011695763 0.039461315 21 9
-1.2563244 0.019955048 -0.24423553 83 2
-1.2699963 0.020837616 -0.20117474 86 3
-0.76216847 0.012771292 0.093595661 99 11
-1.2782125 0.021864982 -0.15696773 91 4
-0.73473048 0.012696318 0.11638726 126 12
-1.2848916 0.022652164 -0.11243091 84 5
-0.81265604 0.014610568 0.15798986 7 13
-1.3099861 0.023780657 -0.068664782 81 6
-0.83002132 0.015357491 0.1916583 3 14
-0.77453238 0.014736469 0.20757288 8 15
-0.82084465 0.017767346 -0.2199962 99 0
-0.79368711 0.017456869 0.013857211 9 8
-1.2527322 0.027771842 -0.28928703 66 1
-0.75876611 0.017086254 0.039775331 41 9
-1.252229 0.028635595 -0.24347228 94 2
-1.2500716 0.029241106 -0.19804606 91 3
-0.77992153 0.018516134 0.095789306 75 11
-1.2780341 0.030564707 -0.15696773 81 4
-0.73857355 0.017921407 0.11701299 128 12
-1.2687733 0.031007906 -0.11103641 89 5
-0.79487395 0.019703951 0.15455531 5 13
-1.3018017 0.032724738 -0.068246089 85 6
-0.84548247 0.021401418 0.19525751 3 14
-0.82960051 0.02128916 -0.014485498 11 7
-0.8439337 0.021951543 0.22620785 5 15
-0.81876963 0.023442399 -0.21947856 88 0
-0.76556587 0.022052642 0.013368543 65 8
-1.2388724 0.03611964 -0.28613773 55 1
-0.74865019 0.021957856 0.039251972 43 9
-1.2637794 0.037508056 -0.24576201 100 2
-1.255767 0.03792832 -0.19898467 100 3
-0.76191992 0.023278695 0.093595661 86 11
-1.2777896 0.039486323 -0.15696773 91 4
-0.75028098 0.023316288 0.11889021 100 12
-1.2764914 0.040115487 -0.11173366 89 5
-0.7966792 0.025314897 0.15493691 11 13
-1.2975564 0.041457523 -0.06803675 83 6
-0.84336472 0.027240366 0.19480762 3 14
-0.82943165 0.027080344 -0.014485498 11 7
-0.82445663 0.027061759 0.22103147 6 15
-0.82631361 0.02928878 -0.22154912 85 0
-0.77138847 0.027611541 0.013473257 55 8
-1.1490138 0.041329272 -0.26544225 43 1
-0.76245028 0.027691316 0.039984677 41 9
-1.2595628 0.046185803 -0.24499875 100 2
-1.2534977 0.046620589 -0.1986718 88 3
-0.76372755 0.028538518 0.0938394 76 11
-1.2616217 0.047584213 -0.15501782 94 4
-0.75009996 0.028553668 0.11889021 96 12
-1.2801708 0.048955347 -0.11208228 70 5
-0.78667945 0.030358607 0.15302883 7 13
-1.291248 0.050281707 -0.06772273 77 6
-0.84510696 0.033056512 0.19525751 3 14
-0.8292281 0.032725293 -0.014485498 11 7
-0.82995534 0.035075597 -0.22258438 85 0
-0.77717632 0.033116989 0.013577973 53 8
-1.137024 0.04864933 -0.26274285 45 1
-0.75825334 0.032708369 0.039775331 41 9
-1.2592193 0.054758321 -0.24499875 85 2
-0.8519311 0.037196182 0.074605316 3 10
-1.2492043 0.054978102 -0.19804606 91 3
-0.75558293 0.033385884 0.092864446 69 11
-1.2493699 0.0556411 -0.15355539 94 4
-0.74199462 0.033304308 0.11763873 94 12
-1.2798079 0.057668079 -0.11208228 66 5
-0.80606693 0.036603071 0.156845 5 13
-1.292871 0.059161101 -0.067827404 85 6
-0.81176871 0.037287891 0.18760918 3 14
-0.8703264 0.040434539 0.23345479 4 15
-0.82197928 0.040345293 -0.22051384 87 0
-0.78292465 0.038702309 0.013682687 57 8
-1.2300912 0.061022297 -0.28433815 30 1
-0.74006021 0.036971819 0.038833283 44 9
-1.2548959 0.063131019 -0.24423553 70 2
-1.2547196 0.063780762 -0.19898467 95 3
-0.77119148 0.039471611 0.09481436 55 11
-1.2608571 0.064754911 -0.15501782 89 4
-0.72991425 0.037742108 0.11576151 105 12
-1.2714154 0.066186801 -0.11138504 49 5
-0.8077597 0.042191364 0.15722662 7 13
-1.3004164 0.068379551 -0.068246089 83 6
-0.81732666 0.043263413 0.18895888 3 14
-0.84301543 0.045065816 0.22620785 5 15
-0.81396228 0.045649908 -0.21844329 96 0
-0.76666319 0.043265838 0.013403447 45 8
-1.0681484 0.060466595 -0.24699625 32 1
-0.76770037 0.043727607 0.040298689 40 9
-1.2642248 0.072451949 -0.24614362 72 2
-1.2443835 0.071968533 -0.19742033 88 3
-0.76693362 0.044623967 0.094326884 54 11
-1.2643377 0.07378678 -0.15550528 94 4
-0.73949295 0.043416005 0.11732586 85 12
-1.2669445 0.074826404 -0.11103641 36 5
-0.78980714 0.04678493 0.15379207 5 13
-1.3038949 0.077693798 -0.068455435 71 6
-0.83256674 0.049900908 0.19255811 3 14
-0.77326047 0.046752635 0.20757288 8 15
-0.81555176 0.051453158 -0.21896091 100 0
-0.77432519 0.049123343 0.013543067 53 8
-1.0929826 0.069530822 -0.25284499 30 1
-0.76139688 0.048703428 0.039984677 41 9
-1.2754433 0.082031883 -0.24843332 68 2
-0.85097492 0.054880954 0.074605316 3 10
-1.2399081 0.080398276 -0.19679457 81 3
-0.76066071 0.049589664 0.093595661 47 11
-1.2637917 0.082611419 -0.15550528 91 4
-0.74902743 0.049225103 0.11889021 81 12
-1.2683792 0.083800867 -0.11121072 55 5
-0.78554326 0.052037954 0.15302883 5 13
-1.2913636 0.08599852 -0.067827404 76 6
-0.83414245 0.055842467 0.19300801 3 14
-0.77291524 0.052150056 0.20757288 8 15
-0.82480836 0.057820812 -0.22154912 85 0
-0.79590571 0.056073856 0.01392702 81 8
-1.1488436 0.081140853 -0.26589215 21 1
-0.77498406 0.055007651 0.040717378 39 9
-1.2885476 0.091912255 -0.25110465 62 2
-0.85057104 0.060820334 0.074605316 3 10
-1.2471979 0.089619115 -0.19804606 83 3
-0.75039625 0.054183859 0.09237697 54 11
-1.2552645 0.090859391 -0.15453033 94 4
-0.7565462 0.05502611 0.12014168 74 12
-1.2637891 0.092363328 -0.11086211 93 5
-0.80082494 0.05866836 0.15608177 5 13
-1.2867481 0.094718598 -0.067618065 76 6
-0.82207167 0.060801882 0.19030859 3 14
-0.8688581 0.064719699 0.23345479 4 15
-0.82823682 0.06387455 -0.22258438 83 0
-0.78153878 0.060547747 0.013682687 61 8
-1.0685906 0.082973979 -0.24744615 75 1
-0.7626338 0.059484839 0.040089346 41 9
-1.2917889 0.10121217 -0.25186789 64 2
-0.85012567 0.066756956 0.074605316 3 10
-1.2583574 0.099255696 -0.19992328 81 3
-0.75791532 0.06004861 0.093351923 40 11
-1.2545996 0.099620275 -0.15453033 89 4
-0.74826711 0.059678443 0.11889021 76 12
-1.2651172 0.10112199 -0.11103641 82 5
-0.82192236 0.065985948 0.16027956 5 13
-1.2900369 0.10402053 -0.067827404 70 6
-0.80804187 0.065297395 0.18715927 3 14
-0.77211177 0.062936276 0.20757288 8 15
-0.82007056 0.069007412 -0.22051384 81 0
-0.77911592 0.065697916 0.013647783 33 8
-1.033033 0.087472528 -0.23934792 27 1
-0.78808278 0.066869594 0.041450083 37 9
-1.2930262 0.11016944 -0.25224951 79 2
-0.84963888 0.072690323 0.074605316 3 10
-1.2615888 0.10815624 -0.20054901 75 3
-0.76935571 0.066227525 0.09481436 41 11
-1.2578291 0.1087188 -0.15501782 94 4
-0.73209947 0.063406602 0.11638726 79 12
-1.2564408 0.10926157 -0.11033916 79 5
-0.80383939 0.070185333 0.156845 5 13
-1.3012371 0.11384358 -0.068455435 70 6
-0.81921393 0.071959935 0.18985869 3 14
-0.77166545 0.068190604 0.20757288 8 15
-0.80803841 0.073537141 -0.217408 41 0
-0.77067262 0.070408016 0.013508162 43 8
-1.0692856 0.097876966 -0.24789605 7 1
-0.77964109 0.071638986 0.041031394 57 9
-1.2980906 0.11973444 -0.25339437 87 2
-0.84912443 0.078471966 0.074605316 3 10
-1.2804724 0.11878582 -0.2036777 68 3
-0.77282768 0.071965136 0.095301837 32 11
-1.268919 0.11838415 -0.15648025 76 4
-0.7414729 0.06943699 0.11795159 68 12
-1.2556679 0.11781108 -0.11033916 74 5
-0.79747915 0.075103052 0.15570015 7 13
-1.2944453 0.12236096 -0.068141423 68 6
-0.84392595 0.079922996 0.19570743 3 14
-0.84809536 0.08091525 0.2282784 5 15
-0.83249956 0.081627227 -0.22413731 73 0
-0.760225 0.074674599 0.013333639 46 8
-1.0065174 0.099221885 -0.23349921 6 1
-0.77317268 0.076355144 0.040717378 39 9
-1.3128749 0.13011652 -0.25644732 58 2
-0.84855592 0.08439786 0.074605316 3 10
-1.2717717 0.12671559 -0.20242621 73 3
-0.76639414 0.076631248 0.094570614 100 11
-1.2759621 0.12803276 -0.15745521 50 4
-0.74884492 0.075272523 0.11920308 100 12
-1.2746382 0.12857401 -0.11208228 49 5
-0.7871691 0.079680093 0.15379207 7 13
-1.2955694 0.13137065 -0.068246089 47 6
-0.83753121 0.085220948 0.19435771 3 14
-0.80140114 0.081968576 0.21585509 6 15
-0.83192474 0.087291792 -0.22413731 91 0
-0.74377543 0.07830517 0.0130544 16 8
-0.94574094 0.099734887 -0.21955223 16 1
-0.76467609 0.080910422 0.040298689 20 9
-1.2904594 0.13699907 -0.25224951 60 2
-0.78852528 0.08385139 0.069375969 5 10
-1.2904983 0.13768651 -0.2055549 68 3
-0.75005001 0.080289699 0.092620708 30 11
-1.2790086 0.13713796 -0.15794268 62 4
-0.74830115 0.080498792 0.11920308 100 12
-1.2499626 0.13468558 -0.10999054 58 5
-0.80027163 0.0865134 0.15646338 7 13
-1.2807215 0.13890474 -0.067513391 52 6
-0.827245 0.08986757 0.1921082 3 14
-0.80849105 0.088401146 0.21792565 6 15
-0.82553542 0.092452772 -0.22258438 85 0
-0.75713587 0.084926233 0.013298733 10 8
-0.95664066 0.1076426 -0.22225164 29 1
-0.78395462 0.08835008 0.04134541 18 9
-1.2758412 0.144236 -0.24957818 87 2
-0.77208298 0.087558217 0.067981474 5 10
-1.2777547 0.14512989 -0.2036777 86 3
-0.76526475 0.087190844 0.094570614 100 11
-1.2582977 0.14380974 -0.15550528 71 4
-0.73988569 0.084691696 0.11795159 100 12
-1.2668061 0.14545442 -0.11155935 66 5
-0.79964817 0.09209805 0.15646338 7 13
-1.2916509 0.14899233 -0.068141423 50 6
-0.80917507 0.093624599 0.18805908 3 14
-0.84624916 0.098363243 0.2282784 5 15
-0.81721365 0.097157411 -0.22051384 81 0
-0.77638084 0.092577875 0.013647783 33 8
-0.96169078 0.11484499 -0.22360134 51 1
-0.79125106 0.094771229 0.041764095 18 9
-1.2592093 0.15126596 -0.24652523 89 2
-0.79125029 0.095191389 0.06972459 5 10
-1.2806327 0.15451972 -0.20430344 83 3
-0.7705496 0.093246736 0.095301837 100 11
-1.2809377 0.15523699 -0.15843016 94 4
-0.73731548 0.089616671 0.11763873 69 12
-1.263809 0.15383291 -0.11138504 77 5
-0.80874676 0.098728463 0.15837148 7 13
-1.2905793 0.15800582 -0.068141423 74 6
-0.80851901 0.099130325 0.18805908 3 14
-0.79952598 0.098594479 0.21585509 6 15
-0.80884862 0.10189444 -0.21844329 92 0
-0.76779675 0.096859261 0.013508162 34 8
-0.96666557 0.12228956 -0.22495104 24 1
-0.77869904 0.098648831 0.041136064 18 9
-1.2659409 0.16082333 -0.2480517 85 2
-0.74708539 0.095173649 0.065889739 6 10
-1.2599562 0.1607334 -0.20117474 86 3
-0.767928 0.09823747 0.095058098 100 11
-1.2876986 0.16518646 -0.15940511 86 4
-0.74256617 0.095388226 0.11857734 66 12
-1.2627043 0.16265221 -0.11138504 82 5
-0.78856701 0.10185718 0.15455531 11 13
-1.3013585 0.16832407 -0.068769448 66 6
-0.80780727 0.10477243 0.18805908 7 14
-0.78734225 0.10253732 0.21274926 7 15
-0.81196636 0.10790656 -0.21947856 96 0
-0.75520879 0.10063219 0.013298733 25 8
-0.92910999 0.1239697 -0.21640292 21 1
-0.80174696 0.10726069 0.042392131 17 9
-1.2764622 0.17122339 -0.25034142 50 2
-0.74642026 0.1002567 0.065889739 6 10
-1.2529303 0.1687347 -0.20023614 55 3
-0.76722342 0.1035964 0.095058098 100 11
-1.2826099 0.17341548 -0.15891764 78 4
-0.753627 0.10216231 0.12045455 76 12
-1.2734135 0.17285104 -0.11243091 84 5
-0.75867552 0.10325123 0.14883102 48 13
-1.2882782 0.17578472 -0.068141423 66 6
-0.74915129 0.10235457 0.17456202 36 14
-0.7272768 0.099883154 0.19670248 57 15
-0.82075918 0.11491201 -0.22206675 93 0
-0.73074234 0.10243906 0.012879876 11 8
-0.93594092 0.13153793 -0.21820252 7 1
-0.77330941 0.10881918 0.040926725 19 9
-1.2713792 0.17935956 -0.24957818 25 2
-0.76148415 0.10769732 0.067284234 5 10
-1.2654437 0.17919798 -0.20242621 20 3
-0.74291587 0.10546797 0.092133231 30 11
-0.73335797 0.1045028 0.11732586 100 12
-1.2859823 0.18370926 -0.11365108 20 5
-0.73461515 0.10520525 0.14425161 94 13
-0.71948481 0.10342287 0.16781349 76 14
-0.8213892 0.11836402 -0.014485498 11 7
-0.72849208 0.10510695 0.19722012 100 15
-0.8123126 0.11937258 -0.2199962 67 0
-0.76957631 0.11336655 0.013577973 9 8
-0.87718743 0.1293754 -0.20470546 4 1
-0.75474882 0.11158608 0.039984677 41 9
-1.2565017 0.18621606 -0.24690685 50 2
-0.74890858 0.11112352 0.066238366 11 10
-1.2563463 0.18686533 -0.20117474 45 3
-0.76179534 0.11357922 0.094570614 100 11
-1.2388669 0.18492852 -0.15379913 30 4
-0.71698153 0.1072815 0.11482291 100 12
-1.2629945 0.18943185 -0.11173366 20 5
-0.73970646 0.11107781 0.14539646 100 13
-1.2482067 0.18788214 -0.066152655 7 6
-0.73416066 0.11076933 0.17141271 100 14
-0.7454285 0.11260229 -0.013159114 15 7
-0.72965068 0.11047962 0.19773777 100 15
-0.81336886 0.12533471 -0.22051384 55 0
-0.78655249 0.12148356 0.013892116 49 8
-0.9340384 0.14442977 -0.21820252 10 1
-0.77763581 0.12052326 0.041240737 75 9
-1.266811 0.19679208 -0.24919657 51 2
-0.76189566 0.11849227 0.067458548 33 10
-1.276481 0.19897877 -0.20461631 48 3
-0.75510007 0.11797532 0.0938394 100 11
-1.2728481 0.19909513 -0.15818642 28 4
-0.70645738 0.11075444 0.11325856 100 12
-1.2773874 0.20071881 -0.11312816 22 5
-0.7272765 0.11440869 0.14310676 100 13
-0.73588693 0.11602643 -0.039042629 7 6
-0.74684346 0.11802111 0.17456202 96 14
-0.74462426 0.11780362 -0.013159114 100 7
-0.72504562 0.11496559 0.19670248 100 15
-0.81247407 0.13100985 -0.22051384 93 0
-0.76397032 0.12346251 0.013508162 100 8
-0.95224464 0.15405937 -0.22270155 45 1
-0.78860444 0.12786725 0.041868769 100 9
-1.2634684 0.20531608 -0.24881494 66 2
-0.76104987 0.12380842 0.067458548 100 10
-1.2594638 0.20534219 -0.20211335 75 3
-0.76601267 0.12516491 0.095301837 100 11
-1.2577138 0.20573296 -0.15648025 58 4
-0.71541375 0.11728176 0.11482291 100 12
-1.2484663 0.20489144 -0.11068779 44 5
-0.71096224 0.11693427 0.14005381 100 13
-0.75673628 0.12473416 -0.040194016 21 6
-0.73640913 0.12151562 0.17231251 100 14
-0.75956684 0.12560926 -0.013438353 100 7
-0.71660191 0.11876097 0.19463193 100 15
-0.80963457 0.13635813 -0.2199962 100 0
-0.76705599 0.12932457 0.013577973 48 8
-0.93385237 0.15778166 -0.21865243 15 1
-0.7837773 0.13256581 0.041659426 12 9
-0.74838138 0.12711668 0.066412672 76 10
-0.76122916 0.12970904 0.09481436 100 11
-1.2797281 0.21851824 -0.15940511 15 4
-0.7184931 0.12281419 0.11544865 100 12
-0.72173834 0.12388753 0.14234352 100 13
-0.76571178 0.13157341 -0.040717378 35 6
-0.74130434 0.12764566 0.17366222 96 14
-0.78034776 0.13464905 -0.013822306 31 7
-0.72148782 0.12462261 0.19618484 100 15
-0.80488211 0.1411982 -0.21896091 34 0
-0.75825644 0.13329181 0.013438353 55 8
-0.78689355 0.13846724 -0.18445987 17 1
-0.76316345 0.13456635 0.040612705 13 9
-0.76172382 0.13458647 -0.1503575 33 2
-0.74946082 0.13255483 0.066586986 64 10
-0.7507956 0.13306119 -0.12076741 60 3
-0.73685092 0.13085511 0.091889486 100 11
-0.73878253 0.13133115 -0.092133231 100 4
-0.72734207 0.12955931 0.11701299 100 12
-0.75908226 0.1353498 -0.067458548 47 5
-0.71314776 0.12741618 0.14081705 100 13
-0.74708062 0.13374798 -0.039775331 55 6
-0.73082739 0.13096985 0.17141271 100 14
-0.76760387 0.13783702 -0.013612877 51 7
-0.71299499 0.12828793 0.1941143 100 15
-0.72976041 0.13327786 -0.19877303 36 0
-0.745529 0.13629216 0.013228924 111 8
-0.73606962 0.13482839 -0.17276241 43 1
-0.75240731 0.13795675 0.040089346 34 9
-0.7530663 0.13834929 -0.14883102 100 2
-0.75243604 0.13850501 0.066935606 64 10
-0.75181514 0.13852656 -0.12108029 71 3
-0.76132053 0.14055258 0.095058098 100 11
-0.74760759 0.13829099 -0.093351923 56 4
-0.71673149 0.13270879 0.11544865 100 12
-0.74048811 0.13737504 -0.065889739 83 5
-0.73926347 0.13741478 0.14615969 100 13
-0.74811643 0.13919546 -0.039880004 94 6
-0.72989517 0.13606879 0.17141271 100 14
-0.73713744 0.13768515 -0.013089306 60 7
-0.73299366 0.13704357 0.1998083 100 15
-0.7155503 0.13572189 -0.19514956 52 0
-0.74455929 0.14149362 0.013228924 80 8
-0.72747725 0.13837877 -0.17096281 60 1
-0.75338781 0.14358009 0.040194016 29 9
-0.73472631 0.14028938 -0.14539646 84 2
-0.75147581 0.14362349 0.066935606 48 10
-0.73918897 0.14154264 -0.11920308 100 3
-0.76811892 0.1473604 0.096033052 100 11
-0.74080056 0.14225337 -0.092620708 42 4
-0.70802832 0.13621666 0.11419717 100 12
-0.72975373 0.14052829 -0.065018184 66 5
-0.72867256 0.14058405 0.14425161 100 13
-0.74516553 0.14403586 -0.039775331 59 6
-0.74234498 0.14362507 0.17456202 96 14
-0.74599892 0.14460216 -0.013263829 57 7
-0.72822624 0.14142074 0.19877303 100 15
-0.71648073 0.1410875 -0.19566721 55 0
-0.75535077 0.14887843 0.013438353 112 8
-0.74369979 0.14685193 -0.17501192 48 1
-0.76414919 0.15102825 0.040822048 25 9
-0.75493896 0.14948191 -0.14959426 82 2
-0.74459189 0.14770326 0.066412672 51 10
-0.75952154 0.1508026 -0.12264463 100 3
-0.77877975 0.15490887 0.097495481 100 11
-0.75536382 0.15052526 -0.094570614 38 4
-0.71289647 0.14219193 0.11513578 100 12
-0.73852366 0.14757168 -0.065889739 74 5
-0.73729861 0.14759435 0.14615969 100 13
-0.77354288 0.15499043 -0.04134541 100 6
-0.73177105 0.14688636 0.17231251 100 14
-0.7410503 0.14901806 -0.01319402 42 7
-0.71398962 0.14370607 0.19514956 100 15
-0.72875392 0.14866398 -0.19929068 36 0
-0.72490484 0.14814252 0.012914781 73 8
-0.72931856 0.14917694 -0.17186262 45 1
-0.75916296 0.15555768 0.040612705 23 9
-0.7634927 0.1567224 -0.15150236 70 2
-0.73576277 0.15116426 0.065715425 64 10
-0.74684137 0.15371189 -0.12076741 100 3
-0.76601416 0.15793687 0.096033052 81 11
-0.7484895 0.15445964 -0.0938394 42 4
-0.71768975 0.14836513 0.11607439 100 12
-0.73945314 0.15299876 -0.066064052 70 5
-0.71513057 0.14822653 0.1419619 100 13
-0.73528653 0.15267201 -0.039356641 54 6
-0.74029416 0.15384653 0.17456202 100 14
-0.74589199 0.15528147 -0.013298733 39 7
-0.71107781 0.14829293 0.19463193 100 15
-0.71824771 0.15175129 -0.19670248 46 0
-0.74540043 0.1576242 0.013298733 84 8
-0.73207217 0.15507257 -0.17276241 48 1
-0.75027114 0.15906461 0.040194016 14 9
-0.74512446 0.15824507 -0.14806779 75 2
-0.74833101 0.15919906 0.066935606 57 10
-0.72838914 0.15508953 -0.11795159 100 3
-0.7416243 0.1581782 0.093108192 100 11
-0.74545157 0.15926673 -0.093595661 34 4
-0.72245836 0.15448588 0.11701299 100 12
-0.73836702 0.15815739 -0.066064052 58 5
-0.72367615 0.15527481 0.14386998 100 13
-0.73618305 0.15809275 -0.039461315 62 6
-0.72777116 0.15655208 0.17186262 100 14
-0.73501569 0.15837872 -0.01312421 24 7
-0.72704792 0.15679483 0.19929068 100 15
-0.76438224 0.16694161 -0.20964344 56 0
-0.76907259 0.1683879 -0.18176045 37 1
-0.73938799 0.16215914 0.039670657 63 9
-0.73824894 0.16217943 -0.14692293 19 2
-0.76279736 0.16771181 0.068330102 39 10
-0.74272186 0.16356972 -0.12045455 49 3
-0.74825579 0.16506252 0.094083138 100 11
-0.70558196 0.15577778 -0.088720888 50 4
-0.71171838 0.15739329 0.11544865 100 12
-0.72451919 0.16062208 0.14425161 100 13
-0.7209816 0.1602339 0.1705129 100 14
-0.73159218 0.16312805 0.20084359 100 15
-0.82538456 0.18631127 -0.22672549 78 0
-0.90472788 0.20471902 -0.21415339 20 1
-0.79670513 0.18042216 0.042810816 16 9
-1.7863386 0.40519044 -0.3560496 53 2
-1.7239588 0.39199021 -0.28001773 66 3
-0.75872815 0.17279659 0.095545575 100 11
-1.7011966 0.38806373 -0.21424633 39 4
-0.70870477 0.16179435 0.11513578 100 12
-1.6917078 0.38683116 -0.15182531 11 5
-0.74060357 0.16962075 0.14768617 100 13
-1.705373 0.39089558 -0.091692604 17 6
-0.72364408 0.16613533 0.17141271 100 14
-0.73046488 0.1681039 0.20084359 100 15
-0.81280828 0.18929605 -0.22361965 100 0
-0.75754553 0.17670444 0.013577973 4 8
-0.92418832 0.21574569 -0.21910232 8 1
-1.7949357 0.42033702 -0.35833931 79 2
-0.74489385 0.17457613 0.066935606 5 10
-1.7038724 0.39995301 -0.27720189 74 3
-0.75943571 0.17854361 0.095789306 100 11
-1.7217035 0.40508977 -0.21717119 90 4
-0.7133261 0.16809738 0.11607439 100 12
-1.6870964 0.39787957 -0.151651 13 5
-0.71268237 0.16833958 0.14234352 100 13
-1.700659 0.40233201 -0.091587931 12 6
-0.72818542 0.17240407 0.17276241 100 14
-0.70671862 0.16784289 0.19463193 100 15
-0.81898057 0.19677097 -0.22569022 93 0
-0.79132217 0.19027175 0.014206259 4 8
-0.9207651 0.22173603 -0.21865243 25 1
-1.8111174 0.43715149 -0.3621555 68 2
-0.79788202 0.19288044 0.071816333 4 10
-1.6838305 0.40736121 -0.27438608 61 3
-0.75434434 0.18277371 0.095301837 91 11
-1.7034005 0.41335502 -0.21522127 79 4
-0.72368288 0.17574579 0.11795159 100 12
-1.6842775 0.40964842 -0.151651 13 5
-0.7114898 0.17331094 0.14234352 100 13
-1.6745957 0.40822238 -0.090331867 9 6
-0.73264354 0.17887017 0.17411213 100 14
-0.70743626 0.1731085 0.19514956 100 15
-0.81949747 0.20280512 -0.22620785 87 0
-0.81714821 0.20252647 0.014694927 3 8
-0.90221161 0.22377616 -0.2146033 25 1
-1.8118317 0.45073271 -0.36291873 43 2
-0.76948339 0.19156842 0.069375969 5 10
-1.6771122 0.41815087 -0.27376035 61 3
-0.74919808 0.18707375 0.09481436 78 11
-1.7024735 0.42542103 -0.21546502 83 4
-0.7109406 0.17791659 0.11607439 86 12
-1.6775113 0.42042777 -0.15130237 12 5
-0.71029359 0.17814989 0.14234352 100 13
-1.6794534 0.42184916 -0.09075056 9 6
-0.72192764 0.18160361 0.17186262 92 14
-0.70995694 0.17898764 0.19618484 95 15
-0.81993365 0.20899852 -0.22672549 90 0
-0.77696317 0.19833413 0.01399683 4 8
-0.9176203 0.23441027 -0.21865243 19 1
-1.7363713 0.44485536 -0.34841725 47 2
-0.82602626 0.21177995 0.074605316 3 10
-1.6798921 0.4313229 -0.27469894 68 3
-0.75556397 0.19427696 0.095789306 57 11
-1.6917722 0.43531749 -0.21449007 81 4
-0.7039426 0.18139662 0.11513578 69 12
-1.6803229 0.43362272 -0.15182531 12 5
-0.70523083 0.18212236 0.14158028 85 13
-1.6900028 0.43706459 -0.091483258 12 6
-0.71686924 0.18566184 0.17096281 69 14
-0.6993407 0.18151309 0.19359665 59 15
-0.8091116 0.21226636 -0.22413731 80 0
-0.84518582 0.22204578 0.015253403 3 8
-0.9216156 0.24229699 -0.22000213 42 1
-1.7085444 0.4504596 -0.34345621 44 2
-0.82452762 0.21754174 0.074605316 3 10
-1.6863891 0.44556326 -0.2762633 68 3
-0.76378459 0.20208564 0.097008012 42 11
-1.6925297 0.44813383 -0.21497753 78 4
-0.71029657 0.18833169 0.11638726 34 12
-1.6696295 0.44300601 -0.15112805 13 5
-0.71153182 0.18905801 0.14310676 20 13
-1.6984911 0.45193338 -0.092111297 18 6
-0.81134027 0.21891636 -0.22517258 87 0
-0.9274264 0.25075978 -0.22180174 21 1
-1.6808046 0.45540446 -0.33849517 49 2
-0.82298881 0.22329251 0.074605316 3 10
-1.6795045 0.45599666 -0.27563757 62 3
-0.77771574 0.2114463 0.098957919 40 11
-1.6970215 0.46202484 -0.2159525 78 4
-0.75283414 0.20510483 0.12358324 30 12
-1.6607295 0.45307827 -0.15060511 12 5
-0.80109954 0.21885549 0.16142441 3 13
-1.7011552 0.4650642 -0.092425302 13 6
-0.82889569 0.22691566 0.19840683 1 14
-0.81727815 0.22649747 -0.22724313 85 0
-0.90316582 0.25080934 -0.21640292 9 1
-1.6662365 0.46396777 -0.33620548 51 2
-1.6534477 0.46133968 -0.27188313 61 3
-0.75519001 0.21099502 0.09627679 50 11
-1.6861901 0.47142702 -0.21497753 78 4
-0.74567717 0.20875815 0.12264463 25 12
-1.6614443 0.46544656 -0.15095374 11 5
-0.79959124 0.22430333 0.16142441 3 13
-1.6940212 0.47584894 -0.092215963 13 6
-0.90237337 0.25364575 0.21640292 0 14
-0.82310897 0.2343135 -0.22931369 87 0
-0.88265282 0.25176343 -0.21190389 12 1
-1.6536014 0.47260126 -0.33429739 56 2
-1.6559664 0.47421515 -0.27282172 64 3
-0.75755268 0.2172247 0.096764266 49 11
-1.679042 0.48209175 -0.21449007 81 4
-0.73854327 0.21219236 0.12170603 31 12
-1.6696426 0.48033977 -0.15199961 13 5
-0.80177897 0.23096678 0.16218765 3 13
-1.67539 0.48294318 -0.091378585 13 6
-0.9005807 0.25993907 0.21640292 0 14
-0.8252039 0.24099375 -0.23034896 87 0
-0.88465935 0.25885996 -0.21280369 8 1
-0.83375847 0.24428205 0.045532286 12 9
-1.6540295 0.48523897 -0.3350606 60 2
-1.6526154 0.485764 -0.27282172 64 3
-0.75411344 0.22194764 0.096520528 43 11
-1.6681048 0.49126583 -0.2135151 73 4
-0.74841219 0.22069553 0.12358324 25 12
-1.6739781 0.49394864 -0.15269686 14 5
-0.82654744 0.24420689 0.1675303 1 13
-1.6853843 0.49859354 -0.092111297 12 6
-0.78667527 0.23287439 0.18940879 1 14
-0.81980014 0.24563989 -0.22931369 85 0
-1.5958143 0.47907066 -0.38466629 34 1
-1.6431681 0.49422446 -0.33353412 50 2
-1.6473795 0.49643183 -0.27250886 61 3
-0.76018709 0.2293691 0.097495481 42 11
-1.6684347 0.50404799 -0.21400258 78 4
-0.73743826 0.22292648 0.1220189 23 12
-1.6590472 0.50215995 -0.151651 20 5
-0.8736729 0.26477602 0.17745239 1 13
-1.6723949 0.50715607 -0.091587931 13 6
-0.81486511 0.24741958 0.19660722 1 14
-0.81441569 0.25008008 -0.2282784 77 0
-1.6390814 0.50424683 -0.39591387 61 1
-1.6415538 0.50626254 -0.33391577 52 2
-1.636324 0.50558805 -0.2712574 61 3
-0.7680493 0.2376042 0.09871418 23 11
-1.668758 0.51656663 -0.21449007 78 4
-0.73775083 0.22865434 0.12233177 22 12
-1.6555908 0.51344073 -0.151651 13 5
-0.80810225 0.25092247 0.16447736 1 13
-1.6726279 0.52000463 -0.091797277 16 6
-0.82432687 0.25643361 0.19930664 1 14
-1.7469462 0.54411316 -0.031937905 1 7
-0.80712169 0.25402001 -0.22672549 72 0
-1.6225111 0.51157582 -0.39276454 50 1
-1.6436859 0.51919854 -0.3350606 54 2
-1.6271948 0.51492643 -0.27031878 64 3
-0.770199 0.2440256 0.099201649 33 11
-1.6651111 0.5282042 -0.21449007 76 4
-0.73806018 0.23426819 0.12264463 10 12
-1.6557636 0.52619332 -0.15199961 14 5
-0.76704323 0.24405727 0.15646338 3 13
-1.6538246 0.52653056 -0.090959899 11 6
-0.87450409 0.2787534 0.21190389 1 14
-1.7431049 0.55629587 -0.031937905 1 7
-0.81824523 0.26365542 -0.23034896 70 0
-1.6227005 0.52380538 -0.39366436 49 1
-1.647493 0.53307813 -0.33658707 56 2
-1.6367143 0.53053731 -0.27250886 68 3
-0.75337148 0.24449453 0.097251743 30 11
-1.6577011 0.53829944 -0.21400258 76 4
-0.78712863 0.25590545 0.1310921 4 12
-1.6805634 0.54669631 -0.15461428 51 5
-0.78963184 0.25717649 0.16142441 1 13
-1.655805 0.53992116 -0.091273919 10 6
-0.82441813 0.2689836 0.20020644 1 14
-1.6632442 0.54331052 -0.030541712 1 7
-0.80904633 0.26694 -0.2282784 57 0
-1.624555 0.53695548 -0.39501405 47 1
-1.6400987 0.54304576 -0.33582386 58 2
-1.6480646 0.54664093 -0.27501184 67 3
-0.75168985 0.24961671 0.097251743 12 11
-1.6539025 0.54985958 -0.21400258 72 4
-0.7628758 0.25377482 0.12733766 13 12
-1.6672542 0.55526817 -0.15374273 66 5
-0.83624095 0.27882889 0.17134649 2 13
-1.6596699 0.55370772 -0.091692604 11 6
-1.0535653 0.35190469 0.25644422 2 14
-1.6594106 0.55490893 -0.030541712 7 7
-0.79439771 0.26811635 -0.22465494 52 0
-1.6411694 0.55486673 -0.39996299 44 1
-1.638127 0.55511266 -0.33620548 50 2
-1.0660855 0.36147219 0.098485984 2 10
-1.6573019 0.56257802 -0.27720189 60 3
-0.77812171 0.26443955 0.10090782 5 11
-1.6613979 0.56493872 -0.21546502 68 4
-0.74612558 0.25400195 0.12483472 19 12
-1.6595656 0.56560838 -0.1533941 69 5
-1.0907527 0.37195995 0.22400977 12 13
-1.6671048 0.5691523 -0.092320636 11 6
-1.6631637 0.56877923 -0.030681333 9 7
-0.78520238 0.2711336 -0.22258438 11 0
-4.9138765 1.6987003 0.090752512 12 8
-1.6722476 0.57841408 -0.40851113 34 1
-1.8099284 0.62674344 0.10038038 3 9
-1.658326 0.5748952 -0.3411665 46 2
-1.0673009 0.37021175 0.098834611 11 10
-1.6477357 0.5721904 -0.2762633 53 3
-0.78188163 0.27182099 0.10163904 10 11
-1.6667881 0.57978457 -0.21668372 58 4
-0.76298916 0.26570088 0.12796341 18 12
-1.6687456 0.58177215 -0.15461428 59 5
-1.0566163 0.36857304 0.21752228 23 13
-1.6970313 0.59263003 -0.094204731 15 6
-1.1221316 0.3923052 0.27444029 50 14
-1.6912404 0.59160137 -0.031274714 11 7
-2.0092311 0.7095331 -0.57095486 53 0
-3.998817 1.4136999 0.074033104 13 8
-1.7012384 0.60177159 -0.41660935 51 1
-4.0101495 1.4200687 0.2229512 8 9
-1.6783277 0.59498602 -0.34612754 39 2
-1.0609345 0.37632197 0.098485984 30 10
-1.6604544 0.58962899 -0.27907911 47 3
-0.7650016 0.27195337 0.099689126 33 11
-1.6795325 0.59739411 -0.21887736 54 4
-0.78902948 0.2809605 0.13265644 14 12
-1.6928996 0.60314733 -0.15722896 44 5
-1.024431 0.36538789 0.21141638 11 13
-1.6984956 0.60647756 -0.094518751 18 6
-1.1231056 0.40124553 0.27534011 41 14
-1.7360244 0.62090284 -0.032182239 13 7
-2.0005946 0.72223103 -0.56991959 46 0
-3.9307983 1.4198258 0.072951064 30 8
-1.7006609 0.61495912 -0.41750914 76 1
-3.9478033 1.428305 0.22002037 35 9
-1.7277702 0.62578493 -0.35719445 67 2
-1.0489163 0.3803235 0.097614422 13 10
-1.6991124 0.61641222 -0.28627509 38 3
-0.74074256 0.26902261 0.096764266 24 11
-1.7089021 0.62131411 -0.22326466 42 4
-0.79266787 0.28835067 0.13359505 16 12
-1.7242178 0.62790477 -0.16054088 34 5
-0.91302943 0.33285701 0.18890092 6 13
-1.7074623 0.62281573 -0.095251448 18 6
-1.1056329 0.40372908 0.27174088 31 14
-3.9084144 1.4287295 -0.072636917 34 7
-2.0264456 0.74719292 -0.57871938 42 0
-3.8476272 1.4202275 0.071589775 35 8
-1.7110603 0.63192159 -0.42110837 40 1
-3.845943 1.4218942 0.21489146 35 9
-1.7288829 0.63987613 -0.35833931 66 2
-3.8376911 1.4211278 0.3580358 1 10
-1.7373683 0.64405113 -0.2934711 61 3
-0.74633902 0.27681977 0.09773922 12 11
-3.8279812 1.4213318 -0.50137055 20 4
-0.76471293 0.28424236 0.12921488 22 12
-3.8450398 1.4299569 -0.35890734 35 5
-0.79850966 0.29728043 0.16562222 15 13
-1.7030727 0.63472086 -0.095251448 6 6
-0.97869617 0.3649464 0.24114752 5 14
-3.8105478 1.4224318 -0.070996389 41 7
-2.0231211 0.76164997 -0.57923704 46 0
-3.7723782 1.4217013 0.070368104 35 8
-1.836182 0.69237036 -0.45305145 6 1
-3.7651696 1.4212363 0.21091393 39 9
-1.7263238 0.65232337 -0.35872093 58 2
-1.0809149 0.40865898 0.10110066 2 10
-3.7855041 1.4326881 -0.64106852 22 3
-0.78156662 0.29595289 0.102614 9 11
-3.7755253 1.431172 -0.49576455 21 4
-0.74798548 0.28383425 0.12671193 35 12
-3.7644367 1.4292232 -0.35228351 19 5
-0.78545666 0.29852375 0.16333251 19 13
-3.7521019 1.4275388 -0.21039055 18 6
-0.88330573 0.33624205 0.21820252 11 14
-3.722295 1.4184297 -0.06953039 42 7
-2.0088732 0.77193862 -0.57664889 43 0
-3.6860926 1.4179113 0.068937011 42 8
-2.1187804 0.81544602 -0.52413595 4 1
-3.6920416 1.4224191 0.20735508 41 9
-1.0818256 0.41744155 0.10144928 5 10
-0.78688729 0.30426589 0.10358895 19 11
-3.5583417 1.3766186 -0.46846578 4 4
-0.75156236 0.2910592 0.12765054 56 12
-3.6728778 1.4231404 -0.34461379 4 5
-0.75961137 0.29463378 0.15837148 29 13
-3.6492064 1.4168992 -0.20515697 8 6
-0.86646461 0.33660147 0.2146033 22 14
-3.6585059 1.4227146 -0.068518147 37 7
-3.5981748 1.4122829 0.067471005 39 8
-2.1130362 0.83021748 -0.52413595 1 1
-3.6263919 1.4270113 -0.75751179 7 2
-1.0825925 0.42644465 0.10179791 9 10
-3.5120342 1.3841345 -0.59789258 6 3
-0.76633215 0.30232996 0.10115156 31 11
-3.5227962 1.391219 -0.46505347 9 4
-0.75140095 0.29689407 0.12796341 100 12
-3.6702635 1.4516784 -0.34531105 6 5
-0.74658364 0.2955932 0.15608177 45 13
-3.5633457 1.4115478 -0.20086543 8 6
-0.84960157 0.3368955 0.21100408 34 14
-3.5871496 1.4238751 -0.067366287 15 7
-2.2132676 0.88569206 -0.63876545 1 0
-3.528826 1.4135735 0.066354051 27 8
-3.5291092 1.4144018 -0.87775904 23 1
-3.541646 1.4222956 -0.7418654 15 2
-1.077816 0.43306065 0.10162359 11 10
-3.5022852 1.4086194 -0.59789258 71 3
-0.75683707 0.30470687 0.10017661 32 11
-3.4911489 1.4062654 -0.46212861 26 4
-0.76030231 0.30656466 0.12984063 100 12
-3.5953751 1.4511654 -0.33921015 0 5
-0.73909307 0.29846278 0.15493691 54 13
-3.5052605 1.4169281 -0.19814396 1 6
-0.82374489 0.33331636 0.20515537 43 14
-3.4939647 1.4144907 -0.065795571 8 7
-3.4768779 1.4195949 -1.0062885 1 0
-3.4686439 1.4183522 -0.86516178 48 1
-1.0720791 0.43881759 0.060709719 4 9
-3.4644125 1.4194466 -0.72774553 11 2
-1.0766098 0.4413304 0.10179791 17 10
-3.4667809 1.4225372 -0.59351242 8 3
-0.76203632 0.31300005 0.10115156 31 11
-3.43718 1.4124941 -0.45627886 10 4
-0.74900931 0.3081077 0.12827627 100 12
-3.4690902 1.4284389 -0.32822853 71 5
-0.74062192 0.30511102 0.15570015 58 13
-3.4398901 1.4185222 -0.19500379 35 6
-3.4267077 1.4151868 -0.064713523 30 7
-3.3939083 1.4155289 -0.84896529 39 1
-1.0708326 0.44706064 0.060814388 27 9
-3.3946412 1.4186163 -0.71515214 26 2
-1.0385768 0.43423325 0.098485984 25 10
-3.420321 1.4314518 -0.58725506 8 3
-0.7616635 0.31907946 0.1013953 35 11
-3.397943 1.4241774 -0.45237905 23 4
-0.73044598 0.30645132 0.12546046 54 12
-3.378454 1.4180892 -0.32055882 44 5
-0.73123384 0.30723217 0.15417367 61 13
-3.3783534 1.4208226 -0.19207297 41 6
-0.73824155 0.31063136 0.18490976 1 14
-1.1558069 0.49108669 0.021920223 23 8
-3.3355248 1.4185951 -0.83681792 31 1
-1.0677646 0.4543395 0.060814388 27 9
-3.3397503 1.4224573 -0.70561171 16 2
-1.0226908 0.43600348 0.09726581 25 10
-3.3232822 1.4174995 -0.57223737 11 3
-0.77955627 0.33283046 0.10407643 37 11
-3.3386319 1.4268031 -0.4457981 46 4
-0.73742473 0.31529903 0.1270248 40 12
-3.3006985 1.412636 -0.3141093 40 5
-0.72185254 0.30923727 0.1526472 72 13
-3.3043525 1.4162472 -0.18840946 42 6
-0.68232828 0.29272825 0.17141271 2 14
-1.1413405 0.4943752 0.021710794 42 8
-3.2596333 1.412596 -0.82017154 9 1
-1.0590699 0.45939812 0.060500368 42 9
-3.2757134 1.4222815 -0.6941632 7 2
-0.99046075 0.43025345 0.094476826 22 10
-3.2607706 1.4178231 -0.56316411 38 3
-0.76629275 0.33351156 0.102614 39 11
-3.2596817 1.4193794 -0.43653604 41 4
-0.72977298 0.31807196 0.12608619 35 12
-3.2414501 1.4141333 -0.30940288 44 5
-0.69633973 0.30393395 0.14768617 65 13
-0.69455194 0.30373105 0.17501192 2 14
-1.1615052 0.50817323 -0.022129651 3 7
-1.0628577 0.46921909 0.020279696 18 8
-3.1783879 1.4038246 -0.80217546 13 1
-1.0521836 0.46516523 0.06029103 60 9
-3.2010725 1.4165152 -0.68042493 21 2
-0.93642151 0.41457361 0.0895961 25 10
-3.189389 1.4133426 -0.55252659 34 3
-0.75305808 0.33402389 0.10115156 42 11
-0.72753471 0.3231588 0.12608619 33 12
-0.69778854 0.31038356 0.14844941 72 13
-0.65325493 0.29112098 0.16511407 2 14
-1.1396652 0.50812691 -0.021780603 56 7
-1.0668505 0.47990945 0.020419316 40 8
-3.1294146 1.4083841 -0.79227757 25 1
-1.0325211 0.46511698 0.059348982 49 9
-3.1445723 1.4178464 -0.67050284 35 2
-0.92442352 0.41700485 0.088724539 33 10
-0.76517928 0.34581307 0.10310147 39 11
-3.1147397 1.4083226 -0.41971806 1 4
-0.71446306 0.3233431 0.12420898 35 12
-0.69381642 0.31443706 0.14806779 70 13
-1.1695342 0.53052413 -0.067304045 8 6
-1.1324489 0.51441658 -0.021710794 76 7
-1.0581051 0.48466167 0.0203146 33 8
-3.0769913 1.4107056 -0.78147995 5 1
-0.96034634 0.44049197 0.055371448 14 9
-3.0795381 1.4138249 -0.65867269 23 2
-0.89252365 0.41013747 0.085935563 43 10
-0.75198776 0.34603459 0.10163904 30 11
-0.70506924 0.32489201 0.1229575 32 12
-0.69338685 0.32009605 0.14844941 59 13
-1.1604563 0.53596032 -0.066990033 44 6
-1.0689403 0.49459901 -0.020558937 16 7
-1.0365739 0.48358262 0.019965554 15 8
-3.0567226 1.4266715 -0.77878052 1 1
-0.94458085 0.44126832 0.054638743 26 9
-0.88068783 0.41198209 0.085064009 37 10
-0.84661806 0.39676523 0.11480093 30 11
-0.70636034 0.331485 0.12358324 32 12
-1.1596555 0.54445666 -0.11208228 48 5
-0.68053091 0.31979844 0.14615969 53 13
-1.1458423 0.53894824 -0.066361994 57 6
-1.0601217 0.49930748 -0.02045422 17 7
-0.93253672 0.44339925 0.054115385 21 9
-0.87239391 0.41554996 0.084541067 28 10
-0.84927309 0.4050824 0.11553215 67 11
-1.1751695 0.56103033 -0.15989259 12 4
-0.70408773 0.3362852 0.12358324 27 12
-1.148636 0.54910207 -0.11138504 65 5
-0.66234308 0.31691521 0.14272514 24 13
-1.1367428 0.54414827 -0.066047981 72 6
-0.95059186 0.45953393 0.018429741 12 8
-1.1771618 0.56931555 -0.30188429 0 1
-0.88986868 0.43075439 0.051812604 16 9
-1.2137976 0.58807969 -0.26217157 5 2
-0.87313086 0.42321661 0.084889688 37 10
-1.1729962 0.5690701 -0.20649351 7 3
-0.84463859 0.41013446 0.11528841 36 11
-1.1516825 0.559475 -0.15721147 30 4
-0.69994634 0.34032869 0.12327038 20 12
-1.126955 0.5481925 -0.10964192 58 5
-0.63898861 0.31110349 0.13814571 7 13
-1.105985 0.53894699 -0.064477906 50 6
-1.1927634 0.5863952 -0.35613501 1 0
-0.92590922 0.45540303 0.018010885 29 8
-1.1626683 0.57235569 -0.29918489 7 1
-0.88870782 0.43768376 0.051917274 25 9
-1.1833524 0.58330792 -0.25644732 13 2
-0.87908888 0.43370929 0.085761249 51 10
-1.1460677 0.56567526 -0.20242621 23 3
-0.86496437 0.42730403 0.11845701 19 11
-1.1281742 0.55782354 -0.15453033 62 4
-0.62678993 0.31005099 0.11075561 3 12
-1.1338137 0.56135094 -0.11068779 49 5
-1.1076591 0.54912406 -0.064791918 35 6
-1.1852888 0.59277207 -0.35509977 1 0
-0.92449552 0.46275106 0.018045789 38 8
-1.1657156 0.58374643 -0.3009845 5 1
-0.88563055 0.44387743 0.051917274 46 9
-1.1669674 0.58539295 -0.25377598 13 2
-0.85474771 0.42895907 0.083669513 87 10
-1.1403254 0.5727759 -0.20211335 31 3
-0.85131848 0.4279826 0.11699458 46 11
