# .PCD v0.7 - Point Cloud Data file format
VERSION 0.7
FIELDS x y z intensity ring
SIZE 4 4 4 4 2
TYPE F F F F U
COUNT 1 1 1 1 1
WIDTH 239
HEIGHT 1
VIEWPOINT 0 0 0 1 0 0 0
POINTS 239
DATA ascii
2.4722302 0.26682401 0.13031654 61 9
2.4780073 0.24995901 0.13052589 54 9
2.4856572 0.23321402 0.1308399 13 9
2.4812932 0.21490413 0.13052589 12 9
2.4912357 0.21445119 0.21876092 37 10
2.4847238 0.19773461 0.13063055 14 9
2.4986305 0.19752489 0.21928383 104 10
2.4929702 0.1821979 0.043631013 21 8
2.4820912 0.17966092 0.13042122 12 9
2.4960055 0.17935446 0.21893522 85 10
2.4762521 0.16317061 0.043316875 83 8
2.507201 0.16389161 0.13167727 13 9
2.4991851 0.16205361 0.21910954 81 10
2.5535367 0.16378789 0.31417918 3 11
2.4753344 0.14576158 0.043281965 93 8
2.5162594 0.14684951 0.13209596 13 9
2.5082119 0.14506221 0.21980678 75 10
2.4882739 0.12909859 0.043491397 99 8
2.517123 0.12795265 0.22050403 78 10
2.5397136 0.12732354 0.31222928 9 11
2.5011008 0.11226203 0.043700829 96 8
2.5120788 0.11143693 0.13178195 51 9
2.5279071 0.11081297 0.22137558 70 10
2.5345912 0.10933325 0.31149808 9 11
2.5952654 0.11058923 0.4114227 1 12
2.5118146 0.095178105 0.043875352 87 8
2.5267663 0.094419844 0.13251466 10 9
2.5286191 0.093163356 0.22137558 70 10
2.5531466 0.092281118 0.31369171 9 11
2.5373459 0.077080622 0.13303801 11 9
2.5192504 0.07521072 0.22050403 72 10
2.5696027 0.074918583 0.31564164 9 11
2.5531158 0.07310006 0.40453959 67 12
2.5069013 0.059953507 0.043770637 9 8
2.537822 0.059363522 0.13303801 11 9
2.5296733 0.057847749 0.22137558 70 10
2.5522017 0.056581568 0.31344795 10 11
2.5733132 0.055701654 0.40766826 74 12
2.5071044 0.050765406 -0.043770637 30 7
2.517256 0.042621035 0.04394516 11 8
2.5441656 0.041744243 0.13335203 12 9
2.5459528 0.040440246 0.22277008 68 10
2.5854902 0.037907712 0.40954545 74 12
2.587311 0.036579493 0.50297254 31 13
2.5073977 0.033261281 -0.043770637 76 7
2.5334888 0.025205385 0.0442244 12 8
2.544395 0.023981603 0.13335203 74 9
2.5561345 0.022753831 0.22364163 72 10
2.5884733 0.021233344 0.31783527 10 11
2.5992825 0.018600056 0.50526226 9 13
2.5095685 0.015769295 -0.043805543 83 7
2.5436015 0.0075473525 0.044398922 12 8
2.5464978 0.0062226746 0.13345671 96 9
2.5542386 0.0049042678 0.22346732 68 10
2.5885584 0.003163113 0.31783527 8 11
2.5837922 0.0018044991 0.40923262 9 12
2.5156162 -0.0017562318 -0.043910254 79 7
2.5275948 -0.010146469 0.044119682 46 8
2.5584624 -0.011610014 0.13408473 105 9
2.5542107 -0.012928132 0.22346732 68 10
2.596458 -0.014954688 0.31881022 9 11
2.5916433 -0.016283987 0.41048408 8 12
2.6091046 -0.017759886 0.50717038 67 13
2.519542 -0.019349074 -0.043980066 79 7
2.5414593 -0.02794593 0.044364017 48 8
2.5722992 -0.029632067 0.13481744 86 9
2.5560503 -0.03078342 0.22364163 20 10
2.5883503 -0.032979704 0.31783527 8 11
2.6108801 -0.036001358 0.50755197 65 13
2.5353413 -0.037172709 -0.044259302 76 7
2.5452011 -0.04575973 0.044433825 7 8
2.5800173 -0.047737025 0.13523613 33 9
2.5756936 -0.049006134 0.22538476 8 10
2.5959959 -0.051205441 0.31881022 8 11
2.6069632 -0.052787311 0.41298702 69 12
2.6184165 -0.05439081 0.50907844 65 13
2.5470154 -0.055131327 -0.044468731 79 7
2.5588133 -0.063876659 0.044678163 10 8
2.5716348 -0.065544084 0.13481744 9 9
2.5971973 -0.067556404 0.22730216 22 10
2.5955751 -0.069327518 0.31881022 8 11
2.6124549 -0.071147248 0.41392565 69 12
2.6395602 -0.073268548 0.51327622 67 13
2.5494928 -0.07165911 -0.13366605 18 6
2.6453183 -0.075276621 0.61096704 7 14
2.538573 -0.072682448 -0.044329114 79 7
2.5682981 -0.082058124 0.044852685 10 8
2.5850878 -0.083949521 0.13555014 30 9
2.5727668 -0.084897943 0.22521043 75 10
2.6188357 -0.088248469 0.32173508 45 11
2.6079459 -0.089248613 0.41329992 74 12
2.6370227 -0.091626056 0.51289463 42 13
2.5349584 -0.088965677 -0.13293335 74 6
2.6603086 -0.094294675 0.61456627 7 14
2.6468568 -0.095205545 0.70968187 42 15
2.5676627 -0.099986084 0.044852685 9 8
2.5844388 -0.10199464 0.13555014 90 9
2.588038 -0.10349392 0.22660492 93 10
2.6280727 -0.1069326 0.32295379 13 11
2.6230493 -0.10810393 0.41580287 69 12
2.6363187 -0.11003356 0.51289463 6 13
2.5602171 -0.10775251 -0.13429408 24 6
2.6634793 -0.11302993 0.61546606 8 14
2.5453022 -0.1084599 -0.044468731 7 7
2.6596382 -0.11426204 0.71330529 59 15
2.5589118 -0.11754213 0.044713065 9 8
2.6036148 -0.1209617 0.13659686 97 9
2.5872524 -0.12155917 0.22660492 68 10
2.6252797 -0.12518273 0.32271007 8 11
2.6394081 -0.12862682 0.51365787 8 13
2.549428 -0.12513386 -0.13377072 8 6
2.6840355 -0.13267998 0.62041503 8 14
2.5624583 -0.12711839 -0.044782877 8 7
2.6703525 -0.13340524 0.71641117 73 15
2.5839884 -0.13677782 0.045166828 29 8
2.5967238 -0.13881542 0.13628285 84 9
2.5982776 -0.14026287 0.22765081 36 10
2.6283059 -0.1437242 0.32319754 8 11
2.6548142 -0.14656803 0.42112163 55 12
2.5385215 -0.14236984 -0.13324735 59 6
2.6733155 -0.1508657 0.61816549 20 14
2.6789997 -0.1525937 0.71899933 71 15
2.5849669 -0.15493362 0.045201734 64 8
2.6036658 -0.1574226 0.13670154 80 9
2.6091673 -0.15912642 0.22869666 6 10
2.631201 -0.16231403 0.32368499 8 11
2.641897 -0.16436246 0.41924441 72 12
2.6628275 -0.16706429 0.51861888 69 13
2.571352 -0.16222633 -0.13502678 72 6
2.6838663 -0.17026542 0.62086493 6 14
2.5843816 -0.16440696 -0.045201734 83 7
2.6759412 -0.17116946 0.71848166 59 15
2.5997839 -0.17404476 0.045480974 10 8
2.6144598 -0.17640235 0.13732956 84 9
2.6119683 -0.17760813 0.22904527 9 10
2.6418862 -0.1814955 0.32514745 8 11
2.6426561 -0.18293864 0.4195573 69 12
2.5937979 -0.1804662 -0.22747649 5 5
2.6772642 -0.18674299 0.52167183 69 13
2.5841033 -0.18115132 -0.13575949 80 6
2.6884437 -0.1894089 0.62221462 8 14
2.5692079 -0.18145902 -0.044957399 76 7
2.6084769 -0.19292779 0.045655496 9 8
2.6231232 -0.19539204 0.13785292 68 9
2.6106648 -0.19583865 0.22904527 9 10
2.6702461 -0.20218293 0.32880351 34 11
2.649193 -0.20198396 0.42080876 74 12
2.5567167 -0.19583091 -0.22433887 4 5
2.66415 -0.20452744 0.51938212 52 13
2.5708275 -0.19826575 -0.13513145 79 6
2.7006564 -0.20922668 0.62536395 8 14
2.5971005 -0.21032645 0.045480974 9 8
2.6376202 -0.21499811 0.13869029 94 9
2.6370339 -0.21634032 0.23148565 11 10
2.6608565 -0.22016491 0.32782856 75 11
2.6674039 -0.22211294 0.42393744 71 12
2.5910254 -0.21666369 -0.22747649 61 5
2.5673907 -0.21604109 -0.13502678 71 6
2.7088392 -0.22889598 0.62761348 8 14
2.5863495 -0.21900028 -0.045306448 6 7
2.6075208 -0.2295043 0.045690399 8 8
2.6300867 -0.23287833 0.13837628 84 9
2.6473918 -0.2376707 0.32636613 73 11
2.6716902 -0.24126235 0.42487606 68 12
2.6766338 -0.24359274 0.52243507 7 13
2.5876989 -0.23595445 -0.13617818 84 6
2.7052343 -0.24762389 0.62716353 7 14
2.6006467 -0.23896587 -0.045585688 7 7
2.6217809 -0.24921636 0.045969639 36 8
2.6323295 -0.2520735 0.13858563 88 9
2.6495781 -0.25512534 0.23288015 25 10
2.6856241 -0.26190808 0.42737901 17 12
2.6924529 -0.26399732 0.52586961 8 13
2.5799813 -0.25387865 -0.13586415 58 6
2.7344694 -0.26956263 0.63436198 8 14
2.5869749 -0.25593457 -0.045376256 7 7
2.6358449 -0.2695986 0.046248876 73 8
2.642426 -0.27166989 0.13921365 84 9
2.6437685 -0.27320692 0.23253153 7 10
2.6733837 -0.27815378 0.33002222 8 11
2.6680129 -0.27900711 0.42487606 58 12
2.7061644 -0.28442931 0.52892256 45 13
2.5871139 -0.27419943 -0.045411162 7 7
2.6319611 -0.28731689 0.046213973 72 8
2.6563985 -0.29139215 0.14005104 82 9
2.6516988 -0.29275024 0.23340309 8 10
2.6911583 -0.29853299 0.3324596 8 11
2.6915739 -0.30000579 0.42894334 67 12
2.7099657 -0.30397135 0.53006744 58 13
2.7536769 -0.31033438 0.63976079 34 14
2.620903 -0.29629755 -0.046039447 21 7
2.6318772 -0.30591515 0.046248876 72 8
2.6602507 -0.31062496 0.14036505 26 9
2.6634963 -0.31241763 0.23462325 8 10
2.7047799 -0.31917447 0.33440951 75 11
2.7031453 -0.32041672 0.43113342 65 12
2.7156317 -0.32333878 0.53159386 9 13
2.6247818 -0.31484494 -0.046144161 47 7
2.6415856 -0.32574996 0.046458308 28 8
2.6540532 -0.32869834 0.1401557 8 9
2.6829989 -0.33370966 0.23654069 8 10
2.6906672 -0.33657107 0.33294708 67 11
2.7126024 -0.34075755 0.43301064 68 12
2.7074649 -0.34155232 0.53044903 6 13
2.6511443 -0.34573519 0.046667732 8 8
2.6714973 -0.34981206 0.14120242 22 9
2.6944318 -0.35425025 0.23776087 9 10
2.7000599 -0.35690799 0.33440951 63 11
2.7160318 -0.3604663 0.43394926 71 12
2.7225289 -0.36277929 0.53388357 7 13
2.6664953 -0.36668691 0.046981879 57 8
2.684818 -0.37063903 0.14203981 90 9
2.6859722 -0.37223163 0.23723793 37 10
2.7171636 -0.37848783 0.33684689 60 11
2.7549255 -0.38668916 0.54075271 7 13
2.6920481 -0.39080814 0.14256316 80 9
2.697109 -0.39298493 0.2384581 7 10
2.7458818 -0.40204924 0.34074673 26 11
2.7283237 -0.40093771 0.43676507 9 12
2.7443898 -0.4047668 0.53922629 7 13
2.7070241 -0.41229901 0.1435052 75 9
2.7061172 -0.41361073 0.23950398 8 10
2.7292728 -0.41910005 0.33904055 7 11
2.7647793 -0.42751637 0.54380566 54 13
2.7099969 -0.4321309 0.14381923 33 9
2.7070982 -0.43312231 0.23985259 8 10
2.7478123 -0.44308001 0.44083238 56 12
2.7216153 -0.45544216 0.24142142 8 10
2.7368596 -0.45946649 0.34074673 61 11
2.7465193 -0.4630599 0.44114524 59 12
2.7360337 -0.4775143 0.24299021 36 10
2.7491436 -0.48178032 0.34269661 63 11
2.7646208 -0.48598474 0.44458681 48 12
2.7671947 -0.50488049 0.34537774 69 11
2.765553 -0.52455652 0.3456215 65 11
2.7789121 -0.52859795 0.44802836 7 12
2.7696142 -0.54538494 0.34659645 61 11
2.8003476 -0.55296016 0.45209566 17 12
2.7924485 -0.57219166 0.45146993 40 12
