# .PCD v0.7 - Point Cloud Data file format
VERSION 0.7
FIELDS x y z intensity ring
SIZE 4 4 4 4 2
TYPE F F F F U
COUNT 1 1 1 1 1
WIDTH 1173
HEIGHT 1
VIEWPOINT 0 0 0 1 0 0 0
POINTS 1173
DATA ascii
-1.6115164 -0.63706875 -0.46432137 65 0
-1.5344269 -0.60597444 0.028796472 2 8
-1.6331912 -0.64464885 -0.4053618 60 1
-1.6695548 -0.657655 -0.34879887 60 2
-1.6544737 -0.65071392 -0.28158206 60 3
-1.5593736 -0.61268216 0.20571546 1 11
-0.78713113 -0.30910742 -0.10383269 8 4
-0.78091252 -0.30619353 -0.073385134 27 5
-0.87927973 -0.34440899 0.18355827 3 13
-1.5474708 -0.60551286 -0.087087035 20 6
-1.5934663 -0.62318975 0.39501405 5 14
-1.5254623 -0.59597987 -0.028587043 3 7
-17.780483 -6.9394741 5.1142645 2 15
-1.6267337 -0.62998879 -0.46742722 65 0
-1.5217323 -0.5890193 0.028482327 7 8
-1.637652 -0.63323134 -0.4053618 58 1
-1.6630036 -0.64203334 -0.34650916 57 2
-1.664394 -0.64156914 -0.28252068 50 3
-0.77630067 -0.29861605 -0.10212652 9 4
-1.5801386 -0.60750771 0.26812872 10 12
-0.78675085 -0.30216309 -0.073733754 30 5
-0.89082766 -0.34177831 0.18546635 1 13
-1.5273136 -0.58566952 -0.085726306 39 6
-1.554103 -0.59531981 0.3842164 13 14
-1.5034389 -0.57531059 -0.028098376 2 7
-17.912111 -6.8507199 5.1385932 2 15
-1.6382089 -0.62164289 -0.46949777 65 0
-1.5127182 -0.57341999 0.028237993 1 8
-1.6419243 -0.62206954 -0.4053618 17 1
-1.6637725 -0.62901914 -0.34574592 12 2
-1.678073 -0.63342178 -0.28408504 10 3
-0.77831531 -0.29332501 -0.10212652 9 4
-1.5621566 -0.58810997 0.26437429 15 12
-0.7869246 -0.29609919 -0.073559448 27 5
-0.92069918 -0.34606826 0.19119063 0 13
-1.5481933 -0.58131087 -0.086668357 9 6
-1.5489967 -0.58130449 0.38196689 19 14
-1.511065 -0.56646746 -0.028168185 2 7
-18.022825 -6.7492166 5.1567111 1 15
-1.6334542 -0.6068275 -0.46690959 72 0
-0.92310816 -0.3414681 0.086109869 1 10
-0.79896808 -0.29475492 -0.10456391 17 4
-1.5661236 -0.57746309 0.26437429 23 12
-0.78336376 -0.28853235 -0.073036514 36 5
-0.95257282 -0.35047841 0.19729652 0 13
-1.5548465 -0.5711478 0.38241678 19 14
-23.872274 -8.7549133 6.8131528 1 15
-1.6411777 -0.59701562 -0.46794486 72 0
-0.84763509 -0.30801153 0.015742071 11 8
-0.76564294 -0.27806616 -0.18805908 1 1
-0.81484538 -0.29561362 0.045427613 12 9
-0.82237947 -0.29785973 0.076522738 7 10
-0.86251342 -0.31171501 0.11260728 5 11
-0.81215811 -0.293356 -0.10602634 20 4
-1.5738331 -0.56785631 0.26500002 30 12
-0.79093236 -0.2852211 -0.073559448 34 5
-19.649155 -7.0780063 4.0596523 2 13
-0.82501298 -0.29686037 -0.045950972 17 6
-1.5623657 -0.5618704 0.38331661 17 14
-0.80547351 -0.28935334 -0.014939261 9 7
-23.605513 -8.4705973 6.7199779 1 15
-1.6471257 -0.58619124 -0.4684625 70 0
-0.81203079 -0.28883186 0.015043975 3 8
-0.73818499 -0.26227537 -0.18086064 1 1
-0.81683862 -0.29006028 0.045427613 12 9
-0.84509677 -0.29943058 0.078440167 3 10
-0.83841479 -0.29656908 0.10919494 3 11
-0.79546928 -0.28106579 -0.10358895 22 4
-1.5720741 -0.55515707 0.26406142 21 12
-0.79666209 -0.28101817 -0.073908068 33 5
-19.770302 -6.9661007 4.0745354 1 13
-0.79310507 -0.27929661 -0.04406688 5 6
-1.5625734 -0.54965597 0.38241678 7 14
-0.81879365 -0.28770044 -0.015148689 8 7
-1.6492532 -0.57433069 -0.46794486 57 0
-0.83669162 -0.29103965 0.015462833 3 8
-0.75099725 -0.26108408 -0.18356006 1 1
-0.82829052 -0.28714541 0.076697052 3 10
-0.86667705 -0.29994428 0.11260728 2 11
-0.80299252 -0.27759042 -0.10432017 30 4
-1.5740441 -0.54352403 0.26374856 31 12
-0.79855645 -0.2755889 -0.073908068 33 5
-0.89276975 -0.30775407 0.18355827 0 13
-0.81769699 -0.28155559 -0.045322943 4 6
-1.5460091 -0.53203213 0.37746787 12 14
-19.278929 -6.6232209 5.4621172 1 15
-1.6403235 -0.55873102 -0.46432137 22 0
-0.81593591 -0.27760845 0.015043975 3 8
-0.75829196 -0.25784826 -0.18490976 3 1
-0.79386765 -0.26932722 -0.16295089 1 2
-0.83777338 -0.28405985 0.077394299 3 10
-0.85741675 -0.29021958 0.11114486 3 11
-0.81238544 -0.2746613 -0.10529512 28 4
-1.5571202 -0.52584487 0.26030698 30 12
-0.7871995 -0.26568696 -0.072687887 40 5
-0.9022854 -0.30417871 0.18508473 1 13
-0.80445182 -0.27088436 -0.044485565 5 6
-1.5385131 -0.51776701 0.37476847 17 14
-0.82263428 -0.27652749 -0.015148689 8 7
-18.938999 -6.3626432 5.3534136 1 15
-0.84816599 -0.28214735 0.015602452 2 8
-0.75078338 -0.24960694 -0.18266025 59 1
-0.77518475 -0.25711867 -0.15875308 15 2
-0.8321228 -0.27584285 0.076697052 3 10
-0.85942203 -0.2842266 0.11114486 3 11
-0.80292732 -0.26538756 -0.10383269 30 4
-1.5831732 -0.52266502 0.26406142 16 12
-0.78331351 -0.25844985 -0.072164953 37 5
-0.91925186 -0.30294597 0.18813768 0 13
-0.82145405 -0.27039814 -0.045322943 4 6
-1.5697688 -0.51641744 0.38151699 8 14
-18.14596 -5.9555588 5.1173706 1 15
-0.75320762 -0.24502271 -0.21223164 1 0
-0.82344276 -0.26771191 0.015113784 3 8
-0.75621462 -0.24556313 -0.18356006 83 1
-0.77691698 -0.25183618 -0.15875308 28 2
-0.81128198 -0.26266265 0.074605316 3 10
-0.88400346 -0.28569588 0.11406972 2 11
-0.80476058 -0.2597754 -0.10383269 35 4
-1.6017338 -0.51672888 0.26656437 15 12
-0.78130603 -0.2517527 -0.071816333 38 5
-0.88770509 -0.28569466 0.18126856 1 13
-0.80045962 -0.25746185 -0.04406688 5 6
-1.5807573 -0.50782996 0.38331661 14 14
-18.988132 -6.0891123 5.3430605 1 15
-0.73460555 -0.23345418 -0.2065376 3 0
-0.81004381 -0.25711662 0.014834546 3 8
-0.73743582 -0.23392859 -0.17861113 57 1
-0.77678448 -0.24581383 -0.15837148 73 2
-0.82824832 -0.26194057 0.075999804 7 10
-0.84432793 -0.26637766 0.10870746 3 11
-0.8102966 -0.25548559 -0.10432017 39 4
-1.6260279 -0.51206088 0.27000591 10 12
-0.7906034 -0.24882136 -0.072513573 48 5
-0.88962919 -0.27964562 0.18126856 1 13
-0.79461527 -0.24947447 -0.043648191 5 6
-1.5934741 -0.49997532 0.38556612 8 14
-0.75589752 -0.23659417 0.21223164 7 15
-0.75835937 -0.23518676 -0.21274926 52 0
-0.81177521 -0.25159687 0.014834546 3 8
-0.74835896 -0.23165572 -0.18086064 35 1
-0.7784397 -0.24052073 -0.15837148 87 2
-0.83576816 -0.25791466 0.076522738 7 10
-0.83853298 -0.25828707 0.10773251 3 11
-0.7949844 -0.24456915 -0.10212652 52 4
-1.6332521 -0.50214201 0.27063167 6 12
-0.79232121 -0.24329583 -0.072513573 36 5
-0.89155972 -0.27342823 0.18126856 1 13
-0.81920993 -0.2510832 -0.044904254 4 6
-0.68759114 -0.21048027 0.16601388 12 14
-0.7242347 -0.22128269 0.20291413 8 15
-0.76364082 -0.23113845 -0.21378455 100 0
-0.84030992 -0.25402471 0.015323212 3 8
-0.74805301 -0.22599287 -0.18041074 17 1
-0.77634031 -0.2339476 -0.15760824 84 2
-0.83750439 -0.25221977 0.076522738 7 10
-0.85692352 -0.25774178 -0.14172964 1 3
-0.85552508 -0.25699535 0.10968242 3 11
-0.79663062 -0.2391524 -0.10212652 52 4
-1.7256494 -0.51739132 0.28533649 1 12
-0.7939589 -0.23789722 -0.072513573 36 5
-0.91973203 -0.27523312 0.18661121 0 13
-0.81328839 -0.24307019 -0.044485565 5 6
-0.65726501 -0.19631402 0.15836555 38 14
-0.83165407 -0.24808495 -0.015148689 8 7
-0.65725887 -0.19581237 0.18376154 67 15
-0.7578243 -0.22361484 -0.21171398 100 0
-0.81516695 -0.24038057 0.014834546 3 8
-0.76830602 -0.22627051 -0.18490976 23 1
-0.76256746 -0.22443585 0.041659426 18 9
-0.76849687 -0.22588953 -0.15570015 79 2
-0.81248069 -0.23850994 0.074082382 8 10
-0.82074827 -0.24078137 -0.13547227 2 3
-0.88011461 -0.25786397 0.11260728 2 11
-0.79828089 -0.23358484 -0.10212652 52 4
-1.7632587 -0.5156132 0.29096815 1 12
-0.77456301 -0.22620456 -0.070596151 72 5
-0.88770598 -0.25891098 0.17974208 2 13
-0.80150175 -0.23361644 -0.043752864 10 6
-0.66423267 -0.1933548 0.15971525 36 14
-0.76039821 -0.22106004 -0.013822306 13 7
-0.65115589 -0.1891783 0.18169098 69 15
-0.76118541 -0.21898541 -0.21223164 99 0
-0.80913758 -0.232475 0.014694927 7 8
-0.75484389 -0.21673319 -0.18131055 24 1
-0.80251348 -0.23011704 0.043752864 15 9
-0.77382988 -0.22160007 -0.15646338 58 2
-0.82366282 -0.23571488 0.074953936 7 10
-0.78062397 -0.22310333 -0.12858914 2 3
-0.85135168 -0.24299598 0.10870746 3 11
-0.79794335 -0.22760138 -0.10188278 61 4
-1.7801139 -0.50707895 0.29315823 1 12
-0.77800095 -0.22147252 -0.070770465 87 5
-0.83279502 -0.23675667 0.16829354 2 13
-0.79734915 -0.22637893 -0.043438848 16 6
-0.69177979 -0.19627564 0.16601388 12 14
-0.78497273 -0.22242104 -0.014241164 11 7
-0.64688414 -0.18304975 0.18013807 23 15
-0.75711483 -0.21210277 -0.21067871 92 0
-0.8068499 -0.22588377 0.014625117 7 8
-0.74883145 -0.20935942 -0.17951094 19 1
-0.80021405 -0.22357427 0.043543518 15 9
-0.77532041 -0.21632746 -0.15646338 40 2
-0.81569195 -0.22728515 0.074082382 8 10
-0.77641559 -0.21619494 -0.12765054 4 3
-0.82621056 -0.22974996 0.10529512 8 11
-0.80142558 -0.22255631 -0.10212652 66 4
-0.86606562 -0.2403443 0.14235538 1 12
-0.78720826 -0.21816427 -0.071467713 89 5
-0.80415362 -0.22255823 0.16218765 1 13
-0.79309666 -0.21934909 -0.043124832 33 6
-0.68749797 -0.18988505 0.16466418 25 14
-0.79036188 -0.21799868 -0.014310974 23 7
-0.6816383 -0.18788259 0.18945555 21 15
-0.77158725 -0.21050356 -0.21430218 74 0
-0.81805396 -0.22287379 0.014799641 10 8
-0.75776035 -0.20630512 -0.18131055 30 1
-0.79404622 -0.2158865 0.043124832 16 9
-0.77302235 -0.20988077 -0.15570015 21 2
-0.8268345 -0.22433618 0.074953936 11 10
-0.81222534 -0.2200681 -0.13328218 19 3
-0.8412078 -0.2276054 0.10700129 8 11
-0.77801013 -0.21036051 -0.098957919 75 4
-0.82958084 -0.22399341 0.136098 1 12
-0.79829299 -0.21539599 -0.072339267 100 5
-0.77911085 -0.20992851 0.156845 1 13
-0.78303671 -0.21069318 -0.0424968 54 6
-0.66430992 -0.17862281 0.15881544 35 14
-0.7841022 -0.21053968 -0.014171354 35 7
-0.66240805 -0.17761569 0.18376154 90 15
-0.76183456 -0.20213909 -0.21119635 79 0
-0.82148498 -0.21781281 0.014834546 18 8
-0.76671743 -0.20300506 -0.18311015 24 1
-0.80322057 -0.21252005 0.043543518 30 9
-0.76684058 -0.20260809 -0.15417367 17 2
-0.82838047 -0.21855834 0.074953936 11 10
-0.79269332 -0.20899472 -0.12984063 67 3
-0.82162118 -0.2163147 0.10432017 9 11
-0.80249804 -0.2109807 -0.10188278 80 4
-0.81389141 -0.21382403 0.13328218 2 12
-0.79014146 -0.20728968 -0.071467713 100 5
-0.78815407 -0.20647448 0.15837148 8 13
-0.7941134 -0.2078874 -0.043020159 100 6
-0.65234298 -0.17053083 0.15566613 33 14
-0.78748775 -0.20556557 -0.014206259 95 7
-0.68790257 -0.17944184 0.19049083 100 15
-0.76319289 -0.19694877 -0.21119635 70 0
-0.80943054 -0.20857951 0.014590211 100 8
-0.7643072 -0.19680957 -0.18221036 46 1
-0.79694736 -0.20491783 0.043124832 100 9
-0.77013797 -0.19773802 -0.15455531 19 2
-0.7873916 -0.20202135 0.071119085 90 10
-0.79030591 -0.20247528 -0.12921488 100 3
-0.8403821 -0.21514824 0.10651381 33 11
-0.79814583 -0.20403822 -0.10115156 82 4
-0.80196631 -0.20471689 0.1310921 36 12
-0.78960347 -0.20141406 -0.071293391 59 5
-0.78573626 -0.20013572 0.15760824 12 13
-0.79360974 -0.20184624 -0.04291549 62 6
-0.72148168 -0.18336718 0.17186262 2 14
-0.78111577 -0.19823317 -0.01406664 25 7
-0.64229363 -0.1628833 0.17754988 36 15
-0.7513991 -0.18845966 -0.20757288 39 0
-0.79919285 -0.20015025 0.014380784 51 8
-0.76562905 -0.19160272 -0.18221036 31 1
-0.80026132 -0.19997261 0.043229505 13 9
-0.78480005 -0.19581826 -0.15722662 30 2
-0.79261494 -0.19762106 0.071467713 100 10
-0.78016454 -0.19422781 -0.12733766 100 3
-0.81100512 -0.2017553 0.102614 73 11
-0.81107551 -0.20147221 -0.102614 100 4
-0.795672 -0.19735114 0.12984063 80 12
-0.77548516 -0.19220051 -0.069898903 56 5
-0.78898609 -0.19525436 0.15798986 5 13
-0.79302633 -0.19596049 -0.042810816 84 6
-0.72838885 -0.17985341 0.17321232 4 14
-0.79215479 -0.19530512 -0.014241164 28 7
-0.66214514 -0.16312861 0.18272625 11 15
-0.76017231 -0.18516952 -0.20964344 27 0
-0.80442274 -0.19565102 0.014450593 100 8
-0.75555378 -0.1836255 -0.17951094 42 1
-0.79772204 -0.19357897 0.043020159 13 9
-0.80328715 -0.19463256 -0.16066119 60 2
-0.79781461 -0.19315897 0.071816333 100 10
-0.80258936 -0.19401847 -0.13077922 100 3
-0.8008157 -0.19329406 0.10115156 63 11
-0.8027792 -0.19361955 -0.1013953 100 4
-0.81428117 -0.19609313 0.13265644 24 12
-0.78843111 -0.18957666 -0.070944771 49 5
-0.78647894 -0.18896227 0.15722662 3 13
-0.78657323 -0.18869436 -0.042392131 101 6
-0.7807954 -0.18702008 0.18535967 1 14
-0.79930013 -0.19130494 -0.014345878 36 7
-17.887562 -4.2746186 4.9279146 2 15
-0.7746073 -0.18296686 -0.21326691 15 0
-0.80382276 -0.18957132 0.014415688 47 8
-0.75681734 -0.17834646 -0.17951094 20 1
-0.80488664 -0.18937741 0.043334179 14 9
-0.79889262 -0.18767285 -0.15951632 70 2
-0.80690223 -0.18940586 0.072513573 100 10
-0.78469169 -0.18390335 -0.12765054 100 3
-0.80794436 -0.18905528 0.10188278 97 11
-0.78864771 -0.18439497 -0.099445395 100 4
-0.8137067 -0.18995434 0.13234358 60 12
-0.79361606 -0.18497244 -0.071293391 59 5
-0.79351526 -0.18480274 0.15837148 3 13
-0.77814454 -0.18093671 -0.041868769 93 6
-0.80296272 -0.18641233 0.19030859 3 14
-0.80840808 -0.18752761 -0.014485498 31 7
-17.05876 -3.9508758 4.6918716 3 15
-0.76456678 -0.17496867 -0.21016107 11 0
-0.8109749 -0.18529136 0.014520402 50 8
-0.77324283 -0.17652817 -0.18311015 42 1
-0.79450518 -0.18109053 0.042706143 13 9
-0.79444051 -0.18078411 -0.15837148 76 2
-0.80237651 -0.18244277 0.071990639 100 10
-0.79944098 -0.18148184 -0.12984063 100 3
-0.81311643 -0.18428791 0.10237025 60 11
-0.79185182 -0.17932312 -0.099689126 100 4
-0.79381883 -0.1794773 0.12890202 27 12
-0.7871142 -0.17767267 -0.070596151 77 5
-0.84074956 -0.1896254 0.1675303 25 13
-0.79107958 -0.17813252 -0.0424968 83 6
-0.7966395 -0.17909215 0.18850899 3 14
-0.79799104 -0.17924988 -0.014276069 40 7
-17.789045 -3.9893634 4.8849506 2 15
-0.72804695 -0.1612709 -0.1998083 4 0
-0.84348905 -0.18653384 0.015078879 84 8
-0.78206778 -0.17280763 -0.18490976 27 1
-0.81915444 -0.18070234 0.043962207 19 9
-0.80718708 -0.17776696 -0.16066119 36 2
-0.81141406 -0.17854939 0.072687887 100 10
-0.78525347 -0.17250548 -0.12733766 97 3
-0.81244415 -0.17818174 0.10212652 70 11
-0.79890174 -0.17506535 -0.10042035 100 4
-0.81242013 -0.1777305 0.13171785 19 12
-0.78638887 -0.17174813 -0.070421837 100 5
-0.8516435 -0.18584408 0.16943841 41 13
-0.81181872 -0.17685677 -0.043543518 100 6
-0.82262522 -0.17891026 0.19435771 3 14
-0.82267213 -0.1787701 -0.014694927 78 7
-0.79482156 -0.17242754 0.21792565 13 15
-0.77446222 -0.16603036 -0.21223164 1 0
-0.82714045 -0.17702164 0.014764735 63 8
-0.79275417 -0.16951773 -0.18715927 13 1
-0.8340382 -0.17804125 0.044694912 16 9
-0.81797904 -0.17431441 -0.16256927 9 2
-0.8282001 -0.17634167 0.074082382 36 10
-0.78061289 -0.16592433 -0.12639906 52 3
-0.84273481 -0.17897522 0.1057826 25 11
-0.81172639 -0.17209356 -0.10188278 100 4
-0.85226232 -0.18037672 0.13797522 7 12
-0.77581495 -0.1640556 -0.069375969 100 5
-0.84904695 -0.17923181 0.16867517 23 13
-0.81691241 -0.17215067 -0.043752864 64 6
-0.86193234 -0.18148056 0.20335576 1 14
-0.83365458 -0.17522299 -0.014869451 52 7
-0.82241619 -0.17271078 0.22517258 5 15
-0.79007292 -0.16332886 -0.18625948 6 1
-0.84696704 -0.17478192 0.045322943 76 9
-0.82876098 -0.1707233 -0.16447736 2 2
-0.84694469 -0.17431502 0.075651184 14 10
-0.79526889 -0.16339 -0.12858914 14 3
-0.85171175 -0.17483141 0.10675755 8 11
-0.7973215 -0.16337667 -0.099932872 100 4
-0.88056469 -0.18011333 0.14235538 1 12
-0.7886259 -0.1611647 -0.070421837 100 5
-0.86756003 -0.17698012 0.17210972 10 13
-0.81806529 -0.16658612 -0.043752864 32 6
-21.13566 -4.3000979 4.9795165 1 14
-23.717001 -4.8123474 6.4844527 1 15
-0.8392784 -0.16770431 0.014939261 10 8
-0.76823395 -0.15336901 -0.18086064 1 1
-0.81092095 -0.16159648 0.043334179 15 9
-0.82027626 -0.16316308 -0.16256927 3 2
-0.84224904 -0.16738094 0.07512825 7 10
-0.81380123 -0.16143224 -0.13140497 6 3
-0.82759672 -0.16386862 0.10358895 9 11
-0.79452038 -0.15717521 -0.099445395 100 4
-0.93603307 -0.18483034 0.1511157 1 12
-0.79361403 -0.15656421 -0.070770465 100 5
-0.87259704 -0.17182955 0.17287296 5 13
-0.8368181 -0.16448066 -0.044694912 14 6
-0.83203799 -0.1630885 -0.014799641 10 7
-0.83843684 -0.16160935 0.014904355 10 8
-0.84338373 -0.16210495 0.045008924 13 9
-0.80787122 -0.15498658 -0.15989795 6 2
-0.82969922 -0.15887395 0.073908068 8 10
-0.82070178 -0.1570026 -0.13234358 8 3
-0.85989088 -0.16418849 0.10748877 7 11
-0.79949826 -0.15236804 -0.099932872 100 4
-0.79468769 -0.15102009 -0.070770465 100 5
-0.86413097 -0.16390419 0.17096487 2 13
-0.83203125 -0.15766545 -0.044380896 15 6
-21.334631 -4.035079 5.0128093 1 14
-0.80564636 -0.15208292 -0.014310974 11 7
-29.15733 -5.4987974 7.9504042 2 15
-0.84347701 -0.15648153 0.014974165 17 8
-0.83271128 -0.15403336 0.044380896 14 9
-0.81858659 -0.15112512 -0.16180603 6 2
-0.8327207 -0.15358403 0.074082382 12 10
-0.81983519 -0.15091179 -0.13203071 8 3
-0.85125411 -0.15638809 0.10627007 8 11
-0.80051684 -0.14692248 -0.099932872 40 4
-0.78981775 -0.14453141 -0.070247531 100 5
-0.88260841 -0.16119313 0.17439944 2 13
-0.8331117 -0.15185273 -0.044380896 15 6
-21.415287 -3.8995402 5.0254064 1 14
-0.81846768 -0.14874081 -0.014520402 10 7
-26.678295 -4.8386502 7.2650509 1 15
-0.8346796 -0.1489799 0.014799641 21 8
-0.83374053 -0.1483617 0.044380896 14 9
-0.83506042 -0.14829588 -0.16485898 5 2
-0.82592541 -0.14637627 0.073385134 12 10
-0.80333722 -0.14222844 -0.12921488 9 3
-0.87380183 -0.15438944 0.1089512 7 11
-0.81129771 -0.14305378 -0.10115156 42 4
-0.79276985 -0.13935868 -0.070421837 100 5
-0.86824256 -0.1523134 0.17134649 2 13
-0.85183156 -0.14928123 -0.045322943 18 6
-21.549488 -3.7687385 5.050601 1 14
-0.83130568 -0.14508626 -0.014729831 10 7
-0.82781541 -0.14179845 0.014660021 22 8
-0.84263098 -0.14388217 0.044799585 13 9
-0.83414 -0.14213268 -0.16447736 24 2
-0.84065157 -0.14309125 0.074605316 15 10
-0.81210053 -0.13793977 -0.13046636 9 3
-0.83177578 -0.14113238 0.10358895 9 11
-0.79855204 -0.13520837 -0.099445395 42 4
-0.79370004 -0.13395941 -0.070421837 100 5
-0.87700307 -0.14770415 0.17287296 6 13
-0.82527804 -0.13869664 -0.043857537 26 6
-5.2158899 -0.87564778 1.2210344 0 14
-0.84607947 -0.1417371 -0.014974165 19 7
-26.711208 -4.4699216 7.2567687 1 15
-0.83270788 -0.13680898 0.014729831 22 8
-0.82388073 -0.13491575 0.043752864 30 9
-0.82540035 -0.13486859 -0.16256927 55 2
-0.84160602 -0.13736598 0.074605316 19 10
-0.81497031 -0.13272631 -0.13077922 11 3
-0.84251386 -0.13706133 0.10480764 9 11
-0.78573775 -0.12754323 -0.09773922 48 4
-0.80246073 -0.12982658 -0.071119085 100 5
-0.86054468 -0.13891551 0.16943841 2 13
-0.83606225 -0.13466394 -0.044380896 30 6
-22.422264 -3.6075232 5.2431588 1 14
-0.84899902 -0.13629167 -0.015009069 18 7
-21.360003 -3.425144 5.7965117 2 15
-0.84744763 -0.133313 0.014974165 28 8
-0.84253842 -0.13208872 0.044694912 27 9
-0.81854057 -0.12803374 -0.16104279 64 2
-0.84449011 -0.13194172 0.074779622 27 10
-0.80024046 -0.12474209 -0.12827627 11 3
-0.83952719 -0.13056581 0.10432017 9 11
-0.80228019 -0.12462965 -0.099689126 52 4
-0.80529475 -0.12466617 -0.071293391 100 5
-0.89445454 -0.13814916 0.17592591 1 13
-0.83103758 -0.1280576 -0.04406688 35 6
-23.097311 -3.555016 5.395226 1 14
-0.8182826 -0.12565358 -0.014450593 22 7
-21.186708 -3.2458072 5.7431946 1 15
-0.85031289 -0.12783881 0.015009069 35 8
-0.83946753 -0.12575886 0.044485565 28 9
-0.81745148 -0.12216895 -0.16066119 67 2
-0.82174337 -0.12251737 0.072687887 26 10
-0.82842457 -0.12336551 -0.13265644 10 3
-0.86003196 -0.12776531 0.10675755 8 11
-0.7992034 -0.11844379 -0.099201649 58 4
-0.7844643 -0.11583972 -0.069375969 100 5
-0.90316635 -0.13304602 0.17745239 1 13
-0.84374583 -0.1241423 -0.044694912 34 6
-5.2058225 -0.76408857 1.2147356 0 14
-0.83299017 -0.12196556 -0.014694927 31 7
-0.83930767 -0.12019867 0.014799641 39 8
-0.83834779 -0.1196133 0.044380896 28 9
-0.81634063 -0.11618265 -0.16027956 64 2
-0.82650334 -0.11748166 0.073036514 25 10
-0.81557494 -0.11563805 -0.13046636 13 3
-0.8274889 -0.11703248 0.102614 9 11
-0.79802555 -0.1127234 -0.098957919 68 4
-0.78720754 -0.11077498 -0.069550283 49 5
-0.89627427 -0.12580371 0.17592591 1 13
-0.82283431 -0.1152026 -0.043543518 32 6
-0.83974254 -0.11712162 -0.014799641 40 7
-0.8460505 -0.1152929 0.014904355 42 8
-0.83716345 -0.11363543 0.044276223 28 9
-0.8287856 -0.11220363 -0.16256927 66 2
-0.82532889 -0.1114421 0.0728622 17 10
-0.80655491 -0.10876398 -0.12890202 11 3
-0.86564654 -0.11642464 0.10724504 4 11
-0.80469549 -0.10794112 -0.099689126 58 4
-0.79191148 -0.10580423 -0.069898903 100 5
-0.86599386 -0.11539444 0.16982001 2 13
-0.83745807 -0.11144328 -0.044276223 10 6
-0.83459264 -0.11046908 -0.014694927 31 7
-23.026356 -3.0437458 6.2235632 1 15
-0.84485161 -0.10912739 0.014869451 39 8
-0.82803172 -0.10651406 0.043752864 30 9
-0.82954878 -0.10641468 -0.16256927 70 2
-0.82013965 -0.10506239 0.072339267 8 10
-0.81121349 -0.10363094 -0.12952776 11 3
-0.90976006 -0.11589759 0.11260728 2 11
-0.78965783 -0.1004571 -0.09773922 48 4
-0.80051965 -0.101413 -0.070596151 31 5
-0.85896814 -0.10851289 0.16829354 2 13
-0.83425248 -0.10509495 -0.04406688 5 6
-1.310914 -0.16490965 0.30503362 1 14
-0.83532518 -0.10478581 -0.014694927 20 7
-21.496262 -2.6889324 5.8047938 2 15
-0.83565032 -0.10216081 0.014694927 30 8
-0.82080704 -0.099910036 0.043334179 47 9
-0.8205092 -0.099583156 -0.16066119 75 2
-0.86239028 -0.10436073 0.075999804 3 10
-0.80405563 -0.097159073 -0.12827627 9 3
-0.90264457 -0.10875255 0.11163233 3 11
-0.79822356 -0.095889032 -0.09871418 100 4
-0.89043808 -0.10680872 0.14204252 1 12
-0.83088249 -0.099371016 -0.073210821 100 5
-0.88309807 -0.1053032 0.17287296 2 13
-0.83693177 -0.099650063 -0.044171553 30 6
-1.2849412 -0.15253787 0.29873499 2 14
-0.81419218 -0.096365958 -0.014310974 23 7
-21.725101 -2.5674949 5.8617339 2 15
-0.85223562 -0.098154977 0.014974165 10 8
-0.82346874 -0.094404966 0.043438848 31 9
-0.81533265 -0.093183704 -0.15951632 51 2
-0.83536696 -0.095325924 0.073559448 8 10
-0.80667704 -0.091766618 -0.12858914 2 3
-0.86196035 -0.097750835 0.10651381 8 11
-0.81463766 -0.092240207 -0.10066409 42 4
-0.86760706 -0.097931139 0.13828808 1 12
-0.79986191 -0.09014304 -0.070421837 54 5
-0.88769633 -0.099728055 0.1736362 1 13
-0.83760709 -0.093804747 -0.044171553 41 6
-1.2568997 -0.14053978 0.29198647 1 14
-0.82874095 -0.092372298 -0.014555307 32 7
-22.170664 -2.4633303 5.9771676 1 15
-0.86083627 -0.093212791 0.015113784 33 8
-0.85189295 -0.091793172 0.044904254 26 9
-0.80813992 -0.086793356 -0.15798986 18 2
-0.8439365 -0.090339705 0.074256696 20 10
-0.83871001 -0.089632384 -0.13359505 2 3
-0.84681433 -0.090199344 0.10456391 22 11
-0.80144376 -0.085083745 -0.098957919 81 4
-0.89182603 -0.094521619 0.14204252 1 12
-0.78462082 -0.082882367 -0.069027349 58 5
-0.99770898 -0.10503976 0.1950068 0 13
-0.84021246 -0.088309914 -0.044276223 35 6
-1.2636645 -0.1323709 0.29333615 0 14
-0.83931011 -0.087622732 -0.014729831 71 7
-22.567364 -2.3520126 6.0796599 1 15
-0.84157068 -0.085186876 0.014764735 65 8
-0.82866657 -0.083442383 0.043648191 45 9
-0.81458652 -0.081737399 -0.15913472 4 2
-0.84453183 -0.084593311 0.074256696 36 10
-0.83538407 -0.083382308 -0.1329693 2 3
-0.81581789 -0.081141956 0.10066409 16 11
-0.79212749 -0.078645892 -0.09773922 82 4
-0.96323228 -0.095294639 0.15330578 1 12
-0.7891323 -0.077931307 -0.069375969 100 5
-2.1843679 -0.21494943 0.42664891 2 13
-0.82888216 -0.081272788 -0.043648191 26 6
-1.3033259 -0.12756254 0.30233422 0 14
-0.84784806 -0.082684062 -0.014869451 87 7
-22.521704 -2.188432 6.0630951 1 15
-0.84810364 -0.080020025 0.014869451 83 8
-0.83319241 -0.078173026 0.043857537 89 9
-0.83467132 -0.07801789 -0.16295089 2 2
-0.84311795 -0.078510568 0.074082382 32 10
-0.8280648 -0.07696306 -0.13171785 4 3
-0.81239796 -0.075220935 0.10017661 10 11
-0.7926572 -0.073114075 -0.09773922 51 4
-0.80949777 -0.074240014 -0.071119085 56 5
-0.97951126 -0.089487404 0.19119063 0 13
-0.83538318 -0.076172963 -0.043962207 42 6
-1.2653695 -0.11493489 0.29333615 0 14
-0.84840465 -0.076762952 -0.014869451 68 7
-0.84664941 -0.073923461 0.014834546 39 8
-0.84366673 -0.073217958 0.044380896 98 9
-0.84301955 -0.072865136 -0.16447736 13 2
-0.82179767 -0.07088656 0.072164953 22 10
-0.8049643 -0.069151305 -0.12796341 4 3
-0.8564164 -0.073270224 0.10553886 8 11
-0.81291544 -0.069405623 -0.10017661 69 4
-0.96445459 -0.082004741 0.15330578 1 12
-0.79410219 -0.067380592 -0.06972459 99 5
-0.96835989 -0.081826158 0.18890092 0 13
-0.85380667 -0.071846098 -0.044904254 100 6
-1.2661226 -0.10631941 0.29333615 0 14
-0.83695108 -0.069986448 -0.014660021 83 7
-0.86905885 -0.069922887 0.015218498 39 8
-0.86405462 -0.069064952 0.045427613 75 9
-0.8219682 -0.065412201 -0.16027956 31 2
-0.83220339 -0.065934211 0.073036514 12 10
-0.82117021 -0.064916059 -0.13046636 2 3
-0.86679024 -0.068217821 0.10675755 8 11
-0.80546403 -0.063108668 -0.099201649 106 4
-0.88227695 -0.06897188 0.1401653 1 12
-0.78064865 -0.060752958 -0.068504408 133 5
-0.9297598 -0.072031081 0.18126856 1 13
-0.85626715 -0.066186868 -0.045008924 100 6
-0.83143771 -0.063683763 -0.014555307 100 7
-0.91110933 -0.069626257 0.24484283 3 15
-0.85357124 -0.062682368 0.014939261 100 8
-0.87845951 -0.064047657 0.046160318 34 9
-0.82632107 -0.059956342 -0.16104279 10 2
-0.84455597 -0.061131265 0.074082382 24 10
-0.84327644 -0.060742773 -0.13390793 4 3
-0.8870343 -0.063739121 0.10919494 7 11
-0.81577522 -0.058332302 -0.10042035 136 4
-0.88864815 -0.063231565 0.14110391 1 12
-0.79296845 -0.056284215 -0.069550283 155 5
-0.88714427 -0.062657744 0.17287296 2 13
-0.85670841 -0.060207382 -0.045008924 50 6
-1.2674681 -0.088852577 0.29333615 0 14
-0.84581584 -0.058996867 -0.014799641 37 7
-0.84400165 -0.05620645 0.014764735 64 8
-0.84499562 -0.055828281 0.044380896 84 9
-0.82866907 -0.0544593 -0.16142441 9 2
-0.85091698 -0.055772059 0.074605316 38 10
-0.8160736 -0.053202443 -0.12952776 11 3
-0.86169583 -0.056025464 0.10602634 12 11
-0.80822951 -0.052265719 -0.099445395 142 4
-0.86934495 -0.05591337 0.13797522 1 12
-0.79730982 -0.051140405 -0.069898903 153 5
-0.88950956 -0.056742664 0.17325458 5 13
-0.83716583 -0.053110223 -0.043962207 46 6
-1.2680435 -0.080223128 0.29333615 0 14
-0.8601681 -0.054117344 -0.015043975 58 7
-0.91197276 -0.057216618 0.24484283 3 15
-0.85434544 -0.051056657 0.014939261 81 8
-0.8493436 -0.05031148 0.044590238 100 9
-0.8251009 -0.048586637 -0.16066119 12 2
-0.84332103 -0.049511656 0.073908068 48 10
-0.82233292 -0.047991425 -0.13046636 18 3
-0.84223974 -0.049005698 0.10358895 33 11
-0.79469407 -0.04596094 -0.09773922 144 4
-0.84406781 -0.048521064 0.13390793 2 12
-0.80161762 -0.045940269 -0.070247531 156 5
-0.88987517 -0.050686643 0.17325458 7 13
-0.83551389 -0.047297694 -0.043857537 47 6
-1.2296474 -0.06939394 0.28433815 1 14
-0.85452688 -0.047925174 -0.014939261 64 7
-0.84676051 -0.047341164 0.22724313 5 15
-0.86066389 -0.045557432 0.015043975 112 8
-0.84168828 -0.044111092 0.044171553 15 9
-0.82541251 -0.042969219 -0.16066119 12 2
-0.84562814 -0.043873627 0.074082382 60 10
-0.82461327 -0.042494521 -0.13077922 18 3
-0.86039615 -0.044188153 0.1057826 29 11
-0.79895359 -0.040752802 -0.098226704 150 4
-0.86410701 -0.043773945 0.13703661 5 12
-0.80589151 -0.040683664 -0.070596151 158 5
-0.88235629 -0.04423527 0.1717281 11 13
-0.83980614 -0.041808035 -0.04406688 54 6
-1.2300912 -0.061022375 0.28433815 0 14
-0.83885503 -0.041320413 -0.014660021 67 7
-0.84320408 -0.041387126 0.22620785 5 15
-0.8529774 -0.039032057 0.014904355 119 8
-0.84198236 -0.038086981 0.044171553 20 9
-0.81785369 -0.036709473 -0.15913472 12 2
-0.8299973 -0.0371092 0.072687887 74 10
-0.82489628 -0.036592834 -0.13077922 20 3
-0.87854546 -0.038665488 0.10797625 31 11
-0.79922473 -0.035034772 -0.098226704 147 4
-0.86242455 -0.037503596 0.13672373 3 12
-0.80019647 -0.034517508 -0.070073217 168 5
-0.89245749 -0.038341481 0.1736362 8 13
-0.86402911 -0.036817808 -0.045322943 58 6
-1.2694454 -0.053649418 0.29333615 0 14
-0.84312516 -0.035484824 -0.014729831 88 7
-2.1830237 -0.091114171 0.58544868 2 15
-0.84323817 -0.032688692 0.014729831 126 8
-0.8442235 -0.032284226 0.044276223 21 9
-0.81809002 -0.030998884 -0.15913472 12 2
-0.83421803 -0.031464208 0.073036514 85 10
-0.81526166 -0.030464265 -0.12921488 15 3
-0.86689162 -0.032090541 0.10651381 33 11
-0.81531978 -0.030038973 -0.10017661 152 4
-0.84489888 -0.030833457 0.13390793 8 12
-0.79444468 -0.028714536 -0.069550283 169 5
-0.88877946 -0.031968661 0.17287296 7 13
-0.85029316 -0.030287372 -0.044590238 54 6
-1.195783 -0.042175788 0.2762399 0 14
-0.84335232 -0.029598037 -0.014729831 105 7
-0.87460101 -0.030389085 0.23449005 4 15
-0.84744316 -0.026928205 0.014799641 130 8
-0.85241348 -0.026639402 0.044694912 24 9
-0.82417339 -0.025468701 -0.16027956 12 2
-0.83441734 -0.0256397 0.073036514 89 10
-0.8115055 -0.024651961 -0.12858914 16 3
-0.85320067 -0.025769742 0.10480764 31 11
-0.8115412 -0.024227763 -0.099689126 155 4
-0.85694057 -0.025283743 0.13578513 13 12
-0.79063857 -0.023189422 -0.069201656 174 5
-0.89290583 -0.02587699 0.1736362 10 13
-0.84249812 -0.024121828 -0.044171553 54 6
-1.2155218 -0.034589678 0.28073892 1 14
-0.84953505 -0.023878157 -0.014834546 97 7
-2.1512439 -0.060089976 0.57664889 6 15
-0.84760684 -0.021159206 0.014799641 126 8
-0.84059513 -0.020543793 0.04406688 20 9
-0.82236505 -0.019811047 -0.15989795 12 2
-0.84453166 -0.020197574 0.073908068 60 10
-0.83930206 -0.019779386 -0.1329693 17 3
-0.8434335 -0.019729467 0.10358895 38 11
-0.79779536 -0.018383292 -0.097982958 149 4
-0.85709286 -0.019450136 0.13578513 7 12
-0.79675376 -0.01794192 -0.06972459 171 5
-0.9009124 -0.019972615 0.17516267 6 13
-0.84264278 -0.018386554 -0.044171553 54 6
-1.200143 -0.025977695 0.27713972 1 14
-0.85767496 -0.018265298 -0.014974165 73 7
-2.1477401 -0.045363907 0.57561362 8 15
-1.2979822 -0.024016032 -0.34785283 1 0
-0.85372931 -0.015498317 0.014904355 130 8
-0.83002919 -0.014922969 -0.1916583 12 1
-0.84470934 -0.014892167 0.044276223 23 9
-0.82051784 -0.014178992 -0.15951632 10 2
-0.84464961 -0.014448549 0.073908068 72 10
-0.81966627 -0.013735003 -0.12984063 15 3
-0.84752035 -0.013905845 0.10407643 37 11
-0.79591721 -0.012920214 -0.09773922 148 4
-0.84930491 -0.013490342 0.13453366 5 12
-0.80482829 -0.012502693 -0.070421837 166 5
-0.91673166 -0.014081258 0.17821561 4 13
-0.84075141 -0.012620452 -0.04406688 53 6
-1.2217288 -0.017913032 0.28208864 2 14
-0.84178352 -0.012195119 -0.014694927 85 7
-0.86345142 -0.012207583 0.23138423 4 15
-1.2865279 -0.014820614 -0.34474698 8 0
-0.85181713 -0.0095152454 0.014869451 117 8
-0.81452417 -0.0089566875 -0.18805908 6 1
-0.84878701 -0.009036947 0.044485565 20 9
-0.81667048 -0.0084101157 -0.15875308 10 2
-0.83476841 -0.0084505882 0.073036514 72 10
-0.8236928 -0.0080509325 -0.13046636 18 3
-0.8614918 -0.0081196604 0.1057826 29 11
-0.79995805 -0.0074000745 -0.098226704 142 4
-0.87505722 -0.0077893268 0.13860095 3 12
-0.78895742 -0.0067475061 -0.069027349 162 5
-0.93251312 -0.0078125009 0.18126856 5 13
-0.85479939 -0.0068630399 -0.044799585 48 6
-1.2335162 -0.00947282 0.28478804 2 14
-0.8378489 -0.00628825 -0.014625117 60 7
-2.1288459 -0.015233872 0.57043719 8 15
-1.2923955 -0.0058648949 -0.34629989 23 0
-0.84386414 -0.0035349058 0.014729831 92 8
-0.80872071 -0.0032465495 -0.18670937 5 1
-0.85082668 -0.0031185998 0.044590238 18 9
-0.82063586 -0.002721301 -0.15951632 10 2
-0.83879185 -0.0026353188 0.073385134 70 10
-0.81582749 -0.0022782118 -0.12921488 15 3
-0.85755688 -0.0022452825 0.10529512 30 11
-0.80793047 -0.0018331506 -0.099201649 139 4
-0.84743512 -0.0016269905 0.13422079 2 12
-0.80093932 -0.0013979409 -0.070073217 150 5
-0.91487569 -0.0012774693 0.17783399 3 13
-0.84484011 -0.00088458759 -0.044276223 45 6
-1.2374496 -0.0010800005 0.28568783 1 14
-0.839872 -0.00043965605 -0.014660021 52 7
-2.0806041 -0.00072653824 0.55749625 1 15
-1.3001329 0.0029495386 -0.34837046 43 0
-0.84386867 0.0022091886 0.014729831 72 8
-0.7911855 0.0022091595 -0.18266025 4 1
-0.8528254 0.0026791519 0.044694912 100 9
-0.83830452 0.0029261436 -0.16295089 8 2
-0.8407827 0.003081531 0.073559448 66 10
-0.8079226 0.0032431018 -0.12796341 16 3
-0.85755235 0.0035919859 0.10529512 30 11
-0.80792421 0.0036661185 -0.099201649 138 4
-0.84545124 0.0041317134 0.13390793 4 12
-0.79893798 0.004043649 -0.069898903 148 5
-0.88541478 0.0047906013 0.17210972 2 13
-0.84282941 0.0048543843 -0.044171553 51 6
-1.2569155 0.0074587334 0.29018685 1 14
-0.85185349 0.0053523784 -0.014869451 39 7
-1.2884921 0.011694019 -0.34526464 50 0
-0.84783322 0.0079908734 0.014799641 55 8
-0.78920346 0.0075760307 -0.18221036 4 1
-0.8447988 0.0084046237 0.044276223 100 9
-0.82844943 0.0085311644 -0.16104279 9 2
-0.84074223 0.0088044973 0.073559448 53 10
-0.81183237 0.0087851426 -0.12858914 19 3
-0.84956652 0.0094900513 0.10432017 32 11
-0.79994076 0.0090753343 -0.098226704 132 4
-0.85923016 0.010047922 0.136098 3 12
-0.80287641 0.0095290551 -0.070247531 139 5
-0.89714032 0.010961241 0.17439944 2 13
-0.84477389 0.010616339 -0.044276223 40 6
-1.9135076 0.024381202 0.44180387 6 14
-0.84779829 0.011098298 -0.014799641 34 7
-0.91368335 0.012279538 0.24484283 3 15
-1.2903105 0.020720428 -0.34578225 51 0
-0.86575407 0.014053622 0.015113784 100 8
-0.80082214 0.013279384 -0.18490976 3 1
-0.85270995 0.014288452 0.044694912 100 9
-0.83818704 0.014337947 -0.16295089 8 2
-0.8486287 0.014812859 0.074256696 40 10
-0.82360417 0.014519837 -0.13046636 15 3
-0.8494823 0.015272659 0.10432017 32 11
-0.8038274 0.014732504 -0.09871418 125 4
-0.85124177 0.015750123 0.13484652 3 12
-0.79083812 0.014908826 -0.069201656 142 5
-0.89311612 0.017148601 0.1736362 2 13
-0.85666341 0.016598443 -0.044904254 40 6
-1.9288776 0.038046401 0.4454031 8 14
-0.8457008 0.016976438 -0.014764735 23 7
-1.280483 0.0292817 -0.34319407 26 0
-0.84964162 0.019726271 0.014834546 100 8
-0.80850607 0.018912205 -0.18670937 5 1
-0.86257285 0.020478362 0.04521827 100 9
-0.83021575 0.019999921 -0.16142441 10 2
-0.84054095 0.020395635 0.073559448 41 10
-0.81558365 0.020074699 -0.12921488 18 3
-0.86721516 0.021648437 0.10651381 24 11
-0.80172408 0.020153768 -0.098470435 118 4
-0.83926255 0.021390341 0.1329693 2 12
-0.78872663 0.020240257 -0.069027349 135 5
-0.88905352 0.023125153 0.17287296 2 13
-0.85652661 0.022578472 -0.044904254 100 6
-1.926626 0.051123302 0.44495317 20 14
-0.83557081 0.022463854 -0.014590211 100 7
-0.91342717 0.024876039 0.24484283 3 15
-1.2821783 0.038278088 -0.3437117 47 0
-0.84948766 0.02550895 0.014834546 100 8
-0.81030214 0.024615353 -0.18715927 2 1
-0.86241347 0.026349042 0.04521827 100 9
-0.81828648 0.025286732 -0.15913472 9 2
-0.83440381 0.026076317 0.073036514 42 10
-0.8075304 0.025377747 -0.12796341 16 3
-0.87101597 0.027676987 0.10700129 24 11
-0.80354792 0.025813913 -0.09871418 91 4
-0.86476409 0.027931558 0.13703661 1 12
-0.79254878 0.025876144 -0.069375969 99 5
-0.88887042 0.029331567 0.17287296 1 13
-0.84836841 0.028143276 -0.044485565 100 6
-1.9359602 0.064898893 0.44720268 69 14
-0.84338784 0.028567474 -0.014729831 100 7
-1.9056334 0.064881124 0.51090884 7 15
-1.2780269 0.046862844 -0.34267643 51 0
-0.83929729 0.031069001 0.014660021 100 8
-0.7906419 0.02940587 -0.18266025 4 1
-0.85422516 0.032069467 0.044799585 81 9
-0.84163219 0.031890884 -0.16371413 8 2
-0.84017986 0.031982694 0.073559448 41 10
-0.81128144 0.031166224 -0.12858914 16 3
-0.86286712 0.033449773 0.10602634 21 11
-0.80533713 0.031360146 -0.098957919 86 4
-0.85073102 0.033425402 0.13484652 3 12
-0.79434508 0.031348642 -0.069550283 124 5
-0.88472682 0.035225041 0.17210972 1 13
-0.83817303 0.033664551 -0.043962207 84 6
-1.9257379 0.077682354 0.44495317 66 14
-0.85116601 0.034632772 -0.014869451 97 7
-0.91299736 0.037467599 0.24484283 3 15
-1.2834586 0.056037113 -0.34422934 47 0
-0.85305077 0.037394028 0.014904355 87 8
-0.78262991 0.034580972 -0.18086064 4 1
-0.84600592 0.03752901 0.044380896 84 9
-0.84335685 0.037706655 -0.16409574 6 2
-0.84789765 0.038206223 0.074256696 40 10
-0.82683742 0.037401848 -0.1310921 15 3
-0.84080601 0.038327798 0.10334522 14 11
-0.80113256 0.036799327 -0.098470435 81 4
-0.86035019 0.03967011 0.13641086 1 12
-0.81002879 0.037633169 -0.070944771 81 5
-0.88249815 0.041308727 0.1717281 2 13
-0.84789979 0.039837722 -0.044485565 60 6
-1.9290417 0.09130846 0.44585299 65 14
-0.85090351 0.040573984 -0.014869451 78 7
-1.281118 0.064674355 -0.3437117 36 0
-0.85676318 0.043551572 0.014974165 56 8
-0.79989231 0.040800635 -0.18490976 2 1
-0.85170716 0.043741852 0.044694912 68 9
-0.82934862 0.04288362 -0.16142441 9 2
-0.85159731 0.044183269 0.074605316 34 10
-0.83839226 0.04379138 -0.1329693 12 3
-0.8543945 0.044926465 0.10505138 17 11
-0.79689884 0.042042457 -0.097982958 69 4
-0.8462441 0.0449422 0.13422079 2 12
-0.80377769 0.042968251 -0.070421837 73 5
-0.87435478 0.046894182 0.17020163 2 13
-0.85358411 0.046078991 -0.044799585 47 6
-1.9283574 0.10477348 0.44585299 62 14
-0.83862722 0.045711942 -0.014660021 83 7
-1.2748493 0.07328406 -0.34215879 49 0
-0.8504492 0.049185466 0.014869451 43 8
-0.81320626 0.047173936 -0.18805908 3 1
-0.84539944 0.049337532 0.044380896 70 9
-0.83686858 0.049132977 -0.16295089 8 2
-0.83734554 0.049307425 0.073385134 33 10
-0.8321504 0.049293172 -0.13203071 12 3
-0.86991256 0.051834557 0.10700129 12 11
-0.80253059 0.047960285 -0.09871418 66 4
-0.84393793 0.050730474 0.13390793 2 12
-0.79749191 0.048217706 -0.069898903 63 5
-0.88968343 0.053947814 0.17325458 3 13
-0.84327382 0.051428895 -0.044276223 45 6
-1.9411944 0.11906856 0.4490023 53 14
-0.83629173 0.051442582 -0.014625117 52 7
-1.8915305 0.11701638 0.50780302 7 15
-1.2743067 0.082182407 -0.34215879 57 0
-0.84409851 0.054733139 0.014764735 36 8
-0.80118936 0.052091427 -0.18535967 3 1
-0.85499942 0.055889521 0.044904254 40 9
-0.8306281 0.054587789 -0.16180603 3 2
-0.83698094 0.055151798 0.073385134 28 10
-0.81404644 0.053926133 -0.12921488 15 3
-0.8715204 0.057886444 0.10724504 12 11
-0.80811828 0.053958401 -0.099445395 54 4
-0.85735983 0.057546873 0.136098 1 12
-0.79515725 0.053511173 -0.06972459 57 5
-0.88536757 0.059892438 0.17249134 3 13
-0.84488684 0.057450507 -0.044380896 40 6
-1.9461718 0.13267629 0.45035201 50 14
-0.83990228 0.057553358 -0.014694927 41 7
-1.2717909 0.090716995 -0.34164116 59 0
-0.84769559 0.060763422 0.014834546 43 8
-0.78915381 0.056705736 -0.18266025 4 1
-0.85061502 0.061420355 0.044694912 41 9
-0.82044679 0.059530068 -0.15989795 3 2
-0.84254748 0.061281268 0.073908068 28 10
-0.81563061 0.059609916 -0.12952776 13 3
-0.86120725 0.063091964 0.10602634 8 11
-0.80971199 0.059603576 -0.099689126 60 4
-0.85891819 0.063527122 0.13641086 1 12
-0.80470937 0.059658945 -0.070596151 50 5
-0.87906593 0.065480061 0.17134649 8 13
-0.8404929 0.062901832 -0.044171553 41 6
-1.9393936 0.14548308 0.4490023 44 14
-0.84547317 0.063719712 -0.014799641 30 7
-0.91116971 0.068830907 0.24484283 3 15
-1.2711439 0.099371418 -0.34164116 59 0
-0.85124946 0.066845208 0.014904355 35 8
-0.80623418 0.063451909 -0.18670937 2 1
-0.85017723 0.067208901 0.044694912 27 9
-0.84546477 0.067133315 -0.16485898 2 2
-0.8460831 0.06733121 0.074256696 28 10
-0.82898968 0.066261917 -0.13171785 12 3
-0.87855434 0.070532501 0.10821999 7 11
-0.79543668 0.063999131 -0.097982958 52 4
-0.86437279 0.069849461 0.13734947 1 12
-0.80031282 0.064813212 -0.070247531 100 5
-0.88055652 0.071621321 0.1717281 4 13
-0.84004521 0.068621442 -0.044171553 41 6
-1.9480697 0.15947576 0.4512518 25 14
-0.83904099 0.068981647 -0.014694927 31 7
-0.91259235 0.075349584 0.24536048 2 15
-1.2838933 0.10939129 -0.34526464 10 0
-0.86073697 0.073488295 0.015078879 33 8
-0.79218024 0.067913756 -0.18356006 2 1
-0.83577055 0.071797498 0.043962207 29 9
-0.82738429 0.071368203 -0.16142441 1 2
-0.8376525 0.072548471 0.073559448 20 10
-0.83639133 0.072586305 -0.1329693 14 3
-0.86618829 0.07547687 0.10675755 8 11
-0.79892558 0.069896989 -0.098470435 50 4
-0.84223121 0.073833659 0.13390793 2 12
-0.8038103 0.070748433 -0.070596151 56 5
-0.88199079 0.077939846 0.17210972 5 13
-0.8296113 0.073457092 -0.043648191 37 6
-1.925557 0.17117389 0.44630289 23 14
-0.82858002 0.073948562 -0.014520402 32 7
-0.87357491 0.078118123 0.2350077 4 15
-1.1138319 0.10254259 -0.29971248 7 0
-0.85422933 0.078943737 0.014974165 31 8
-0.83827019 0.077616207 -0.19435771 1 1
-0.84320372 0.078370064 0.044380896 42 9
-0.82101494 0.076452293 -0.16027956 3 2
-0.83515561 0.078063108 0.073385134 24 10
-0.82406378 0.0773165 -0.1310921 15 3
-0.87751275 0.082485758 0.10821999 11 11
-0.80633658 0.076079175 -0.099445395 53 4
-0.84367573 0.079750739 0.13422079 2 12
-0.78545874 0.074524239 -0.069027349 59 5
-0.88730305 0.08449994 0.17325458 15 13
-0.84102148 0.080240339 -0.044276223 40 6
-1.9592648 0.18762051 0.45440111 12 14
-0.83404303 0.080015421 -0.014625117 52 7
-0.80571938 0.077581972 0.21689038 13 15
-0.78436631 0.07759881 -0.21119635 12 0
-0.85368699 0.084607281 0.014974165 45 8
-0.81251323 0.080813028 -0.18850899 3 1
-0.87247664 0.086931005 0.045950972 71 9
-0.81656849 0.081648149 -0.15951632 3 2
-0.83658731 0.083944947 0.073559448 37 10
-0.80780911 0.081199497 -0.12858914 16 3
-0.86310542 0.087062299 0.10651381 16 11
-0.81173933 0.082023874 -0.10017661 48 4
-0.84900916 0.086089462 0.13515939 5 12
-0.78691536 0.08007066 -0.069201656 50 5
-0.87500429 0.089188218 0.17096487 13 13
-0.82257384 0.084134154 -0.043334179 44 6
-0.8434251 0.086713083 -0.014799641 100 7
-0.81670249 0.084254004 0.2199962 12 15
-0.7799921 0.082393363 -0.21016107 35 0
-0.83718288 0.08873032 0.014694927 57 8
-0.80614579 0.085582875 -0.18715927 28 1
-0.84803247 0.090329245 0.044694912 100 9
-0.84138739 0.089769743 -0.16447736 8 2
-0.83997434 0.089915715 0.073908068 40 10
-0.80723768 0.086696208 -0.12858914 16 3
-0.82698238 0.08896295 0.10212652 30 11
-0.81116223 0.087547317 -0.10017661 42 4
-0.84841955 0.091718435 0.13515939 5 12
-0.79429018 0.086147271 -0.069898903 59 5
-0.86071479 0.093655333 0.16829354 2 13
-0.81207019 0.088505857 -0.042810816 51 6
-0.92597902 0.10124739 0.2150532 0 14
-0.82692891 0.090563402 -0.014520402 100 7
-0.85261142 0.093677267 0.22983132 5 15
-0.79285139 0.08921279 -0.21378455 50 0
-0.84849864 0.095624059 0.014904355 98 8
-0.8016718 0.090630345 -0.18625948 78 1
-0.83153814 0.094153754 0.043857537 100 9
-0.84855968 0.096381076 -0.16600384 16 2
-0.8452816 0.096307606 0.074431002 31 10
-0.81645811 0.093167931 -0.13015349 54 3
-0.84213537 0.096395805 0.10407643 18 11
-0.80464721 0.092246965 -0.099445395 53 4
-0.84777558 0.09749113 0.13515939 13 12
-0.80358166 0.092693388 -0.070770465 52 5
-0.84252214 0.097333983 0.16485898 15 13
-0.79359311 0.091962256 -0.041868769 34 6
-0.82269251 0.095479831 0.19120839 6 14
-0.84019727 0.097808622 -0.014764735 100 7
-0.79822719 0.093205035 0.21533746 7 15
-0.7940942 0.09525235 -0.21430218 57 0
-0.8259179 0.099362068 0.014520402 100 8
-0.80679011 0.097203746 -0.18760918 63 1
-0.82089394 0.099193707 0.043334179 100 9
-0.83027148 0.10062069 -0.16256927 33 2
-0.81290692 0.098660432 0.071642019 92 10
-0.80397052 0.097860619 -0.12827627 100 3
-0.82562453 0.10078884 0.10212652 50 11
-0.80393231 0.098283134 -0.099445395 37 4
-0.80976695 0.099283323 0.12921488 54 12
-0.80484092 0.098964527 -0.070944771 56 5
-0.81838554 0.10077497 0.16027956 21 13
-0.80080938 0.09889444 -0.042287458 57 6
-0.80839729 0.10011818 0.18805908 10 14
-0.79974985 0.09918873 -0.01406664 34 7
-0.75916362 0.094424285 0.20498469 8 15
-0.78574413 0.099819817 -0.21223164 75 0
-0.81330222 0.10360923 0.014310974 67 8
-0.7906273 0.10086082 -0.18400995 52 1
-0.80631363 0.10314796 0.04260147 21 9
-0.798392 0.10241804 -0.15646338 73 2
-0.79243684 0.10179449 0.069898903 47 10
-0.80130851 0.10321863 -0.12796341 100 3
-0.81899452 0.10578743 0.1013953 100 11
-0.80716395 0.10440253 -0.099932872 40 4
-0.80121815 0.10391783 0.12796341 56 12
-0.77844578 0.10124036 -0.068678722 87 5
-0.80792803 0.10521825 0.15837148 15 13
-0.80207992 0.10474155 -0.042392131 124 6
-0.77676272 0.10171101 0.18086064 2 14
-0.79308969 0.10398988 -0.013961925 49 7
-1.9153684 0.25182262 0.51763809 1 15
-0.78311336 0.10504606 -0.21171398 89 0
-0.80661345 0.10848496 0.014206259 72 8
-0.78604126 0.10585778 -0.18311015 57 1
-0.80755317 0.10904203 0.042706143 23 9
-0.8034941 0.10877933 -0.15760824 69 2
-0.79368114 0.10759208 0.070073217 43 10
-0.79665363 0.10827803 -0.12733766 100 3
-0.81823605 0.11150232 0.1013953 100 11
-0.80641544 0.11003486 -0.099932872 100 4
-0.80830181 0.11057985 0.12921488 22 12
-0.79353017 0.1087001 -0.070073217 86 5
-0.77799875 0.10684923 0.1526472 24 13
-0.80528629 0.11088325 -0.04260147 126 6
-0.71813804 0.09901116 0.16736358 2 14
-0.80026788 0.11061921 -0.014101544 54 7
-1.863811 0.25829339 0.50417954 1 15
-0.79001242 0.11159146 -0.21378455 83 0
-0.81179631 0.11481301 0.014310974 64 8
-0.78528303 0.11134281 -0.18311015 56 1
-0.81865686 0.11622053 0.043334179 20 9
-0.8143971 0.11590578 -0.15989795 75 2
-0.81066245 0.11566298 0.071642019 100 10
-0.79589814 0.11369819 -0.12733766 100 3
-0.82335329 0.11791357 0.10212652 80 11
-0.81348729 0.11679062 -0.10090782 100 4
-0.81339616 0.11692221 0.13015349 55 12
-0.80458409 0.11594237 -0.071119085 68 5
-0.77917695 0.11255877 0.15302883 54 13
-0.79858279 0.11550441 -0.042287458 124 6
-0.71742934 0.10402229 0.16736358 2 14
-0.80541277 0.11706613 -0.014206259 43 7
-0.79305655 0.11753256 -0.21481982 74 0
-0.80504096 0.11959607 0.014206259 56 8
-0.78450704 0.11668531 -0.18311015 60 1
-0.80004668 0.11928228 0.042392131 18 9
-0.81162632 0.12129833 -0.15951632 64 2
-0.81182683 0.12147315 0.071816333 100 10
-0.79117799 0.11866583 -0.12671193 95 3
-0.79701149 0.119683 0.098957919 100 11
-0.80874759 0.12173403 -0.10042035 100 4
-0.80670029 0.12171403 0.12921488 76 12
-0.79983616 0.12082095 -0.070770465 69 5
-0.7997452 0.12109294 0.15722662 21 13
-0.78985846 0.11987778 -0.041868769 112 6
-0.71670467 0.10890327 0.16736358 2 14
-0.80262041 0.12224461 -0.014171354 41 7
-0.71425635 0.10891388 0.19359665 9 15
-0.78842008 0.1223356 -0.21378455 64 0
-0.81211209 0.12630208 0.014345878 53 8
-0.77984351 0.12142298 -0.18221036 57 1
-0.7932961 0.12380118 0.042078111 13 9
-0.80108356 0.12530312 -0.15760824 75 2
-0.80704445 0.12637961 0.071467713 100 10
-0.80206084 0.12588623 -0.12858914 100 3
-0.80402255 0.1263379 0.099932872 99 11
-0.80005652 0.12600088 -0.099445395 100 4
-0.79505932 0.1256405 -0.070421837 55 5
-0.79696333 0.12622651 0.156845 17 13
-0.7969144 0.12650391 -0.042287458 102 6
-0.69092715 0.1098029 0.16151486 7 14
-0.79584533 0.12676162 -0.01406664 27 7
-0.66580468 0.10616785 0.1806557 23 15
-0.7704066 0.12491658 -0.2091258 48 0
-0.79631007 0.12954459 -0.18625948 43 1
-0.81214744 0.13241202 0.043124832 32 9
-0.78664917 0.12853688 -0.15493691 13 2
-0.83369309 0.13637294 0.073908068 100 10
-0.79923606 0.13102321 -0.12827627 100 3
-0.84425646 0.13870627 0.10505138 8 11
-0.81289178 0.13369894 -0.10115156 100 4
-0.86344087 0.14232248 0.13860095 1 12
-0.78826559 0.13021365 -0.069898903 100 5
-0.82320291 0.13613273 0.16218765 1 13
-0.80588681 0.13355798 -0.042810816 44 6
-0.70552295 0.11717809 0.16511407 10 14
-0.66123611 0.11017841 0.17962041 23 15
-0.78284889 0.13254951 -0.21274926 52 0
-0.83986628 0.14250489 0.014869451 7 8
-0.83876836 0.14277044 0.044590238 13 9
-0.84959757 0.14491908 -0.1675303 1 2
-0.82682878 0.14118403 0.073385134 100 10
-0.77883106 0.13326783 -0.12514758 52 3
-0.87065899 0.14929359 0.10846373 7 11
-0.80802566 0.13869889 -0.10066409 100 4
-0.88578773 0.15236518 0.14235538 1 12
-0.78144705 0.13469848 -0.069375969 100 5
-0.8686645 0.14988811 0.17134649 1 13
-0.72004884 0.12476232 0.1687133 4 14
-0.82751662 0.14353195 -0.014660021 10 7
-0.67948407 0.11810017 0.18479681 33 15
-0.79712409 0.14069778 -0.21689038 52 0
-0.8309744 0.14697188 0.014729831 7 8
-0.79442376 0.14065008 -0.18625948 1 1
-0.85348356 0.15141389 0.045427613 12 9
-0.84856516 0.15084687 -0.1675303 1 2
-0.83955401 0.14939614 0.074605316 100 10
-0.83816761 0.14945127 -0.13484652 2 3
-0.8383292 0.14978202 0.10456391 9 11
-0.80703765 0.14433658 -0.10066409 100 4
-0.92359048 0.16551447 0.14861277 1 12
-0.79423964 0.14247689 -0.070596151 100 5
-0.88691974 0.15942232 0.17516267 1 13
-0.8275311 0.1490453 -0.04406688 5 6
-0.70767593 0.12758608 0.16601388 5 14
-0.66913819 0.12112051 0.18220863 34 15
-0.79042226 0.14521211 -0.21533746 46 0
-0.82995474 0.15262456 0.014729831 7 8
-0.78575647 0.14478047 -0.18445987 1 1
-0.85243315 0.15721987 0.045427613 12 9
-0.7992546 0.14770029 -0.15798986 3 2
-0.84436786 0.15634172 0.07512825 100 10
-0.82159239 0.15227315 -0.13234358 2 3
-0.86461443 0.16055878 0.10797625 7 11
