# .PCD v0.7 - Point Cloud Data file format
VERSION 0.7
FIELDS x y z intensity ring
SIZE 4 4 4 4 2
TYPE F F F F U
COUNT 1 1 1 1 1
WIDTH 1317
HEIGHT 1
VIEWPOINT 0 0 0 1 0 0 0
POINTS 1317
DATA ascii
13.719698 -12.501484 0.32398647 4 8
4.1708302 -3.8018219 -1.3029165 3 1
15.824245 -14.434335 1.1225017 15 9
5.2881746 -4.8270745 -1.3917608 6 2
16.037069 -14.643855 1.8999952 12 10
7.3569341 -6.7225146 -1.5784239 6 3
16.135149 -14.754086 2.6845381 43 11
17.311796 -15.846668 3.7171962 12 12
13.26815 -12.153761 -1.5742069 9 5
40.790955 -37.378021 10.754377 16 13
13.484097 -12.36456 -0.95879483 12 6
12.540648 -11.507503 3.929445 9 14
13.418928 -12.317742 -0.31794792 13 7
19.660496 -18.059765 7.1532407 15 15
3.407712 -3.146749 -1.2428491 3 0
13.511658 -12.485675 0.32112429 12 8
4.144187 -3.8308473 -1.3029165 3 1
15.92102 -14.727549 1.1366323 5 9
5.2730756 -4.8812127 -1.3967218 6 2
16.044085 -14.856986 1.9130685 16 10
7.3532915 -6.813992 -1.58781 7 3
13.391332 -12.417887 2.2423961 7 11
17.1964 -15.963109 3.7162576 9 12
13.104154 -12.17287 -1.5647942 8 5
13.623768 -12.659986 3.6150675 6 13
13.296528 -12.364548 -0.95157248 14 6
12.45858 -11.593446 3.9289954 3 14
13.464339 -12.533751 -0.32108939 21 7
20.397621 -19.001129 7.4695177 2 15
3.4068122 -3.1902697 -1.2506137 4 0
13.212584 -12.381431 0.31606308 13 8
4.1244502 -3.8663487 -1.305166 4 1
15.472589 -14.51449 1.1118252 15 9
5.2503219 -4.9286556 -1.3997749 6 2
15.735188 -14.776325 1.8884906 15 10
7.3660016 -6.9219751 -1.6009505 6 3
13.152472 -12.368282 2.2168036 7 11
10.436388 -9.8175735 -1.759306 1 4
16.619957 -15.645432 3.6152008 15 12
12.926035 -12.176621 -1.5536382 8 5
12.406298 -11.691102 3.3135893 10 13
13.1474 -12.39815 -0.94707155 12 6
12.448203 -11.747012 3.9514899 3 14
12.813764 -12.096209 -0.30758122 1 7
12.907189 -12.192926 4.7576118 19 15
3.3920233 -3.2200353 -1.2532018 3 0
13.199041 -12.538563 0.3177734 19 8
4.1093388 -3.9050729 -1.3087653 4 1
15.408171 -14.652502 1.1143373 12 9
5.2223411 -4.9696927 -1.4013014 6 2
15.690523 -14.936663 1.8952887 12 10
7.341599 -6.9937539 -1.6059564 6 3
13.164246 -12.549293 2.233134 13 11
16.18153 -15.441808 3.5426154 9 12
12.782336 -12.206532 -1.5463171 9 5
12.18873 -11.643734 3.2765722 23 13
12.954427 -12.383845 -0.9392212 14 6
19.244051 -18.409302 6.1483622 3 14
13.079315 -12.516346 -0.31599328 13 7
12.487639 -11.95849 4.6328611 13 15
3.3638935 -3.2382782 -1.2511313 3 0
13.230719 -12.745556 0.32067052 18 8
4.0960083 -3.9471884 -1.3132643 4 1
15.255182 -14.711189 1.1106738 17 9
5.1903448 -5.0087571 -1.4020646 6 2
15.544296 -15.005709 1.8902338 12 10
7.339479 -7.0901289 -1.6162812 6 3
13.009237 -12.576044 2.2216785 16 11
11.504416 -11.125218 -1.9650215 1 4
15.971127 -15.45549 3.5200887 17 12
12.626675 -12.227555 -1.5377759 9 5
12.197392 -11.815969 3.3009958 5 13
12.823201 -12.430887 -0.93597633 14 6
12.175959 -11.811691 3.916398 7 14
12.520917 -12.150574 -0.30454451 11 7
12.560457 -12.197461 4.6913543 6 15
3.3259985 -3.246839 -1.2454373 2 0
14.980958 -14.634625 0.36555812 15 8
4.0836835 -3.9906697 -1.3182131 4 1
14.945053 -14.614853 1.0954963 14 9
5.1664758 -5.0558548 -1.4051175 6 2
15.352309 -15.028844 1.8796008 7 10
7.3152018 -7.1660762 -1.6219126 6 3
12.970736 -12.715196 2.2302091 19 11
11.412295 -11.191362 -1.962584 3 4
16.208263 -15.905588 3.5967417 9 12
12.461397 -12.237233 -1.5280145 9 5
17.093496 -16.791868 4.6576481 4 13
12.673437 -12.458499 -0.93137079 12 6
12.119594 -11.922372 3.9249458 11 14
12.64103 -12.439664 -0.30957079 12 7
12.470868 -12.280784 4.6898012 10 15
3.3279629 -3.2944436 -1.2547548 2 0
13.24042 -13.116216 0.32531285 6 8
4.0543399 -4.0177097 -1.3177633 4 1
14.669642 -14.547257 1.0827264 9 9
5.1477766 -5.1083951 -1.4096969 6 2
15.265397 -15.153903 1.8818668 9 10
7.2720022 -7.2239318 -1.623477 6 3
15.263703 -15.173394 2.6426151 9 11
11.362039 -11.298759 -1.9674588 1 4
15.917602 -15.840003 3.5566945 11 12
12.298014 -12.246606 -1.5184274 9 5
20.230541 -20.153011 5.5506339 10 13
12.48855 -12.449379 -0.92414844 14 6
12.037445 -12.008067 3.925396 14 14
12.512827 -12.486647 -0.30855855 12 7
15.996386 -15.974066 6.0574012 12 15
3.317153 -3.3299146 -1.2594135 3 0
12.443137 -12.49973 0.30786046 7 8
4.0316906 -4.0514417 -1.3195629 4 1
14.455061 -14.536018 1.0743526 11 9
5.1175232 -5.1497788 -1.4112234 6 2
14.801172 -14.899664 1.8374174 3 10
7.2311354 -7.284337 -1.6256671 9 3
12.60041 -12.701982 2.1968169 27 11
11.24095 -11.335517 -1.9601468 6 4
15.738498 -15.881988 3.5413637 12 12
12.161086 -12.276246 -1.5118035 10 5
11.847816 -11.968361 3.2735193 5 13
12.345151 -12.479465 -0.91996151 14 6
12.214409 -12.351612 4.0104275 2 14
12.270736 -12.417239 -0.30471903 15 7
15.978138 -16.180199 6.0931182 9 15
3.2924716 -3.3516133 -1.2588959 2 0
11.65441 -11.867898 0.29033825 1 8
4.0142283 -4.0906162 -1.3231622 4 1
14.57677 -14.859344 1.0908908 9 9
5.0864744 -5.1886992 -1.4123683 6 2
12.854988 -13.122499 1.6071519 10 10
7.1869135 -7.3390341 -1.6269187 5 3
12.367878 -12.638483 2.1712244 18 11
11.219831 -11.473328 -1.9703838 1 4
15.995959 -16.363075 3.624274 12 12
12.008257 -12.292434 -1.5034364 10 5
11.198951 -11.471985 3.1162927 5 13
12.188779 -12.490307 -0.91462332 16 6
12.183663 -12.493786 4.0288734 7 14
12.190727 -12.509763 -0.30489355 15 7
10.577973 -10.858594 4.0619063 9 15
3.2776482 -3.3822703 -1.2620018 3 0
12.083203 -12.47761 0.30318323 10 8
3.9998453 -4.1318474 -1.3276612 4 1
15.2295 -15.743094 1.1479371 3 9
5.0610437 -5.2353749 -1.4154211 4 2
13.911759 -14.395988 1.7514818 8 10
7.1355028 -7.389029 -1.6269187 5 3
14.872232 -15.411409 2.6296968 19 11
11.183555 -11.5971 -1.9781833 1 4
15.853912 -16.445904 3.6180167 15 12
11.858564 -12.309963 -1.4954182 10 5
16.583935 -17.22724 4.6481071 2 13
12.034808 -12.506017 -0.90959901 16 6
10.977707 -11.415498 3.6563547 9 14
12.065684 -12.555633 -0.30395111 26 7
11.469525 -11.939435 4.4361587 12 15
3.2533615 -3.4056377 -1.2620018 3 0
11.948842 -12.51249 0.30199644 5 8
3.9782488 -4.1688223 -1.3303605 4 1
15.035133 -15.766392 1.1417614 12 9
5.0324979 -5.2791057 -1.4177109 6 2
12.913757 -13.556043 1.638005 1 10
7.0906181 -7.4484849 -1.6287959 3 3
11.774201 -12.372773 2.0971277 6 11
10.797266 -11.354108 -1.9238297 3 4
15.919528 -16.752243 3.660254 4 12
11.694118 -12.310114 -1.4854825 10 5
11.005246 -11.593056 3.1071339 0 13
11.895525 -12.539651 -0.9058308 16 6
10.877629 -11.470647 3.649606 9 14
11.987365 -12.64972 -0.30419543 13 7
17.73056 -18.723339 6.9094334 12 15
3.2255323 -3.4240491 -1.2604488 3 0
11.843923 -12.581657 0.3016125 12 8
3.9570608 -4.2050085 -1.3330599 4 1
14.852182 -15.793856 1.1362138 21 9
5.004004 -5.3249969 -1.4203823 6 2
13.659115 -14.540392 1.7453809 12 10
7.0641332 -7.5251689 -1.6347404 3 3
12.631981 -13.465814 2.2670138 6 11
10.619969 -11.324952 -1.9062805 4 4
15.802188 -16.862974 3.660254 6 12
11.561584 -12.342017 -1.479556 9 5
11.518412 -12.304538 3.2761905 9 13
11.716278 -12.524668 -0.89881784 14 6
10.962333 -11.722803 3.7053936 9 14
11.781345 -12.60745 -0.30119365 22 7
17.577 -18.822662 6.9006333 5 15
3.2225866 -3.4691303 -1.2687311 2 0
11.600164 -12.492005 0.29756355 8 8
3.9249575 -4.2296743 -1.3321601 4 1
12.818264 -13.818257 0.98778892 19 9
4.9823241 -5.3747725 -1.4245801 4 2
13.547793 -14.625165 1.7441607 15 10
7.0288534 -7.5904717 -1.6384948 3 3
11.487049 -12.413573 2.0766537 4 11
15.099731 -16.334797 3.5232174 1 12
10.600442 -11.475528 -1.3667763 29 5
10.171157 -11.018517 2.9147985 20 13
11.577929 -12.546882 -0.89473557 16 6
10.892115 -11.811943 3.7094431 9 14
11.370532 -12.3394 -0.29288629 35 7
11.735278 -12.739688 4.6411433 14 15
3.1975932 -3.4895606 -1.2682134 3 0
11.531577 -12.593331 0.29805219 16 8
3.903971 -4.2649174 -1.3348596 4 1
14.506294 -15.858602 1.1263746 10 9
4.9407063 -5.4050775 -1.4234352 6 2
13.321595 -14.578785 1.7277755 10 10
6.974359 -7.637897 -1.6381818 2 3
14.101611 -15.454065 2.5687623 1 11
15.312685 -16.798946 3.6001832 6 12
11.291533 -12.396186 -1.4670054 12 5
10.065518 -11.054107 2.9060211 7 13
11.309934 -12.429456 -0.88070959 14 6
12.035195 -13.235784 4.1301012 7 14
11.459786 -12.607396 -0.297389 31 7
11.013483 -12.124899 4.3890533 30 15
3.1692684 -3.5074983 -1.2666605 3 0
11.476882 -12.710633 0.2989248 12 8
3.8949926 -4.3152132 -1.3420579 4 1
12.876912 -14.276186 1.0075719 4 9
4.923883 -5.4627705 -1.4295411 6 2
13.2555 -14.711394 1.7324817 12 10
6.9499459 -7.718698 -1.6450651 3 3
12.011017 -13.348953 2.2048604 5 11
14.820013 -16.488203 3.5113285 17 12
11.142143 -12.405048 -1.4588128 11 5
11.293577 -12.586897 -0.88625711 16 6
10.775568 -12.018003 3.7265389 8 14
11.063182 -12.343112 -0.28932601 8 7
10.878302 -12.14537 4.368866 34 15
3.1524148 -3.538193 -1.2697662 3 0
11.264201 -12.651551 0.29567868 4 8
3.8725457 -4.3510346 -1.3447573 4 1
12.895065 -14.498556 1.0168877 17 9
4.8934507 -5.5058169 -1.4318308 6 2
12.919569 -14.541433 1.701803 3 10
6.9168749 -7.7906632 -1.6500709 3 3
10.766091 -12.134669 1.9918326 6 11
11.279638 -12.726916 2.6934888 12 12
10.997992 -12.413493 -1.4509687 11 5
10.697548 -12.082877 3.1368999 13 13
11.133965 -12.584659 -0.88060486 14 6
9.9124489 -11.207926 3.4543483 0 14
11.299858 -12.785649 -0.29784277 16 7
10.79836 -12.22681 4.3709359 40 15
3.1340127 -3.5673716 -1.2723545 2 0
11.175187 -12.724926 0.29560888 19 8
3.8369341 -4.3721046 -1.3429577 4 1
13.118779 -14.953835 1.0425323 8 9
4.8700967 -5.5552368 -1.4360286 5 2
12.886007 -14.709205 1.7108672 11 10
6.8636856 -7.837564 -1.6500709 3 3
10.684553 -12.209164 1.9920764 24 11
10.158886 -11.616669 -1.8948246 3 4
10.857318 -12.428452 -1.4438219 12 5
12.043486 -13.795979 3.5597327 29 13
10.998145 -12.602969 -0.87662733 16 6
9.9505138 -11.410508 3.4952896 3 14
11.153831 -12.7994 -0.29634187 12 7
10.731383 -12.318966 4.3776655 23 15
3.1197784 -3.6003008 -1.2764956 2 0
10.901505 -12.589481 0.29068726 24 8
3.8198395 -4.4128547 -1.3474568 4 1
12.423464 -14.362288 0.99522066 3 9
4.8504539 -5.6113801 -1.4417528 6 2
11.264082 -13.03576 1.5072714 12 10
6.8165488 -7.8942609 -1.6519481 3 3
12.126732 -14.053913 2.2792008 10 11
9.3846149 -10.879855 -1.7641808 9 4
13.485183 -15.644801 3.2713578 11 12
10.700072 -12.422427 -1.4344091 11 5
10.853878 -12.614343 -0.87212652 16 6
9.8693419 -11.478219 3.4948397 11 14
11.001278 -12.7992 -0.29459664 12 7
10.627498 -12.373067 4.3704185 35 15
3.1046071 -3.6337433 -1.2806368 2 0
10.82114 -12.674405 0.29089671 12 8
3.7939992 -4.445344 -1.3492564 4 1
11.241986 -13.181295 0.90792429 1 9
4.8188019 -5.6540704 -1.4440426 6 2
12.56698 -14.750496 1.6953535 3 10
6.774075 -7.9566979 -1.6550769 3 3
11.970439 -14.070192 2.2682326 1 11
9.3007145 -10.936034 -1.7627183 10 4
13.278413 -15.624166 3.2475798 11 12
10.569237 -12.445193 -1.4284827 7 5
10.706113 -12.619749 -0.86731154 16 6
9.8507156 -11.619677 3.5168848 12 14
10.799178 -12.742968 -0.2915599 31 7
10.412266 -12.295112 4.317102 19 15
3.0866308 -3.6641939 -1.2837424 2 0
10.789056 -12.816954 0.29243252 17 8
3.7779293 -4.4896154 -1.3546553 5 1
12.591926 -14.974596 1.0253662 1 9
4.7943683 -5.7056108 -1.448622 6 2
12.500859 -14.882111 1.7004085 12 10
6.7234426 -8.0098467 -1.6563283 3 3
10.325738 -12.310098 1.9728212 6 11
10.270019 -12.248012 -1.962584 7 4
13.250209 -15.81339 3.2676034 2 12
10.430935 -12.457573 -1.4215102 10 5
10.588767 -12.650557 3.2067363 25 13
10.585715 -12.655885 -0.86469477 14 6
9.9893131 -11.951324 3.5960677 15 14
10.635586 -12.729044 -0.2895354 26 7
10.898201 -13.052608 4.5562506 31 15
3.0535696 -3.6767361 -1.2806368 2 0
10.643124 -12.824257 0.29089671 13 8
3.7527158 -4.5233793 -1.3569047 4 1
12.447559 -15.014474 1.0221213 3 9
4.7594285 -5.7449899 -1.4501485 6 2
12.35218 -14.915314 1.6943076 12 10
6.6812134 -8.0733309 -1.6597699 3 3
10.388826 -12.562397 2.0015824 6 11
10.169085 -12.301051 -1.9596591 4 4
11.90027 -14.405419 2.9594276 6 12
10.275216 -12.44712 -1.4120973 16 5
10.531431 -12.762025 3.2162766 22 13
10.456441 -12.680167 -0.86134523 16 6
11.050739 -13.410384 4.0117774 5 14
10.592235 -12.85855 -0.29079199 13 7
10.611598 -12.891223 4.4739461 43 15
3.0425131 -3.7159009 -1.2868483 2 0
10.460896 -12.785268 0.28834867 8 8
3.7173443 -4.5449424 -1.3555551 6 1
11.724367 -14.344796 0.97093672 1 9
4.7241735 -5.7841592 -1.4516749 6 2
14.318026 -17.53688 1.9807014 3 10
6.6384258 -8.1366138 -1.6632115 3 3
10.112716 -12.403832 1.9650215 33 11
10.047844 -12.328658 -1.9528345 7 4
10.378592 -12.743567 2.6030698 7 12
10.160401 -12.484552 -1.4082625 11 5
10.307189 -12.678471 -0.85632104 18 6
10.453044 -12.871645 -0.28943074 13 7
10.019803 -12.346967 4.2606792 44 15
3.018924 -3.7400575 -1.2878836 3 0
10.421599 -12.920244 0.28974485 8 8
3.6928632 -4.5798855 -1.3582544 5 1
11.958519 -14.841544 0.99888414 3 9
4.6935272 -5.8292322 -1.4547279 6 2
11.629285 -14.448414 1.6226655 2 10
6.6334577 -8.2474089 -1.6763519 3 3
10.032093 -12.481867 1.9662402 15 11
9.9093113 -12.33351 -1.9425975 7 4
10.25722 -12.775662 2.5949352 16 12
10.008162 -12.47437 -1.3991983 11 5
11.488408 -14.324499 3.5692732 11 13
10.164718 -12.683103 -0.85182011 16 6
9.915905 -12.381498 3.6622031 26 14
9.9105177 -12.379201 -0.27679518 23 7
9.8163004 -12.270292 4.2104688 49 15
2.9963486 -3.7655773 -1.2894366 3 0
10.507876 -13.214944 0.29470134 4 8
3.6680748 -4.6147079 -1.3609538 5 1
12.193746 -15.351625 1.0274596 14 9
4.6551585 -5.8649321 -1.4554911 6 2
11.504603 -14.499596 1.6193538 7 10
6.6076274 -8.3337622 -1.6844865 3 3
9.8990965 -12.494031 1.9572219 16 11
9.0156841 -11.383122 -1.7829487 11 4
10.16778 -12.84696 2.5949352 15 12
9.9097071 -12.529871 -1.3976295 8 5
13.504295 -17.081009 4.2325253 14 13
10.02021 -12.683233 -0.84710985 10 6
9.8847704 -12.520782 3.6828988 30 14
10.057991 -12.744769 -0.28339219 15 7
9.7722692 -12.391613 4.2285857 51 15
2.9580648 -3.771204 -1.2842602 2 0
10.201947 -13.015704 0.28866282 22 8
3.6405773 -4.6463389 -1.3627534 6 1
11.928671 -15.235089 1.0140616 11 9
4.6261983 -5.9127502 -1.4593072 6 2
13.105583 -16.756289 1.8611236 4 10
6.5626678 -8.3968096 -1.6879282 2 3
9.7884159 -12.533109 1.9525908 19 11
8.9445467 -11.456738 -1.7846549 10 4
10.215148 -13.093623 2.6302896 18 12
9.7558422 -12.513897 -1.3882166 8 5
11.01334 -14.131987 3.482646 25 13
9.8884697 -12.697725 -0.84344637 16 6
9.7516403 -12.531045 3.6658025 34 14
9.7674074 -12.555827 -0.27766779 12 7
9.7507305 -12.543422 4.2570558 22 15
2.9446628 -3.8085744 -1.2899542 2 0
10.015472 -12.963181 0.28594023 24 8
3.6199625 -4.6870646 -1.3672525 5 1
12.136849 -15.725924 1.0410669 11 9
4.5896025 -5.9511218 -1.4608337 13 2
11.28644 -14.639875 1.617262 12 10
6.5159421 -8.4580698 -1.6910567 2 3
11.105348 -14.425796 2.2353277 9 11
9.5253582 -12.377865 -1.9177362 7 4
13.17366 -17.131073 3.4227865 15 12
9.6354637 -12.539045 -1.3835102 10 5
10.311645 -13.423837 3.2903106 18 13
9.7509384 -12.703077 -0.83925951 16 6
9.6496868 -12.580263 3.6604037 22 14
9.8413448 -12.834765 -0.28231013 33 7
9.5748034 -12.496179 4.2182326 47 15
2.9191732 -3.8305755 -1.2904718 2 0
9.7902508 -12.856194 0.28206578 16 8
3.5777102 -4.6998177 -1.3636533 6 1
11.884081 -15.6227 1.0287156 14 9
4.5574498 -5.9955211 -1.4638867 40 2
11.87708 -15.630474 1.717491 1 10
6.4722657 -8.5238047 -1.695124 2 3
10.120033 -13.337482 2.0556922 9 11
8.877284 -11.703873 -1.8036665 6 4
10.026564 -13.228677 2.6290381 10 12
9.5164137 -12.564713 -1.3789781 8 5
10.285227 -13.584717 3.312063 34 13
9.6282749 -12.726244 -0.83632863 14 6
9.6697464 -12.790336 3.7017946 20 14
9.6128521 -12.719693 -0.27829608 30 7
9.6142321 -12.730756 4.2746553 19 15
2.9028013 -3.8647635 -1.2951305 2 0
9.7854853 -13.037782 0.28454405 6 8
3.5518291 -4.7340331 -1.3663527 6 1
10.765942 -14.359756 0.94058186 4 9
4.5154815 -6.0271926 -1.4638867 51 2
10.150557 -13.553726 1.4814733 1 10
6.4362721 -8.6004124 -1.7013814 3 3
9.7948503 -13.097812 2.0081632 73 11
8.7763443 -11.740122 -1.7997667 9 4
9.9233255 -13.284108 2.6262219 21 12
9.3901377 -12.57492 -1.3730515 9 5
10.186615 -13.65147 3.3109179 47 13
9.4950228 -12.733909 -0.83245581 13 6
9.532383 -12.788673 3.6824489 32 14
9.621768 -12.917998 -0.28115827 10 7
9.1952362 -12.354347 4.1266112 34 15
2.8803477 -3.8911455 -1.297201 2 0
9.4241266 -12.735976 0.27655083 9 8
3.5279617 -4.7712493 -1.3699518 5 1
11.607005 -15.703155 1.0233774 8 9
4.4790177 -6.0641046 -1.4654131 50 2
9.9089737 -13.425482 1.4598585 23 10
6.3916554 -8.6630974 -1.7051359 3 3
9.8574305 -13.370294 2.0396054 24 11
8.7153625 -11.829874 -1.8041539 9 4
9.7354517 -13.219329 2.6002541 30 12
9.2619686 -12.585608 -1.3671249 12 5
9.7386436 -13.243017 3.1952875 36 13
9.3679037 -12.74353 -0.82889694 13 6
9.4428711 -12.854909 3.6824489 17 14
9.4331369 -12.851058 -0.27826118 13 7
9.1657877 -12.491412 4.1514578 52 15
2.8469617 -3.9012976 -1.2940953 3 0
9.36444 -12.841851 0.27742347 24 8
3.5068824 -4.8109002 -1.3744509 6 1
9.909585 -13.604389 0.88207024 17 9
4.4400396 -6.0999885 -1.466558 33 2
9.6919336 -13.320237 1.4412074 27 10
6.3437991 -8.7250834 -1.7085775 3 3
9.5024843 -13.079047 1.985008 27 11
8.4876566 -11.686543 -1.7734429 10 4
9.5895519 -13.213429 2.5858619 11 12
9.1341105 -12.595123 -1.3611984 8 5
9.7416134 -13.437749 3.2261987 17 13
9.2505903 -12.7698 -0.82638484 15 6
9.3483257 -12.914205 3.6806493 28 14
9.3524761 -12.924689 -0.27847061 11 7
9.0942068 -12.577011 4.1587048 26 15
2.8219125 -3.9242148 -1.2951305 2 0
9.0283422 -12.564268 0.27005854 15 8
3.4800329 -4.8447618 -1.3771503 6 1
9.7712755 -13.613205 0.87819743 29 9
4.4236631 -6.1675291 -1.4753352 8 2
9.6219234 -13.419957 1.4446936 15 10
6.2907863 -8.7803984 -1.7107675 2 3
9.1590319 -12.7932 1.9318731 23 11
8.5375643 -11.929543 -1.801229 9 4
9.2592144 -12.947452 2.5210981 54 12
9.005414 -12.601848 -1.3550974 9 5
11.104856 -15.545464 3.7135251 11 13
9.1240816 -12.782051 -0.82303536 13 6
9.1379871 -12.810986 3.6329596 36 14
8.9787483 -12.592389 -0.26995382 15 7
9.2191725 -12.939128 4.2570558 34 15
2.8011489 -3.9532778 -1.2982364 2 0
8.9773855 -12.679215 0.2711755 16 8
3.4416218 -4.862576 -1.3753507 5 1
9.656394 -13.653367 0.87641799 35 9
4.4303536 -6.268806 -1.4921263 8 2
9.5935297 -13.579556 1.4546293 30 10
6.2327518 -8.8289442 -1.711706 3 3
9.1981831 -13.053761 2.5292327 13 12
8.8908358 -12.626941 -1.3510883 20 5
11.817568 -16.789768 3.9909611 9 13
9.0024538 -12.799695 -0.82010454 15 6
8.8219795 -12.552405 3.5420792 29 14
9.0779943 -12.921474 -0.27564332 11 7
8.9721069 -12.780236 4.1840687 43 15
2.7756939 -3.9759049 -1.2992717 3 0
9.1025991 -13.048269 0.27770269 22 8
3.4075911 -4.8864846 -1.3753507 5 1
9.6042328 -13.782718 0.88039553 30 9
4.3763852 -6.2850819 -1.4886919 14 2
9.5565424 -13.729601 1.4635193 11 10
6.1901374 -8.8998098 -1.7170249 2 3
9.0010424 -12.950803 1.936504 44 11
9.1102076 -13.122526 2.5301714 28 12
8.7729397 -12.64614 -1.3465562 11 5
9.3786249 -13.524271 3.1991038 9 13
8.7979813 -12.696425 -0.80953264 15 6
8.7252569 -12.600871 3.53848 26 14
8.9670811 -12.954939 -0.27501503 6 7
8.8859644 -12.847328 4.1856217 50 15
2.7555325 -4.0063281 -1.3028952 2 0
8.8900919 -12.935163 0.27396789 15 8
3.3866365 -4.9294291 -1.3807496 5 1
9.5349073 -13.888948 0.88290769 34 9
4.3401747 -6.3268147 -1.4913632 18 2
9.3725719 -13.667815 1.4499229 25 10
6.1401367 -8.9607325 -1.7204664 2 3
8.8240547 -12.887205 1.9177362 15 11
8.5482254 -12.489045 -1.858264 7 4
9.0328703 -13.207004 2.5342386 13 12
8.6338511 -12.633056 -1.3387122 10 5
8.8420963 -12.94261 3.046838 21 13
8.7057514 -12.752588 -0.80921865 13 6
8.6206026 -12.637329 3.5317316 34 14
8.831356 -12.951138 -0.27361882 11 7
8.8624125 -13.006435 4.2171979 43 15
2.72858 -4.0270667 -1.3034128 2 0
8.8623533 -13.08964 0.27592254 27 8
3.3543246 -4.9561796 -1.3816494 6 1
10.747916 -15.892524 1.0054785 16 9
4.3002968 -6.3634658 -1.4928896 13 2
9.3806448 -13.886456 1.4661338 18 10
6.1050601 -9.0443115 -1.7282882 2 3
8.5318403 -12.648973 1.8733757 11 11
8.4097786 -12.472706 -1.847052 9 4
8.9371367 -13.264828 2.5332999 35 12
8.5220795 -12.658316 -1.3350517 10 5
8.9685593 -13.326517 3.1223984 4 13
8.5953341 -12.781566 -0.80722988 15 6
8.546298 -12.718232 3.5375803 27 14
8.7039289 -12.957698 -0.27246696 24 7
8.8435316 -13.175458 4.2518797 27 15
2.6928923 -4.0347695 -1.2997893 2 0
8.6087656 -12.908298 0.27082643 16 8
3.3239663 -4.9859619 -1.383449 5 1
10.558087 -15.849154 0.99804682 40 9
4.2720852 -6.4178472 -1.498614 11 2
9.3474884 -14.047814 1.476244 10 10
6.0548954 -9.106452 -1.7320426 2 3
8.3345795 -12.549302 -1.849733 4 4
8.7252541 -13.147493 2.4991972 20 12
8.3894615 -12.646298 -1.3277307 14 5
8.6269007 -13.014075 3.0350082 31 13
8.5147161 -12.854581 -0.80806726 15 6
8.4455433 -12.754987 3.5317316 33 14
8.6033268 -13.003138 -0.27215284 13 7
9.4257421 -14.256956 4.5795441 18 15
2.6784544 -4.0744567 -1.3065187 2 0
8.5207024 -12.966598 0.27082643 16 8
3.289077 -5.0090461 -1.383449 5 1
10.443385 -15.910633 0.99741876 22 9
4.2261486 -6.4434943 -1.4978507 15 2
9.2732153 -14.149389 1.4800787 11 10
6.0100894 -9.173893 -1.7370484 2 3
8.2152882 -12.549494 1.8416896 4 11
8.1891727 -12.519135 -1.8368149 7 4
8.713398 -13.325616 2.521724 24 12
8.2780828 -12.669533 -1.32407 10 5
8.3702583 -12.825267 -0.80262429 11 6
8.4808388 -13.004617 3.5843701 28 14
8.468668 -12.995869 -0.27075663 25 7
9.3727674 -14.388772 4.6012855 25 15
2.6548591 -4.0990796 -1.3085891 2 0
8.4245396 -13.017372 0.27065191 26 8
3.2549055 -5.0313177 -1.383449 5 1
10.283261 -15.907675 0.9927085 16 9
4.182127 -6.4744902 -1.4982322 10 2
9.1669626 -14.197118 1.47851 18 10
5.9983754 -9.2969618 -1.7523791 1 3
8.0736599 -12.527866 -1.8299903 7 4
8.6501017 -13.432625 2.5304842 24 12
8.1603231 -12.681776 -1.3193636 10 5
8.6176405 -13.397621 3.0964484 7 13
8.2621603 -12.854827 -0.80084491 9 6
8.3919487 -13.066786 3.5852699 36 14
8.3843327 -13.059941 -0.27089626 12 7
8.9998379 -14.029458 4.4661818 19 15
2.6334498 -4.1289153 -1.3122126 2 0
8.3442039 -13.092731 0.27100098 24 8
3.2301714 -5.070354 -1.3879479 6 1
10.1741 -15.982446 0.99291784 8 9
4.1283951 -6.4902768 -1.4951794 8 2
9.0173798 -14.181746 1.4703174 15 10
6.0095963 -9.4586582 -1.7749057 2 3
8.8585176 -13.953403 2.0293684 22 11
7.9455838 -12.520234 -1.8207282 9 4
8.4333992 -13.299171 2.4941914 28 12
8.0577259 -12.716559 -1.3170975 8 5
8.7581644 -13.827315 3.1815495 15 13
8.1647396 -12.90038 -0.80011219 15 6
8.2901058 -13.108584 3.580771 32 14
8.2608995 -13.067449 -0.26984912 11 7
8.6571589 -13.704859 4.3435016 11 15
2.5953133 -4.1324754 -1.3075538 2 0
8.5332108 -13.59783 0.28021586 13 8
3.2009091 -5.1026859 -1.3906474 5 1
8.1571684 -13.013728 0.80492711 13 9
4.0892372 -6.5289235 -1.4974691 8 2
8.9942789 -14.36594 1.4828677 10 10
5.9580846 -9.5238256 -1.7792858 4 3
8.6335669 -13.811231 1.999876 4 11
7.8453584 -12.555198 -1.8178033 6 4
8.4993734 -13.612411 2.5417476 12 12
7.9393349 -12.720406 -1.3118682 8 5
8.7372599 -14.009727 3.2094076 34 13
8.0301132 -12.885874 -0.79571593 16 6
8.673625 -13.923925 3.7872758 29 14
8.0067348 -12.863358 -0.26447377 31 7
8.6592188 -13.922445 4.3931947 25 15
2.559288 -4.1389918 -1.3039304 2 0
8.1776114 -13.230349 0.27148965 11 8
3.1774957 -5.1448045 -1.3960463 5 1
8.14604 -13.19471 0.81267279 4 9
4.0570703 -6.5766568 -1.5020485 8 2
8.920949 -14.472479 1.4873998 15 10
5.9034824 -9.5809793 -1.7824146 6 3
7.9669461 -12.939961 1.8658198 8 11
7.7200718 -12.548795 -1.8090287 8 4
7.8106976 -12.711017 -1.3052443 8 5
8.9381723 -14.557241 3.3204582 5 13
7.9223671 -12.907892 -0.79372716 13 6
8.6862373 -14.163548 3.8358653 30 14
7.884347 -12.866087 -0.26339173 37 7
8.5995693 -14.038719 4.4113121 26 15
2.5541661 -4.1942663 -1.3158361 2 0
8.0694561 -13.261493 0.27096608 9 8
3.1383526 -5.1596541 -1.3942467 5 1
8.1553831 -13.418522 0.82293069 1 9
4.0161543 -6.6132107 -1.5039566 7 2
9.1448078 -15.064245 1.541785 12 10
5.8374748 -9.6236486 -1.7827275 5 3
7.6200752 -12.577285 -1.8056164 8 4
9.2448845 -15.271132 2.8273969 9 12
7.6928959 -12.717502 -1.3003637 11 5
8.2872725 -13.7055 3.1132395 9 13
7.8083067 -12.923568 -0.79131973 11 6
8.5337677 -14.135427 3.8120205 16 14
7.8596148 -13.023892 -0.2655209 12 7
8.4943686 -14.086834 4.4076886 13 15
2.5278025 -4.2169657 -1.317389 3 0
7.9725676 -13.310641 0.27082643 8 8
3.1022546 -5.181438 -1.3942467 6 1
8.451149 -14.126433 0.86270601 42 9
3.9839902 -6.6646786 -1.5092993 7 2
9.1211748 -15.264547 1.55573 15 10
5.7772365 -9.6760378 -1.7849175 2 3
8.1526527 -13.665357 1.9538096 29 11
7.509716 -12.592667 -1.800254 7 4
9.1946726 -15.430329 2.8449175 27 12
7.5957685 -12.757202 -1.2989691 10 5
8.2174959 -13.806885 3.1231616 26 13
7.6341791 -12.837 -0.7827366 11 6
8.3661861 -14.079063 3.7809772 15 14
7.7256093 -13.006236 -0.26405492 12 7
8.5230131 -14.360095 4.4744635 28 15
2.5032094 -4.2428298 -1.3199772 3 0
7.8022685 -13.235055 0.26817369 13 8
3.0699639 -5.2096848 -1.3960463 5 1
8.3786697 -14.229836 0.86542749 29 9
3.9313922 -6.6821761 -1.5070095 7 2
9.9617834 -16.93878 1.7192342 11 10
5.7085438 -9.7144327 -1.7846047 2 3
7.9897103 -13.607245 1.937479 28 11
7.3914747 -12.593428 -1.7929419 8 4
9.6903105 -16.523338 3.0338905 5 12
7.4684539 -12.739856 -1.2919967 10 5
7.8232198 -13.355708 3.0086763 5 13
7.4949393 -12.805521 -0.77760774 9 6
8.256381 -14.112136 3.7746787 25 14
7.5337 -12.887218 -0.26056442 11 7
8.396245 -14.37421 4.4604878 35 15
2.4696481 -4.2535191 -1.3179066 2 0
7.6407328 -13.165061 0.26569545 11 8
3.0393844 -5.2411051 -1.3987457 5 1
8.5200081 -14.697785 0.89033937 6 9
3.896641 -6.7274694 -1.5112073 9 2
9.7484751 -16.844093 1.7026746 12 10
5.666029 -9.7941008 -1.7921134 2 3
7.9674387 -13.783337 1.9547845 21 11
6.7255411 -11.644283 -1.651086 4 4
8.6274576 -14.943197 2.7329104 6 12
6.7162662 -11.642298 -1.1759052 14 5
7.7856741 -13.50695 3.0304286 9 13
7.457459 -12.942768 -0.78284132 15 6
8.2208614 -14.279207 3.8039227 16 14
7.564199 -13.149236 -0.26478791 15 7
8.2982101 -14.431026 4.4604878 35 15
2.4406381 -4.2702308 -1.3179066 2 0
7.4653358 -13.072218 0.26276344 16 8
3.0055714 -5.2650561 -1.3996454 5 1
8.308341 -14.566071 0.87882549 19 9
3.8495793 -6.7545094 -1.5112073 8 2
9.415638 -16.52747 1.6641518 13 10
5.5984921 -9.8351345 -1.7924262 2 3
8.1428728 -14.316589 2.0223 18 11
6.6499696 -11.701307 -1.6525484 2 4
8.4936552 -14.951535 2.7235246 11 12
6.6849847 -11.77727 -1.1847951 7 5
7.9614129 -14.037427 3.1368999 26 13
7.3560863 -12.975403 -0.78168994 15 6
7.8088126 -13.785183 3.6577041 7 14
7.4515324 -13.165176 -0.26405492 12 7
8.2257986 -14.539049 4.4760165 17 15
2.4119117 -4.2909546 -1.318942 2 0
7.4169941 -13.200725 0.26429924 13 8
2.9678187 -5.2864285 -1.3996454 6 1
7.3792071 -13.154972 0.7904824 11 9
3.8205743 -6.8137555 -1.518458 10 2
9.2942076 -16.589209 1.6636288 12 10
5.5289364 -9.876668 -1.7927393 2 3
7.649169 -13.669766 1.9233421 13 11
6.5855565 -11.778636 -1.6569357 1 4
8.4047508 -15.044697 2.7294688 7 12
6.5841446 -11.790602 -1.1814833 0 5
7.2445693 -12.994564 -0.77970117 13 6
7.334147 -13.171452 -0.26314738 12 7
8.0905542 -14.54183 4.4589348 37 15
2.3959191 -4.3330474 -1.3267065 3 0
7.1473088 -12.936651 0.25798148 23 8
2.9364934 -5.3172545 -1.4023448 6 1
7.2273641 -13.097747 0.78399271 13 9
3.7830944 -6.8615513 -1.5230374 12 2
9.2118254 -16.714764 1.6697297 3 10
5.4789071 -9.9496346 -1.7989967 2 3
7.788475 -14.155477 1.9837892 18 11
6.5376039 -11.886941 -1.6657103 1 4
8.3090296 -15.120317 2.7325976 14 12
6.5630627 -11.948042 -1.1926392 0 5
9.3761377 -17.083368 3.7879405 3 13
7.1229424 -12.988785 -0.77635163 13 6
7.6249471 -13.909956 3.6622031 7 14
7.2324095 -13.204793 -0.26279834 16 7
7.9526691 -14.531866 4.4387469 16 15
2.3693025 -4.3564568 -1.3287771 2 0
7.0485821 -12.965675 0.25759751 17 8
2.9011607 -5.3410501 -1.4032447 6 1
7.1151705 -13.104514 0.78148061 19 9
3.7306843 -6.8767886 -1.5207478 10 2
7.3991694 -13.65029 1.3584094 3 10
5.4157605 -9.9953804 -1.8005608 2 3
7.6059403 -14.049306 1.9616091 30 11
6.4450135 -11.914832 -1.663273 1 4
9.2422256 -17.09314 3.0776923 9 12
6.4463434 -11.932217 -1.1865382 1 5
7.9277396 -14.686544 3.2441347 13 13
7.00876 -12.98951 -0.77352554 15 6
7.5526223 -14.009164 3.6743507 2 14
7.0897856 -13.161655 -0.26094839 11 7
9.2795773 -17.234043 5.2447095 8 15
2.3268349 -4.3486366 -1.3215301 2 0
6.9861765 -13.067473 0.25864467 19 8
2.8684127 -5.3675485 -1.4050443 6 1
7.6171136 -14.265584 0.84752852 17 9
3.6835096 -6.9043984 -1.5211295 9 2
9.0301809 -16.933361 1.6789683 10 10
5.3718576 -10.08176 -1.8093213 2 3
7.4498367 -13.993423 1.9464973 25 11
6.3283262 -11.891834 -1.6540109 2 4
8.8861866 -16.712484 2.9979105 12 12
6.335989 -11.921279 -1.1811346 0 5
7.8257461 -14.736698 3.2433715 21 13
6.9169688 -13.036359 -0.77342087 11 6
8.0213709 -15.124192 3.9523902 10 14
6.7687588 -12.773176 -0.25232691 22 7
9.2232161 -17.419624 5.2814612 7 15
2.3090117 -4.38871 -1.3287771 2 0
6.8831072 -13.088175 0.2581211 27 8
2.8308702 -5.3874431 -1.4050443 5 1
7.507762 -14.294117 0.84616786 13 9
3.6409888 -6.9380031 -1.5230374 11 2
7.1325417 -13.60279 1.3437673 3 10
5.3040271 -10.119841 -1.8096341 2 3
7.356257 -14.047325 1.9469848 24 11
6.2469935 -11.939241 -1.6544983 2 4
7.4227905 -14.192456 2.5367417 7 12
6.2479944 -11.956393 -1.180263 0 5
7.7917333 -14.923237 3.2723746 13 13
6.7920351 -13.014084 -0.76933861 11 6
6.7000942 -12.84885 3.3454721 7 14
6.8106246 -13.071947 -0.25728339 11 7
7.0431533 -13.524005 4.0857177 21 15
2.278317 -4.4047227 -1.3287771 2 0
6.814981 -13.186836 0.25909844 17 8
2.7931902 -5.4070745 -1.4050443 5 1
6.856575 -13.284369 0.78346932 19 9
3.6002476 -6.981329 -1.5268538 9 2
8.7627497 -16.99935 1.673216 8 10
5.2179074 -10.131194 -1.8049411 2 3
6.1671219 -11.989623 -1.6554734 1 4
8.6402397 -16.812086 2.9938431 6 12
6.1570892 -11.985542 -1.1788685 1 5
7.6640534 -14.931856 3.2624526 11 13
6.6704812 -13.00726 -0.76609379 15 6
6.6555657 -12.983756 3.368417 8 14
6.4603143 -12.613702 -0.24737041 11 7
7.8288827 -15.298977 4.6049089 3 15
2.2597682 -4.4446297 -1.3360239 3 0
6.5873556 -12.961949 0.25379291 20 8
2.7589028 -5.433393 -1.4068439 6 1
6.8039579 -13.405535 0.78786558 9 9
3.5677385 -7.035439 -1.5333412 7 2
8.1602926 -16.105709 1.5796106 11 10
5.1532893 -10.175287 -1.8065054 2 3
7.4390435 -14.701293 2.0230312 33 11
6.3806252 -12.620543 -1.7363946 3 4
7.2951865 -14.435754 2.5617712 26 12
6.5025144 -12.878374 -1.2621894 9 5
7.5383997 -14.942929 3.2532935 10 13
6.5871859 -13.063064 -0.76672184 9 6
6.6112328 -13.122141 3.392262 11 14
6.3523164 -12.619201 -0.24660251 29 7
7.7401958 -15.382974 4.6142263 18 15
2.2251437 -4.4512682 -1.3334358 3 0
6.4252234 -12.864504 0.25100052 13 8
2.7235966 -5.4555335 -1.4077437 6 1
6.6326466 -13.297216 0.77875912 13 9
3.5202861 -7.0636897 -1.5341043 7 2
6.7925334 -13.635632 1.3327856 6 10
5.0803671 -10.207479 -1.8058797 2 3
7.3176675 -14.715541 2.0179126 19 11
6.2565794 -12.587243 -1.7259138 3 4
7.0747356 -14.245717 2.5192208 32 12
6.0718665 -12.231693 -1.1947309 9 5
7.4138312 -14.948166 3.2433715 17 13
6.4701109 -13.056834 -0.76368636 11 6
8.7801571 -17.726336 4.566956 5 14
6.4631758 -13.060021 -0.25435138 23 7
7.230176 -14.622723 4.3709359 7 15
2.1940138 -4.4666944 -1.3334358 2 0
6.3436775 -12.920506 0.25124484 12 8
2.6905928 -5.4849124 -1.4104432 5 1
6.5068092 -13.270323 0.77457225 4 9
3.4712608 -7.0857239 -1.5337228 8 2
7.418921 -15.15729 1.4764183 10 10
5.0012207 -10.222305 -1.8024381 2 3
7.3001518 -14.934434 2.0410681 17 11
5.9237618 -12.129385 -1.6574231 2 4
7.25144 -14.854493 2.6180873 25 12
5.9260602 -12.150225 -1.1827034 7 5
7.2740335 -14.927199 3.227725 5 13
6.3705921 -13.079024 -0.76243031 15 6
6.4450302 -13.243587 3.4003603 1 14
6.376214 -13.113816 -0.2545259 14 7
7.7401628 -15.926086 4.7446709 6 15
2.1627202 -4.4797845 -1.332918 3 0
6.3011041 -13.06354 0.25316462 16 8
2.6582737 -5.5136313 -1.4131424 5 1
6.4556127 -13.401796 0.77959651 9 9
3.4200068 -7.1062474 -1.5329596 9 2
7.7111549 -16.029753 1.556253 12 10
4.9408579 -10.280116 -1.8065054 3 3
7.1854005 -14.963562 2.0381432 12 11
5.8462162 -12.180163 -1.6588856 1 4
7.0997286 -14.80501 2.6005669 11 12
6.1704755 -12.873008 -1.2489418 7 5
7.2002435 -15.034798 3.2403185 8 13
6.2679214 -13.09976 -0.76106954 15 6
6.337079 -13.250231 3.3909121 1 14
6.1704149 -12.913334 -0.24981375 20 7
6.9612918 -14.58155 4.329525 9 15
2.1371868 -4.5069928 -1.3365415 2 0
6.2154627 -13.113355 0.25330424 19 8
2.6197178 -5.5320549 -1.4131424 6 1
6.3779111 -13.474311 0.78127122 8 9
3.3765936 -7.1400108 -1.5352492 10 2
7.4058475 -15.67427 1.5166842 12 10
4.8775172 -10.327799 -1.8090084 3 3
7.0918531 -15.030078 2.0405805 9 11
5.7593474 -12.217091 -1.6583982 3 4
6.7150331 -14.250795 2.4951301 15 12
5.7579737 -12.230776 -1.1827034 6 5
7.6240425 -16.209255 3.4818828 20 13
6.1080804 -12.9921 -0.75238174 15 6
6.2419353 -13.288858 3.3895626 18 14
6.1217394 -13.0448 -0.25152409 21 7
7.4853878 -15.957832 4.72293 13 15
2.1040118 -4.5161829 -1.3349887 2 0
6.0275669 -12.949753 0.24932507 12 8
2.5820014 -5.5497584 -1.4131424 6 1
6.1725626 -13.279434 0.7674545 8 9
3.3307991 -7.1723127 -1.5371574 11 2
7.8660593 -16.945976 1.6345189 8 10
4.7978196 -10.345469 -1.8061925 3 3
6.9583764 -15.017982 2.0322933 12 11
5.9179807 -12.778385 -1.7290823 7 4
5.9542575 -12.868493 2.2457736 10 12
5.9815259 -12.933352 -1.2466757 14 5
7.5843544 -16.414043 3.5147018 8 13
6.0548997 -13.116026 -0.757092 13 6
6.5930519 -14.288311 3.6329596 5 14
6.0294566 -13.078902 -0.25138447 25 7
7.410975 -16.090418 4.7467413 15 15
2.0780571 -4.5430589 -1.3386122 2 0
5.9559097 -13.026854 0.25002316 16 8
2.5431945 -5.5676489 -1.4131424 6 1
6.2047982 -13.590037 0.78294599 13 9
3.2770128 -7.1841016 -1.5348676 15 2
7.446816 -16.340546 1.5710694 3 10
4.7379332 -10.401257 -1.8102598 4 3
5.8023362 -12.761562 -1.7212827 7 4
5.903306 -12.98965 2.2598526 17 12
5.854847 -12.894972 -1.239006 10 5
7.3795538 -16.268135 3.472342 7 13
5.8764095 -12.960484 -0.74578744 13 6
6.4875112 -14.321565 3.6298103 11 14
5.9553161 -13.158936 -0.25211748 13 7
6.7789645 -14.985835 4.4071708 21 15
2.0447106 -4.5518117 -1.3370593 2 0
5.8312521 -12.993316 0.24859208 11 8
2.5116186 -5.5990558 -1.4167417 6 1
5.8924975 -13.148211 0.75510323 11 9
3.2331975 -7.221138 -1.5379206 14 2
6.754313 -15.09239 1.446611 2 10
4.670043 -10.4449 -1.812137 3 3
7.7157249 -17.272976 2.32283 7 11
5.7098665 -12.794508 -1.7203078 7 4
5.7827024 -12.963796 2.2482765 18 12
5.7760363 -12.96101 -1.2414464 10 5
6.684473 -15.013575 3.1945243 21 13
5.8458757 -13.136222 -0.75353318 15 6
6.6747537 -15.012892 3.7931249 18 14
5.910388 -13.306186 -0.25414193 10 7
5.5696549 -12.544989 3.6778188 26 15
2.0089705 -4.5592556 -1.3349887 2 0
5.6976829 -12.936714 0.24674211 19 8
2.4714882 -5.6168847 -1.4167417 5 1
5.9204321 -13.467956 0.77101338 13 9
3.1890235 -7.2579136 -1.5409735 7 2
5.9766436 -13.615172 1.3008866 1 10
4.5943871 -10.476242 -1.8118242 3 3
6.6027441 -15.062896 2.0193753 27 11
5.6028857 -12.794054 -1.7149456 7 4
5.7246284 -13.084474 2.2620428 9 12
5.6542773 -12.929825 -1.2346482 10 5
6.5684938 -15.034687 3.1891818 31 13
5.72616 -13.119142 -0.75018364 13 6
5.6959062 -13.068485 -0.24883641 25 7
6.9404926 -15.939213 4.6582255 6 15
1.9908917 -4.6050873 -1.3443062 2 0
5.5859346 -12.933097 0.24590442 15 8
2.4337597 -5.6375809 -1.4176416 6 1
5.7614064 -13.358576 0.76243031 9 9
3.1432211 -7.294971 -1.5440264 7 2
6.4362574 -14.944818 1.423602 12 10
4.5211387 -10.508061 -1.8118242 3 3
6.5010595 -15.124346 2.0213251 15 11
5.5071626 -12.818266 -1.7129956 6 4
5.6284666 -13.113228 2.2601655 15 12
5.5591607 -12.957997 -1.2336023 9 5
6.3852601 -14.897923 3.1506383 7 13
5.6249981 -13.136765 -0.74892759 15 6
6.4368873 -15.040128 3.7769282 6 14
5.3270183 -12.458879 -0.23651502 6 7
5.3720231 -12.57628 3.6643603 25 15
1.9511514 -4.6010885 -1.3391298 2 0
5.5617633 -13.121793 0.2487666 27 8
2.3958638 -5.6580224 -1.4185413 6 1
5.7598667 -13.609002 0.77446753 17 9
3.1034317 -7.339705 -1.5489874 9 2
6.2185731 -14.721422 1.3981524 8 10
4.4472017 -10.533132 -1.8108855 2 3
5.4036651 -12.823474 -1.7086083 6 4
5.5206766 -13.107543 2.2526565 5 12
5.4608345 -12.978128 -1.2318592 10 5
5.530808 -13.1637 -0.74829954 13 6
6.2713947 -14.940949 3.740936 6 14
5.6018152 -13.358813 -0.25285047 12 7
7.579586 -18.084112 5.2540269 13 15
1.9205298 -4.6160469 -1.3396474 2 0
6.0571647 -14.572905 0.27546877 22 8
2.3587904 -5.6777987 -1.4194412 6 1
5.5491133 -13.370332 0.7586621 14 9
3.0536213 -7.3648195 -1.5497508 9 2
6.1670413 -14.881209 1.4093083 2 10
4.2987533 -10.383234 -1.7799115 1 3
7.3852019 -17.855892 2.3725526 14 11
5.3056369 -12.834274 -1.705196 7 4
6.931067 -16.782761 2.8758914 6 12
5.355659 -12.980941 -1.2285473 9 5
7.0145206 -17.010071 3.576524 15 13
5.4311657 -13.183526 -0.74725288 13 6
6.1602592 -14.968149 3.736887 7 14
5.4963026 -13.361497 -0.25218728 13 7
5.485961 -13.3496 3.8672743 7 15
1.8867981 -4.6257644 -1.3386122 2 0
5.4398894 -13.35002 0.25162879 15 8
2.3235056 -5.7049565 -1.4221406 6 1
5.4496136 -13.393947 0.75782472 13 9
3.0013914 -7.3841391 -1.5493692 11 2
6.0255075 -14.831607 1.4005928 1 10
4.2172461 -10.391026 -1.776157 1 3
6.5816164 -16.232944 2.1507504 21 11
5.2121811 -12.861803 -1.7039772 3 4
5.3497291 -13.214475 2.2579753 12 12
5.2574358 -12.999543 -1.2268041 9 5
5.3270288 -13.19149 -0.74557811 13 6
7.3052301 -18.108368 4.508019 7 14
5.3856878 -13.356886 -0.25138447 16 7
6.6074324 -16.403406 4.7384591 1 15
1.8573269 -4.6459994 -1.3406827 3 0
5.4385223 -13.617949 0.25595698 27 8
2.2865105 -5.7282777 -1.4239402 6 1
5.4329104 -13.624607 0.76871061 4 9
2.9533997 -7.414032 -1.5512772 12 2
5.8635926 -14.727077 1.3868221 2 10
4.1256194 -10.372493 -1.7680227 1 3
6.4791241 -16.306171 2.1544065 16 11
5.1156678 -12.881272 -1.7017837 7 4
5.2908535 -13.335964 2.2723672 20 12
5.1584802 -13.015556 -1.2248868 9 5
5.9520712 -15.025554 3.1414795 8 13
5.2208452 -13.193071 -0.74358934 15 6
6.4450073 -16.303164 4.0473194 5 14
5.2820215 -13.368122 -0.2508958 13 7
6.7601552 -17.126577 4.9336085 4 15
1.8290738 -4.6696453 -1.3437886 2 0
5.2617083 -13.447018 0.25204766 19 8
2.2436247 -5.7368417 -1.4221406 6 1
5.3870845 -13.788705 0.7758283 9 9
2.9037106 -7.4399567 -1.5524222 11 2
6.3905716 -16.382517 1.5384731 7 10
4.0531054 -10.401042 -1.7680227 1 3
5.9654655 -15.324327 2.0191314 17 11
5.0097795 -12.875974 -1.6964215 9 4
5.1747236 -13.313657 2.2623556 15 12
5.0516233 -13.010389 -1.2210519 9 5
6.310133 -16.260073 3.3902946 0 13
5.1112862 -13.184505 -0.74107724 16 6
6.1846504 -15.969779 3.9537396 5 14
5.0528622 -13.054076 -0.2443337 9 7
5.4100194 -13.991303 4.0194597 5 15
1.7971209 -4.6841044 -1.3443062 2 0
5.0245738 -13.109973 0.2450667 12 8
2.2049134 -5.7560043 -1.4230404 5 1
5.2143149 -13.626386 0.76462841 19 9
2.8495958 -7.454545 -1.5512772 9 2
6.0292993 -15.780904 1.4779871 8 10
3.9803946 -10.429084 -1.7680227 1 3
6.1744485 -16.194717 2.1280825 17 11
4.9070444 -12.877244 -1.6920341 7 4
5.1125736 -13.430689 2.2761219 12 12
4.9551558 -13.02399 -1.2191346 14 5
6.6616869 -17.527794 3.6448336 7 13
5.0169897 -13.214265 -0.74076319 13 6
6.0502253 -15.944093 3.9370933 2 14
5.083518 -13.410649 -0.25033733 16 7
5.3204193 -14.05041 4.0256715 18 15
1.7650564 -4.6983442 -1.3448237 2 0
5.1109514 -13.611891 0.25379291 27 8
2.1701517 -5.7858539 -1.4266397 6 1
5.1684146 -13.786863 0.77164137 13 9
2.7898376 -7.4498677 -1.5463161 7 2
5.972034 -15.964434 1.4912347 12 10
3.9093137 -10.455936 -1.7680227 1 3
6.1057458 -16.347948 2.1427069 5 11
4.8121672 -12.89817 -1.690328 5 4
4.9464974 -13.265282 2.242332 12 12
4.8655014 -13.062 -1.2194831 11 5
6.6069393 -17.756035 3.6826138 4 13
4.9227509 -13.236876 -0.74013513 13 6
5.7338204 -15.434262 3.8012228 4 14
4.9222846 -13.26396 -0.24695155 20 7
7.3240628 -19.746538 5.6432905 9 15
1.7296995 -4.7011852 -1.3422357 2 0
4.9826875 -13.557146 0.25211748 19 8
2.1334052 -5.8078094 -1.4284393 6 1
5.0679107 -13.811359 0.77101338 3 9
2.7418156 -7.4802217 -1.5486058 7 2
5.8495221 -15.967299 1.4877486 10 10
3.8362234 -10.482973 -1.7680227 1 3
5.835393 -15.963223 2.0868907 6 11
4.7133622 -12.900792 -1.6864281 5 4
4.7648716 -13.062996 -1.2165198 9 5
6.4193869 -17.617977 3.6448336 2 13
4.8227062 -13.250277 -0.73898381 11 6
4.9244676 -13.537214 3.3256762 15 14
4.8680835 -13.396769 -0.2488015 13 7
5.2349524 -14.422058 4.1110821 5 15
1.7053447 -4.7367754 -1.3489649 2 0
4.907217 -13.637788 0.25299007 9 8
2.0914903 -5.818893 -1.4275393 6 1
5.0041695 -13.93012 0.77572364 30 9
2.6948133 -7.5097995 -1.5508956 7 2
5.5543766 -15.495724 1.4401615 10 10
3.7407951 -10.441895 -1.7567593 1 3
6.0309229 -16.852978 2.1977918 18 11
4.6211782 -12.927775 -1.685697 4 4
4.9113321 -13.747052 2.3121016 8 12
4.6574883 -13.050906 -1.2123364 10 5
6.2982111 -17.667912 3.6459787 11 13
4.7176571 -13.241405 -0.73668098 11 6
4.8265748 -13.562084 3.323427 22 14
4.7710886 -13.421007 -0.24862698 12 7
5.2039294 -14.646675 4.1649165 12 15
1.6627908 -4.7191205 -1.3406827 2 0
4.7620959 -13.530244 0.25037223 16 8
2.0492473 -5.8256412 -1.4257398 7 1
4.9339423 -14.041973 0.78001517 22 9
2.6462224 -7.5395446 -1.5531853 7 2
5.4527292 -15.544454 1.4412074 22 10
3.6586635 -10.441656 -1.7523791 1 3
5.6639261 -16.182686 2.1051712 12 11
4.5265198 -12.940192 -1.6832595 6 4
4.8230605 -13.803381 2.3158562 18 12
4.5590401 -13.062412 -1.2104189 11 5
6.1357746 -17.58988 3.6211731 5 13
4.611299 -13.234409 -0.73448288 13 6
4.7490711 -13.645141 3.3355744 27 14
4.6723995 -13.432397 -0.24824303 16 7
6.4210033 -18.480137 5.2421212 5 15
1.6373565 -4.752532 -1.3468944 2 0
4.6206717 -13.427016 0.24785908 16 8
2.0085266 -5.8398061 -1.4257398 7 1
4.8416333 -14.093077 0.78095722 19 9
2.5947962 -7.5615482 -1.5539485 7 2
5.3873825 -15.708409 1.4528861 15 10
3.7393222 -10.915446 -1.8274676 2 3
5.3618646 -15.669649 2.0335121 12 11
4.4219418 -12.930156 -1.6778972 7 4
4.7744689 -13.976915 2.3393211 16 12
4.4638772 -13.082606 -1.209373 10 5
5.1611824 -15.134891 3.1082788 19 13
4.5149312 -13.254937 -0.73385483 13 6
5.3020978 -15.583727 3.8003232 10 14
4.5740027 -13.451436 -0.2479987 12 7
5.3182654 -15.658126 4.4309821 6 15
1.6090695 -4.7784934 -1.3510355 3 0
4.6339207 -13.777369 0.25372308 16 8
1.9701924 -5.861074 -1.4275393 6 1
4.7691932 -14.204162 0.78524876 13 9
2.5419436 -7.5794792 -1.5539485 7 2
5.2965817 -15.802313 1.4581156 3 10
3.6843493 -11.004974 -1.8381052 4 3
4.3189797 -12.923058 -1.6730225 7 4
4.3667645 -13.096441 -1.2078043 14 5
4.4191303 -13.276659 -0.7333315 11 6
4.3872948 -13.204081 -0.24286768 11 7
5.3086181 -15.995567 4.5158749 7 15
1.5660107 -4.7602491 -1.3427533 2 0
4.5051627 -13.710596 0.25190803 15 8
1.9328746 -5.8857946 -1.4302388 6 1
4.6804953 -14.269373 0.78702819 9 9
2.4895782 -7.5989065 -1.5543302 7 2
5.4843435 -16.749664 1.5419594 8 10
3.6092725 -11.03606 -1.8390437 6 3
5.067977 -15.514659 2.0040195 32 11
4.2200298 -12.926476 -1.6696101 7 4
5.1992111 -15.944685 2.6562576 12 12
4.2635045 -13.090612 -1.2044923 11 5
5.4178643 -16.644815 3.4025061 13 13
4.3164558 -13.276795 -0.73165673 15 6
5.7496672 -17.706173 4.297915 8 14
4.369081 -13.462632 -0.24705628 15 7
5.8735251 -18.119884 5.1039119 4 15
1.5368767 -4.7839408 -1.3463767 2 0
4.3848982 -13.66555 0.25051185 13 8
1.8953073 -5.9102793 -1.4329382 6 1
4.297473 -13.417236 0.73835576 11 9
2.4412539 -7.6310611 -1.5573832 6 2
5.4473662 -17.038048 1.5649685 10 10
3.521924 -11.028998 -1.833725 5 3
5.0349412 -15.786065 2.034487 14 11
4.1290817 -12.953731 -1.6693665 6 4
5.1105413 -16.05212 2.6681466 8 12
4.1718841 -13.111735 -1.2037951 11 5
4.2639413 -13.417262 2.7365828 9 13
4.2236609 -13.306606 -0.73165673 15 6
11.460726 -36.128784 8.750596 3 14
4.017087 -12.678815 -0.23215193 7 7
5.813911 -18.372257 5.1634402 9 15
1.5051756 -4.8000832 -1.3479296 2 0
4.0992255 -13.080644 0.23927251 9 8
1.8528367 -5.9196467 -1.4320384 6 1
4.1994872 -13.42521 0.73720431 4 9
2.3898394 -7.6493754 -1.5577648 7 2
5.0155215 -16.073336 1.4731063 2 10
3.4526508 -11.071574 -1.8368537 7 3
4.8199363 -15.475029 1.9901265 9 11
4.0361886 -12.974659 -1.6683915 6 4
4.8000102 -15.439526 2.5608325 0 12
4.0743389 -13.121514 -1.202052 11 5
4.1591182 -13.411075 2.729332 27 13
4.11939 -13.291169 -0.7292493 15 6
5.4992332 -17.765146 4.2934155 2 14
4.1694636 -13.486024 -0.24639308 19 7
4.1643143 -13.477703 3.7797935 21 15
1.4702055 -4.8028283 -1.3458591 3 0
4.1884637 -13.699849 0.25005808 16 8
1.8079438 -5.9172125 -1.4284393 6 1
4.6034918 -15.085591 0.82659417 9 9
2.3438208 -7.6902857 -1.5627258 7 2
4.8258862 -15.844084 1.4490514 12 10
3.1913028 -10.490651 -1.7367356 1 3
4.6569614 -15.327862 1.9669714 44 11
3.4604349 -11.396785 -1.4624323 4 4
4.7981601 -15.822379 2.6187134 13 12
3.9855068 -13.150849 -1.2022263 10 5
4.0791121 -13.476654 2.7369645 40 13
4.0224538 -13.306222 -0.72851658 11 6
5.6458821 -18.688265 4.5071192 7 14
4.0746837 -13.504519 -0.24621855 11 7
4.0918608 -13.578584 3.7999816 10 15
1.4410607 -4.8277841 -1.3500001 2 0
3.9504948 -13.243229 0.24122716 12 8
1.7710418 -5.9446306 -1.4320384 5 1
4.4556785 -14.965353 0.8183251 14 9
2.2964563 -7.7229977 -1.5661603 7 2
4.7168584 -15.883117 1.4495742 18 10
3.1198225 -10.51213 -1.7367356 1 3
4.6636534 -15.734146 2.0149879 20 11
3.8400106 -12.971972 -1.6610793 5 4
4.6897883 -15.852777 2.6184003 21 12
3.8856978 -13.151603 -1.1997859 11 5
4.6761227 -15.847243 3.2116971 19 13
3.9346128 -13.342873 -0.72903991 13 6
4.301342 -14.60529 3.515085 2 14
3.9673266 -13.488511 -0.24541573 11 7
4.634027 -15.765383 4.4030299 18 15
1.4038461 -4.8226423 -1.3458591 2 0
3.8484535 -13.237843 0.24063379 22 8
1.7327121 -5.9640331 -1.433838 6 1
3.9080796 -13.469248 0.73500621 1 9
2.2474027 -7.7558136 -1.569595 8 2
4.6075282 -15.911029 1.4492257 3 10
3.0463591 -10.533654 -1.7367356 1 3
4.5063257 -15.602307 1.9940264 26 11
3.7521746 -12.999717 -1.6613231 6 4
4.6982794 -16.298918 2.6866059 6 12
3.783402 -13.133712 -1.1957767 12 5
3.9547908 -13.746702 2.7804687 39 13
3.796694 -13.214527 -0.7205615 11 6
4.5729089 -15.926642 3.8255177 6 14
3.8649504 -13.478683 -0.24475256 18 7
3.9319103 -13.730285 3.8268983 30 15
1.3701435 -4.8323255 -1.3458591 3 0
3.8116829 -13.452278 0.24405445 20 8
1.694217 -5.9872351 -1.4365374 6 1
4.2396789 -14.992692 0.81654567 16 9
2.197226 -7.7803779 -1.5715029 7 2
4.1788774 -14.817185 1.3469048 12 10
2.9552968 -10.485699 -1.7254723 1 3
4.4495001 -15.808417 2.0164504 18 11
3.6591823 -13.01795 -1.6603481 7 4
4.6321001 -16.490267 2.7128868 9 12
3.6921582 -13.161725 -1.1959511 11 5
3.8089414 -13.596272 2.7445967 45 13
3.741118 -13.363157 -0.72726053 11 6
4.8147407 -17.221247 4.1283016 0 14
3.7761345 -13.524595 -0.2451016 11 7
3.8212287 -13.695325 3.8098164 30 15
1.3433914 -4.8638854 -1.3520708 3 0
3.7065098 -13.438079 0.24332145 15 8
1.6461749 -5.9723272 -1.4302388 5 1
3.8497405 -13.985929 0.76023221 9 9
2.1423347 -7.7936339 -1.5711213 6 2
4.0979791 -14.918292 1.3535286 11 10
4.4066877 -16.086071 2.0478926 12 11
3.5652459 -13.02341 -1.6579107 7 4
4.4689412 -16.346901 2.684103 3 12
3.6007097 -13.189102 -1.1961254 7 5
3.7349083 -13.690069 2.7583349 12 13
3.6377609 -13.352335 -0.72527176 15 6
3.6026521 -13.241692 3.1682107 25 14
3.6362479 -13.374387 -0.24192525 19 7
3.6212497 -13.33761 3.7031829 20 15
1.3048908 -4.8563547 -1.347412 2 0
3.6343732 -13.544744 0.24478745 15 8
1.6074682 -5.9949675 -1.4329382 4 1
4.1027722 -15.322456 0.83130443 14 9
2.0899022 -7.8159871 -1.5726478 6 2
4.02459 -15.062031 1.3639873 1 10
3.4660673 -13.017289 -1.6540109 6 4
4.4430318 -16.709877 2.7385421 3 12
3.5013864 -13.186958 -1.1936851 7 5
3.0320323 -11.427312 2.2981036 29 13
3.5398533 -13.36003 -0.72432971 13 6
5.0657983 -19.146215 4.5723548 6 14
3.5218332 -13.320184 -0.24049416 13 7
3.6256926 -13.7324 3.8056753 31 15
1.2743735 -4.8784294 -1.3510355 1 0
3.5442669 -13.587201 0.2451016 13 8
1.5700004 -6.023016 -1.4369874 4 1
3.5308306 -13.564767 0.73458755 19 9
2.0338037 -7.8246865 -1.5715029 5 2
4.1106768 -15.82641 1.4305744 11 10
4.2090354 -16.251724 2.0612984 5 11
3.373116 -13.033484 -1.653036 2 4
2.932452 -11.347116 1.8562515 12 12
3.4022686 -13.184072 -1.1912446 7 5
2.9580634 -11.471013 2.3026831 42 13
3.4450023 -13.378614 -0.72401571 9 6
2.961729 -11.518483 2.7457526 6 14
3.3849623 -13.174009 -0.23742254 18 7
2.9886556 -11.648487 3.2222972 26 15
1.2459877 -4.9096775 -1.3572472 1 0
3.4684815 -13.687213 0.24646288 15 8
1.5283926 -6.035718 -1.4374373 3 1
3.4766819 -13.749802 0.74327534 4 9
1.9791276 -7.8386946 -1.5715029 5 2
4.014709 -15.912677 1.4358037 1 10
2.6613669 -10.564127 -1.7254723 1 3
2.9332254 -11.660432 1.4763253 14 11
3.2834945 -13.06249 -1.6537671 2 4
2.8233469 -11.248522 1.8368537 21 12
3.3111141 -13.211369 -1.1915933 6 5
3.3167028 -13.243468 2.6537716 18 13
