# .PCD v0.7 - Point Cloud Data file format
VERSION 0.7
FIELDS x y z intensity ring
SIZE 4 4 4 4 2
TYPE F F F F U
COUNT 1 1 1 1 1
WIDTH 209
HEIGHT 1
VIEWPOINT 0 0 0 1 0 0 0
POINTS 209
DATA ascii
2.7735076 0.57840508 -0.24787092 7 5
2.7735713 0.55824333 -0.24752231 66 5
2.7833631 0.53951925 -0.24804525 64 5
2.7831447 0.51934361 -0.24769662 65 5
2.7729747 0.49743837 -0.24647643 67 5
2.8304286 0.48940861 -0.35268989 32 4
2.7763798 0.47806859 -0.24647643 67 5
2.7578259 0.47338715 -0.14664535 10 6
2.841692 0.4704389 -0.35366488 9 4
2.77965 0.45867279 -0.24647643 77 5
2.8253005 0.44748333 -0.35122749 7 4
2.7906566 0.44049862 -0.24717368 57 5
2.8205044 0.42656207 -0.35025251 7 4
2.7996478 0.42140752 -0.24769662 49 5
2.7395554 0.41089562 -0.14517996 8 6
2.8234134 0.40686086 -0.35025251 29 4
2.7768824 0.39817703 -0.24543057 70 5
2.7641065 0.39486688 -0.14633135 67 6
2.8630319 0.3937144 -0.45772728 54 3
2.8301861 0.38718465 -0.35073999 62 4
2.7914395 0.38039514 -0.24647643 64 5
2.7568996 0.37421823 -0.14580798 65 6
2.8677349 0.37347206 -0.45804018 6 3
2.8406949 0.36843812 -0.35171497 74 4
2.786123 0.35987702 -0.24577919 76 5
2.7634692 0.35498971 -0.14601734 88 6
2.74124 0.35067537 -0.048238453 1 7
2.8702722 0.35344374 -0.45804018 7 3
2.7965381 0.34089512 -0.24647643 71 5
2.746053 0.33328202 -0.14497061 83 6
2.7297244 0.32985014 -0.047994118 45 7
2.8628588 0.33225685 -0.45647582 6 3
2.8376741 0.32782832 -0.35073999 7 4
2.7948911 0.32090878 -0.24612781 64 5
2.7483127 0.31410283 -0.14497061 81 6
2.7279871 0.31033298 -0.047924306 34 7
2.8788548 0.3137604 -0.45866591 7 3
2.8359466 0.30758154 -0.35025251 7 4
2.7563963 0.29554713 -0.14528462 68 6
2.7181568 0.29000759 -0.047714882 8 7
2.9217329 0.29935604 -0.57090056 60 2
2.8613234 0.29165146 -0.45553723 7 3
2.8419747 0.28817594 -0.35073999 7 4
2.8030639 0.28225362 -0.24647643 8 5
2.7544179 0.27589855 -0.14507528 40 6
2.7221048 0.27122244 -0.047749784 8 7
2.9120252 0.27783242 -0.56861085 70 2
2.8731222 0.27260286 -0.45710155 8 3
2.8439641 0.26783186 -0.35073999 8 4
2.8009989 0.26230612 -0.24612781 66 5
2.7602539 0.25703272 -0.14528462 70 6
2.7239759 0.25173658 -0.047749784 8 7
2.9158494 0.2576687 -0.56899244 63 2
2.8671281 0.25134623 -0.45585006 71 3
2.8358767 0.24711046 -0.34952128 63 4
2.8047466 0.24291834 -0.24630213 76 5
2.7660027 0.23761612 -0.14549398 80 6
2.7216823 0.2323733 -0.047679976 42 7
2.7164588 0.22285663 0.047575258 39 8
2.9234893 0.23727323 -0.57013732 14 2
2.8786576 0.23211759 -0.45741442 7 3
2.8454871 0.22744374 -0.35049626 49 4
2.8004546 0.22236869 -0.24577919 68 5
2.7616208 0.21783015 -0.14517996 83 6
2.7232754 0.21289144 -0.047679976 73 7
2.7139602 0.20358755 0.04750545 84 8
3.1848354 0.23667453 0.16737041 45 9
2.9231164 0.21671249 -0.56975567 6 2
2.882215 0.21165715 -0.45772728 6 3
2.8019388 0.2028124 -0.24577919 60 5
2.7571323 0.19763449 -0.14486594 77 6
2.7306793 0.19430129 -0.04778469 85 7
2.9592195 0.20018288 -0.68475103 59 1
2.9402633 0.19683869 -0.57280862 7 2
2.8777094 0.19113758 -0.45678869 7 3
2.8503664 0.18782257 -0.35073999 8 4
2.7544589 0.17812349 -0.1446566 77 6
2.7259822 0.17484882 -0.047679976 79 7
2.704591 0.16447222 0.047296021 10 8
2.9449835 0.17857517 -0.68115181 78 1
2.9258878 0.17536871 -0.56975567 9 2
2.8710861 0.17057413 -0.45553723 7 3
2.859535 0.16838546 -0.35171497 7 4
2.8124819 0.16364463 -0.24647643 7 5
2.7476592 0.15842949 -0.14423791 79 6
2.7136607 0.14601769 0.047435641 12 8
2.9500504 0.15821968 -0.6820516 79 1
2.9348831 0.15535161 -0.57128215 79 2
2.8840427 0.15114629 -0.45741442 7 3
2.8408165 0.14738949 -0.34927759 7 4
2.8095763 0.14380348 -0.24612781 7 5
2.7467036 0.13914232 -0.14413324 50 6
2.732152 0.13697106 -0.047749784 8 7
2.7126162 0.1269757 0.047400735 12 8
2.9452431 0.13734967 -0.68070191 72 1
2.6914213 0.12457009 0.14120242 17 9
2.9162843 0.13395761 -0.56746602 75 2
2.8850276 0.13100819 -0.45741442 74 3
2.8536747 0.12808733 -0.35073999 7 4
2.8184733 0.12453587 -0.24682505 31 5
2.7815294 0.12144434 -0.14591266 78 6
2.7290463 0.11772135 -0.047679976 9 7
2.7214291 0.10835189 0.047540355 11 8
2.9500246 0.11693902 -0.6816017 69 1
2.9132247 0.11344343 -0.56670272 69 2
2.8819244 0.11071343 -0.45678869 66 3
2.8425972 0.10771218 -0.34927759 25 4
2.8053372 0.10433783 -0.24560487 76 5
2.7823093 0.10202265 -0.14591266 84 6
2.9714851 0.098573521 -0.79664505 45 0
2.7101276 0.088957779 0.047330927 12 8
2.95856 0.096594073 -0.68340129 68 1
2.9316061 0.093666792 -0.57013732 56 2
2.8865757 0.090715207 -0.45741442 23 3
2.8591533 0.088354997 -0.35122749 8 4
2.788074 0.084210329 -0.24403608 68 5
2.7709754 0.082241796 -0.14528462 79 6
2.7404182 0.079898827 -0.047854498 83 7
2.972101 0.077827662 -0.79664505 82 0
2.6866941 0.069415569 0.04691207 38 8
2.8812146 0.070414737 -0.45647582 7 3
2.8716075 0.068675593 -0.35268989 7 4
2.8164799 0.065391287 -0.24647643 45 5
2.7595017 0.06262286 -0.1446566 77 6
2.7409091 0.060765158 -0.047854498 85 7
2.7231016 0.051335659 0.047540355 27 8
2.9401362 0.054913875 -0.67890227 66 1
2.9444058 0.05293747 -0.57242703 10 2
2.8796606 0.050265245 -0.45616296 7 3
2.8481994 0.048224419 -0.34976503 7 4
2.7478895 0.043166835 -0.14402856 68 6
2.7392671 0.041596856 -0.047819596 101 7
2.950191 0.034500457 -0.68115181 90 1
2.9309616 0.032229241 -0.56975567 87 2
2.8838921 0.030201577 -0.45678869 7 3
2.8325865 0.028181074 -0.34781513 7 4
2.811141 0.026003769 -0.24595349 7 5
2.7660985 0.024138754 -0.14497061 11 6
2.7274928 0.022373728 -0.047610167 101 7
2.9562063 0.013932358 -0.68250149 68 1
2.9173727 0.011711321 -0.56708437 81 2
2.8939092 0.010101954 -0.45835301 64 3
2.8605056 0.0084876679 -0.35122749 7 4
2.8052773 0.0063654468 -0.24543057 6 5
2.7502215 0.0048005879 -0.14413324 8 6
2.9562314 -0.0067074876 -0.68250149 73 1
2.9252362 -0.008679376 -0.56861085 72 2
2.8682296 -0.01001205 -0.45428574 66 3
2.8565228 -0.011965444 -0.35073999 8 4
2.8072455 -0.013228931 -0.24560487 7 5
2.7761521 -0.014536031 -0.14549398 61 6
2.7255371 -0.016173853 -0.047575258 55 7
2.9463644 -0.027769651 -0.68025202 77 1
2.9368834 -0.029218186 -0.57090056 70 2
2.87006 -0.030557273 -0.45459861 63 3
2.8623245 -0.031973802 -0.35147122 67 4
2.8070848 -0.032826718 -0.24560487 44 5
2.7679887 -0.03430222 -0.14507528 70 6
2.9441502 -0.048306342 -0.67980206 63 1
2.936599 -0.050233148 -0.57090056 68 2
2.8737266 -0.050662801 -0.45522434 60 3
2.8521078 -0.0517755 -0.35025251 35 4
2.806778 -0.052912787 -0.24560487 70 5
2.7696786 -0.053664122 -0.14517996 76 6
2.9534822 -0.069086894 -0.6820516 60 1
2.9361768 -0.070733093 -0.57090056 9 2
2.843739 -0.071486011 -0.34927759 7 4
2.8262575 -0.073020943 -0.24734798 7 5
2.7772226 -0.073209181 -0.14559864 76 6
2.9548759 -0.089763418 -0.68250149 13 1
2.9356112 -0.09122958 -0.57090056 83 2
2.8964319 -0.09153007 -0.4589788 6 3
2.8511069 -0.091592088 -0.35025251 7 4
2.8077569 -0.092161737 -0.24577919 7 5
2.7806361 -0.092729039 -0.14580798 76 6
2.9172466 -0.11104951 -0.56746602 75 2
2.8779571 -0.11106301 -0.45616296 61 3
2.8484147 -0.11141662 -0.35000879 7 4
2.8070452 -0.11176117 -0.24577919 7 5
2.7719383 -0.11181711 -0.1453893 30 6
2.9301291 -0.13203149 -0.57013732 67 2
2.8632984 -0.13052239 -0.45397288 62 3
2.855499 -0.13166513 -0.35098374 7 4
2.8061965 -0.13135515 -0.24577919 7 5
2.9330571 -0.15268838 -0.57090056 64 2
2.8741534 -0.151131 -0.45585006 63 3
2.8485634 -0.15128109 -0.35025251 63 4
2.8151588 -0.15147801 -0.24665076 7 5
2.9162409 -0.17223509 -0.56784761 65 2
2.873028 -0.17119253 -0.45585006 63 3
2.8454566 -0.17104486 -0.35000879 62 4
2.8219874 -0.17161141 -0.24734798 8 5
2.9267213 -0.19336651 -0.57013732 63 2
2.875705 -0.19150825 -0.45647582 61 3
2.8560765 -0.19170319 -0.35147122 68 4
2.816745 -0.19103864 -0.24699937 63 5
2.9390061 -0.21479569 -0.57280862 30 2
2.8723278 -0.2114346 -0.45616296 23 3
2.9296072 -0.2346814 -0.57128215 24 2
2.8747199 -0.23179947 -0.45678869 24 3
2.8649933 -0.23252508 -0.35293365 7 4
2.8789351 -0.25238049 -0.45772728 85 3
2.8395715 -0.25042799 -0.35000879 7 4
2.8731699 -0.27210048 -0.45710155 63 3
2.8397298 -0.27043384 -0.35025251 56 4
2.8790607 -0.29295203 -0.45835301 61 3
2.8651631 -0.31176227 -0.45647582 61 3
2.8629169 -0.33175713 -0.45647582 60 3
2.8644521 -0.352218 -0.45710155 60 3
