# .PCD v0.7 - Point Cloud Data file format
VERSION 0.7
FIELDS x y z intensity ring
SIZE 4 4 4 4 2
TYPE F F F F U
COUNT 1 1 1 1 1
WIDTH 1322
HEIGHT 1
VIEWPOINT 0 0 0 1 0 0 0
POINTS 1322
DATA ascii
2.6429873 -0.64087093 -0.33392206 81 4
42.015835 -10.20352 6.8480759 5 12
2.6251497 -0.6384865 -0.23636638 17 5
43.389366 -10.561143 8.6802826 10 13
23.091181 -5.6290226 -1.2455959 2 6
45.569672 -11.125541 10.829594 6 14
33.847069 -8.269803 -0.60818148 6 7
31.652611 -7.7453446 8.7315197 20 15
4.3506503 -1.076677 -1.2009205 4 0
42.712975 -10.586217 0.76811528 6 8
2.6290863 -0.65209413 -0.62536395 65 1
37.573032 -9.333189 2.0289605 12 9
2.6520185 -0.65974772 -0.53121227 10 2
38.974911 -9.7030878 3.5139451 10 10
2.6297119 -0.65566087 -0.42925623 72 3
38.478733 -9.6080933 4.8696556 7 11
2.6423004 -0.6602692 -0.33440951 81 4
41.410854 -10.363277 6.7610984 19 12
2.6244934 -0.65776646 -0.23671499 35 5
40.378189 -10.127317 8.0918283 12 13
22.601915 -5.6772084 -1.2213119 4 6
47.403431 -11.924511 11.284895 6 14
22.863091 -5.7555394 -0.41152775 4 7
31.811317 -8.019969 8.7905302 9 15
4.3317957 -1.1041608 -1.1978146 4 0
22.772188 -5.8130236 0.41023627 4 8
37.352161 -9.5556669 2.0205867 28 9
2.6549554 -0.68019503 -0.53273875 10 2
40.904274 -10.517653 5.1857848 7 11
2.6491611 -0.68166769 -0.33587193 78 4
42.171516 -10.867041 6.8975096 15 12
18.911831 -4.8803692 -1.7087754 9 5
40.057491 -10.344654 8.0418367 29 13
22.086056 -5.7118425 -1.1955627 2 6
47.254887 -12.238544 11.269598 6 14
22.348093 -5.7920957 -0.40297607 8 7
31.825609 -8.2602987 8.8102007 6 15
4.3370619 -1.1378069 -1.2014381 3 0
22.34037 -5.8692217 0.40318549 8 8
5.1094065 -1.3432875 -1.2196846 5 1
37.649586 -9.9123087 2.0403697 20 9
2.6577356 -0.70071542 -0.53426522 10 2
36.600933 -9.6567173 3.3117437 13 10
2.6355801 -0.69635022 -0.43175918 10 3
32.593258 -8.623683 4.1396585 9 11
2.6328242 -0.69709718 -0.33440951 76 4
41.239208 -10.934378 6.7573442 19 12
17.752712 -4.7136793 -1.6069776 12 5
40.206291 -10.683041 8.0864859 8 13
21.725243 -5.7806406 -1.1781871 2 6
40.42889 -10.772408 9.6593981 13 14
21.934202 -5.8485394 -0.39623943 51 7
32.080734 -8.5660086 8.8971643 6 15
4.3383393 -1.1705737 -1.2040263 3 0
21.841328 -5.901423 0.39491305 10 8
5.1036663 -1.3799421 -1.2205844 5 1
37.573689 -10.173343 2.0400558 24 9
2.6489894 -0.71822542 -0.53350198 10 2
36.701839 -9.9579124 3.3270833 13 10
2.6459043 -0.7188763 -0.4342621 11 3
33.859676 -9.212163 4.308569 4 11
2.6355548 -0.7175464 -0.33538446 73 4
41.794598 -11.394515 6.8612161 15 12
17.890434 -4.8842015 -1.6224912 10 5
41.570061 -11.356686 8.3765154 9 13
21.239344 -5.8104267 -1.1540079 4 6
40.621464 -11.128017 9.7237339 4 14
21.429989 -5.8746433 -0.38786229 43 7
32.362934 -8.8838596 8.9924097 9 15
4.3207526 -1.1982508 -1.2014381 3 0
21.418095 -5.9478154 0.38800189 3 8
5.0939083 -1.4155383 -1.2205844 5 1
37.34589 -10.392036 2.0315773 8 9
2.6363459 -0.73459321 -0.53197551 13 2
32.209629 -8.9809723 2.9254696 3 10
2.6370158 -0.7362681 -0.43363637 11 3
32.047173 -8.9597912 4.0857921 4 11
36.452702 -10.212075 5.995821 10 12
17.654472 -4.9524755 -1.6041886 15 5
40.591824 -11.402202 8.1956291 13 13
20.861782 -5.8639822 -1.1356903 2 6
38.959568 -10.965715 9.344017 4 14
30.264164 -8.5353765 8.4255953 5 15
4.3064942 -1.2275498 -1.1998851 4 0
20.979914 -5.9842043 0.38081151 9 8
5.0855227 -1.4524885 -1.2210344 4 1
41.218651 -11.788122 2.2467828 5 9
2.6405907 -0.7556811 -0.53388357 94 2
35.30479 -10.116818 3.2130835 17 10
2.6183887 -0.75130552 -0.43144631 77 3
27.391279 -7.8646717 3.4991128 15 11
11.240821 -3.2317479 -1.4361085 1 4
35.904125 -10.336044 5.917604 24 12
17.676905 -5.0921512 -1.6094179 24 5
40.52066 -11.688027 8.1975365 9 13
20.42017 -5.8978395 -1.1139185 6 6
36.687939 -10.603304 8.8167315 7 14
20.641756 -5.9735513 -0.37508711 4 7
30.057583 -8.7097845 8.3852205 13 15
4.301528 -1.2586697 -1.2009205 4 0
20.554668 -6.0222907 0.37386546 5 8
5.0715184 -1.4868598 -1.2201345 4 1
36.137402 -10.608406 1.9737984 20 9
2.6294646 -0.77289623 -0.53273875 95 2
35.485611 -10.437253 3.2360926 8 10
2.6092901 -0.76845068 -0.43082058 99 3
27.081062 -7.9858003 3.4666955 17 11
11.267488 -3.3247519 -1.4424456 1 4
36.024323 -10.643538 5.9495163 24 12
17.678225 -5.2298169 -1.6129041 28 5
40.302532 -11.930503 8.1700602 8 13
20.045303 -5.9414954 -1.0957056 4 6
36.375732 -10.795702 8.7600441 7 14
20.168238 -5.9894228 -0.36723354 6 7
30.160847 -8.9684162 8.4312897 5 15
4.2907853 -1.2881136 -1.2004027 3 0
20.163584 -6.0608754 0.36751276 10 8
5.0647473 -1.5233519 -1.2210344 4 1
36.286213 -10.927818 1.9860451 16 9
2.6371627 -0.79520196 -0.53541011 63 2
35.188705 -10.617394 3.215698 8 10
2.6208804 -0.79178947 -0.43363637 68 3
27.106356 -8.1993799 3.4771764 15 11
11.331401 -3.4297853 -1.4536576 1 4
35.499207 -10.758417 5.8750539 28 12
34.528084 -10.48385 7.0141392 24 13
19.65173 -5.9743981 -1.0764461 2 6
36.726398 -11.179341 8.8630714 7 14
22.612738 -6.8875232 -0.41260979 4 7
30.352501 -9.2565241 8.5027237 5 15
4.2946134 -1.322016 -1.2040263 4 0
19.815023 -6.107255 0.36192802 3 8
5.0558505 -1.5592473 -1.2214842 5 1
34.163284 -10.549173 1.8738368 14 9
35.03569 -10.838657 3.2085516 8 10
27.537624 -8.5401201 3.540061 7 11
11.379225 -3.5311658 -1.4629197 1 4
28.613249 -8.8901262 4.7455964 10 12
33.824203 -10.528589 6.8859153 25 13
19.28157 -6.0092325 -1.0584425 4 6
31.758652 -9.9099636 7.6807284 13 14
19.502365 -6.0892496 -0.35662249 23 7
30.314796 -9.4768429 8.5104876 13 15
4.2797523 -1.350222 -1.2024734 5 0
19.398165 -6.1273856 0.35508665 5 8
5.0597067 -1.5992038 -1.2250834 5 1
33.97646 -10.751865 1.8676611 3 9
6.1593132 -1.9514831 -1.2559049 6 2
31.553843 -10.003407 2.8960109 7 10
7.8870764 -2.503443 -1.310608 1 3
27.238956 -8.6564064 3.5093498 17 11
11.460233 -3.6442077 -1.4765691 1 4
28.539194 -9.0860701 4.7437191 14 12
33.581535 -10.710778 6.8515697 17 13
18.963272 -6.0555987 -1.043265 4 6
38.413631 -12.281519 9.3107243 4 14
18.990849 -6.0753636 -0.3480359 8 7
30.054722 -9.6263762 8.4561357 10 15
4.2702217 -1.3800671 -1.2024734 3 0
19.052408 -6.1647782 0.34953681 8 8
5.0354414 -1.6302863 -1.2219341 4 1
29.751108 -9.6437626 1.6390576 21 9
6.1418052 -1.9932235 -1.2551417 24 2
31.831915 -10.336675 2.9280841 21 10
7.8769217 -2.5608869 -1.3118596 1 3
27.523294 -8.9587946 3.5539541 20 11
11.528889 -3.7548635 -1.4887561 1 4
28.516384 -9.2985611 4.7506022 12 12
18.546181 -6.0546618 -1.706858 3 5
27.517277 -8.9887171 5.6269574 19 13
18.609209 -6.0860219 -1.0260988 4 6
31.682007 -10.37364 7.696475 15 14
18.735136 -6.1380658 -0.34412655 7 7
30.860544 -10.122561 8.7025318 5 15
4.2623172 -1.4104518 -1.202991 3 0
18.727966 -6.2045627 0.34437087 4 8
5.027637 -1.6666268 -1.222834 4 1
30.069759 -9.9795666 1.6604108 21 9
6.1184244 -2.0329571 -1.2532336 41 2
28.715046 -9.5466585 2.6474428 16 10
7.8925877 -2.6270447 -1.3174912 1 3
27.507162 -9.1664143 3.5600476 24 11
11.551356 -3.851584 -1.4950932 1 4
28.32336 -9.4548807 4.7293277 14 12
18.216232 -6.087996 -1.6803627 3 5
27.656801 -9.2484694 5.6685543 21 13
18.270815 -6.1168752 -1.00977 4 6
26.887911 -9.0122271 6.5469756 20 14
18.396065 -6.1695209 -0.3386814 6 7
32.627827 -10.955124 9.2222404 10 15
4.2724934 -1.4469904 -1.2086849 3 0
18.38876 -6.2349844 0.33892572 3 8
5.0195699 -1.7029374 -1.2237337 4 1
31.652225 -10.750645 1.751894 6 9
6.1170936 -2.0800462 -1.2559049 46 2
28.930628 -9.8431549 2.6735895 8 10
7.9264126 -2.6999149 -1.3262516 1 3
27.487591 -9.3736029 3.5658975 28 11
11.587373 -3.9559507 -1.5033803 1 4
28.325827 -9.6760092 4.7409034 12 12
17.920671 -6.1286287 -1.657005 3 5
26.449465 -9.0556765 5.4342403 9 13
17.955584 -6.151072 -0.99469727 4 6
26.944157 -9.2408113 6.5762191 15 14
18.077206 -6.2068405 -0.33362022 3 7
29.486603 -10.130031 8.3541613 7 15
4.2547283 -1.4749953 -1.2066144 3 0
18.042501 -6.258358 0.33334094 3 8
5.018301 -1.7426484 -1.2264332 4 1
31.808411 -11.058189 1.7648733 3 9
6.1024232 -2.1227005 -1.2559049 41 2
27.856579 -9.7006865 2.5806813 2 10
7.9441948 -2.7695708 -1.3325089 2 3
27.496454 -9.5914249 3.5756469 22 11
11.641933 -4.0655451 -1.5141048 1 4
27.57338 -9.6398554 4.6263933 12 12
17.587828 -6.1522779 -1.6301609 3 5
26.835861 -9.3977842 5.5269737 12 13
17.62085 -6.1776395 -0.97857773 4 6
27.596153 -9.6802597 6.7516809 12 14
17.754194 -6.2348299 -0.32845432 3 7
30.986181 -10.893723 8.8008833 9 15
4.2279401 -1.4988533 -1.2019557 2 0
17.729652 -6.2923331 0.32838446 3 8
5.0023403 -1.7763358 -1.2255334 4 1
31.596823 -11.232484 1.7574416 6 9
26.981091 -9.6075344 2.5057275 2 10
7.9581594 -2.8369033 -1.3381406 1 3
27.359812 -9.7639179 3.5668724 15 11
11.680569 -4.1707525 -1.5228794 1 4
27.537031 -9.843421 4.6317124 18 12
17.293064 -6.1850038 -1.6068033 3 5
26.941496 -9.646451 5.5624642 10 13
17.332878 -6.2128954 -0.96497047 6 6
27.096828 -9.7180796 6.6459537 15 14
17.422279 -6.2552376 -0.32311383 6 7
31.132982 -11.190152 8.8645525 18 15
4.228271 -1.5322824 -1.2050616 4 0
17.391264 -6.305851 0.32290444 10 8
4.9934807 -1.8125449 -1.2264332 4 1
27.855169 -10.116435 1.5531219 33 9
6.112783 -2.2224548 -1.2643005 5 2
27.752121 -10.100945 2.5838192 10 10
7.9386649 -2.8910069 -1.3381406 1 3
27.598577 -10.061429 3.6068454 31 11
11.729488 -4.2807798 -1.5331165 1 4
27.432281 -10.017078 4.6254549 18 12
16.880821 -6.1708226 -1.572464 5 5
27.275415 -9.9813852 5.6456571 15 13
16.98073 -6.2174249 -0.94769961 4 6
37.861977 -13.877998 9.309824 4 14
17.081572 -6.2678752 -0.31759888 8 7
30.189247 -11.083558 8.6171217 13 15
4.2268019 -1.5643802 -1.2076497 3 0
16.999916 -6.2985811 0.31644702 6 8
4.9810276 -1.8464923 -1.2264332 4 1
29.740608 -11.036803 1.6625041 3 9
6.1026402 -2.2671268 -1.2654454 6 2
27.029079 -10.046656 2.52281 22 10
7.9479089 -2.9573801 -1.3431464 1 3
27.644859 -10.297511 3.622201 20 11
11.759602 -4.3827043 -1.5409162 1 4
29.897228 -11.15433 5.0540853 5 12
16.633886 -6.2125378 -1.5534639 5 5
26.697428 -9.976449 5.5399489 12 13
16.658182 -6.2315536 -0.93210351 6 6
36.331566 -13.605502 8.9566507 10 14
16.783844 -6.2885804 -0.31285185 3 7
31.05171 -11.646836 8.8862944 15 15
4.1977077 -1.5870187 -1.2024734 3 0
16.706791 -6.322969 0.31180471 4 8
4.9607258 -1.8784606 -1.2246336 4 1
35.411255 -13.423193 1.9846842 4 9
6.1105256 -2.3187304 -1.2704064 6 2
27.014162 -10.256322 2.5280395 22 10
7.9603071 -3.0254271 -1.3487781 1 3
27.704027 -10.540375 3.6395066 15 11
11.776955 -4.4830561 -1.5472534 1 4
27.893356 -10.629129 4.7277632 4 12
16.351831 -6.2376175 -1.531152 2 5
31.847271 -12.154921 6.6260338 13 13
16.399714 -6.2657208 -0.92006618 4 6
40.154495 -15.357606 9.9252901 4 14
16.515417 -6.319839 -0.30866325 7 7
30.881243 -11.829469 8.8609285 18 15
4.2063503 -1.6239388 -1.2081673 3 0
16.471985 -6.3659215 0.30824441 4 8
4.9656668 -1.9200752 -1.2291325 4 1
28.134512 -10.890067 1.5810694 23 9
6.0923581 -2.3606236 -1.2700247 6 2
26.973482 -10.456908 2.5310028 20 10
7.9647737 -3.0909314 -1.3531584 1 3
26.637966 -10.348236 3.5088625 3 11
11.823079 -4.5953689 -1.5574903 1 4
27.871857 -10.844374 4.736836 6 12
16.060963 -6.2554502 -1.5079685 4 5
30.585419 -11.918606 6.3806534 9 13
16.126705 -6.2907825 -0.90719157 4 6
39.941017 -15.596448 9.8991957 4 14
16.225031 -6.3389282 -0.30405584 5 7
33.51823 -13.108664 9.6435986 21 15
4.1841264 -1.6490148 -1.2050616 2 0
16.196484 -6.3897624 0.30391622 3 8
4.963017 -1.9589878 -1.231832 4 1
32.820473 -12.968046 1.8494482 3 9
6.0885096 -2.4081533 -1.2726961 4 2
26.999865 -10.684551 2.5404155 17 10
7.9760585 -3.159555 -1.35879 1 3
28.124359 -11.152259 3.7148218 2 11
11.853446 -4.7026863 -1.5657774 1 4
27.971718 -11.108685 4.7668715 8 12
15.802135 -6.2820444 -1.4877486 4 5
30.428492 -12.102816 6.3653884 19 13
15.872713 -6.3197289 -0.89536369 4 6
30.466682 -12.142647 7.5718522 10 14
15.950058 -6.3602014 -0.29972765 7 7
34.125633 -13.621653 9.8454771 7 15
4.159966 -1.673139 -1.2014381 3 0
15.917747 -6.4085774 0.2995182 8 8
4.9546423 -1.9957724 -1.2331817 5 1
28.076042 -11.320662 1.5865123 20 9
6.0915751 -2.458683 -1.2768939 6 2
26.780514 -10.814592 2.5268192 22 10
8.0014238 -3.2344093 -1.3669246 1 3
29.247438 -11.834549 3.8739831 4 11
11.923368 -4.8270392 -1.5794269 1 4
27.875175 -11.296272 4.7637429 8 12
15.543726 -6.3053336 -1.4675285 5 5
29.490082 -11.968685 6.1864095 20 13
15.620963 -6.3461914 -0.88364035 2 6
30.372147 -12.351377 7.569603 15 14
15.701518 -6.3884983 -0.2958881 7 7
30.751978 -12.524612 8.8971643 6 15
4.1589074 -1.7065403 -1.2045439 3 0
15.645102 -6.426096 0.29522491 4 8
4.9171567 -2.0206842 -1.2273329 5 1
29.946852 -12.318748 1.6970459 3 9
6.0906 -2.5078773 -1.2803285 4 2
30.117937 -12.407569 2.8498185 6 10
7.9786482 -3.2901905 -1.3669246 1 3
28.395277 -11.721087 3.7718563 14 11
11.96277 -4.9404712 -1.5891764 1 4
27.6003 -11.409851 4.7302656 17 12
15.302341 -6.33218 -1.448877 2 5
27.336102 -11.317394 5.7509832 22 13
15.41391 -6.3878026 -0.87442923 4 6
30.250978 -12.548926 7.5610552 10 14
15.409047 -6.3952422 -0.29121086 35 7
28.869062 -11.99339 8.37642 7 15
4.1754055 -1.7474663 -1.2128261 3 0
15.310289 -6.4138536 0.28974485 2 8
4.9155107 -2.060236 -1.2304822 5 1
27.535847 -11.55239 1.56495 5 9
6.0946655 -2.5594583 -1.2849078 5 2
26.033607 -10.938174 2.4705167 20 10
7.9991841 -3.3641901 -1.3744334 1 3
26.095306 -10.985538 3.4764452 15 11
12.015802 -5.0608521 -1.6008759 1 4
27.922245 -11.771852 4.7994099 15 12
15.103569 -6.3737855 -1.434235 2 5
27.563898 -11.637777 5.8158584 18 13
15.155532 -6.4050646 -0.86228722 4 6
30.106995 -12.736274 7.5471082 5 14
15.273789 -6.4644699 -0.28950053 5 7
30.020901 -12.718388 8.7361784 17 15
4.1400056 -1.766716 -1.2060968 3 0
15.116184 -6.4569554 0.28691757 9 8
4.906384 -2.0967996 -1.231832 4 1
33.117676 -14.166895 1.8877583 11 9
6.0730391 -2.600399 -1.2841446 5 2
25.930971 -11.10867 2.4680762 5 10
8.0118132 -3.4355228 -1.3806907 1 3
25.693277 -11.028081 3.4330597 3 11
12.045842 -5.172812 -1.6096504 1 4
27.995455 -12.033586 4.8263168 6 12
14.859215 -6.39324 -1.4152349 3 5
27.453127 -11.817504 5.8097525 18 13
14.903179 -6.4214067 -0.85045934 6 6
32.134216 -13.85913 8.0793419 6 14
14.906975 -6.4322982 -0.28339219 6 7
33.489021 -14.464243 9.7745609 7 15
4.1151705 -1.7901813 -1.2024734 2 0
14.894731 -6.4856882 0.28356671 13 8
4.9077048 -2.138006 -1.2358811 5 1
27.851528 -12.144885 1.592374 5 9
6.0727301 -2.6505866 -1.2879608 4 2
25.787056 -11.260728 2.4618011 19 10
8.0129747 -3.5024478 -1.3850709 1 3
25.626575 -11.211957 3.4345222 17 11
12.105818 -5.2989693 -1.6225686 2 4
27.528996 -12.061469 4.7603016 17 12
14.626283 -6.4144006 -1.3972809 5 5
28.128635 -12.341752 5.9707956 16 13
14.67329 -6.4441786 -0.8398875 6 6
29.788864 -13.095005 7.512465 20 14
17.038155 -7.4934173 -0.32489401 8 7
31.573143 -13.899093 9.2434635 16 15
4.1149349 -1.8243473 -1.2060968 2 0
14.655342 -6.5035362 0.27986681 16 8
4.8819728 -2.1674714 -1.2331817 5 1
26.254835 -11.667449 1.5057056 2 9
6.0684285 -2.6993005 -1.2910137 5 2
26.523298 -11.803387 2.5398927 7 10
8.0099812 -3.5679488 -1.3888253 1 3
25.255775 -11.260444 3.3952801 29 11
12.164613 -5.4262133 -1.6354867 2 4
27.478392 -12.268663 4.7662458 6 12
14.39015 -6.4309974 -1.3789781 6 5
29.593893 -13.23179 6.3012767 7 13
14.429235 -6.457531 -0.82847828 5 6
29.702057 -13.305039 7.5138149 15 14
17.058416 -7.6448941 -0.32629019 10 7
30.664532 -13.755463 9.0053501 21 15
4.1337886 -1.8673456 -1.2154143 4 0
14.42555 -6.5224805 0.27634141 23 8
4.8667221 -2.2015009 -1.2331817 5 1
30.954248 -14.015422 1.7807834 3 9
6.0726824 -2.7521353 -1.2959747 4 2
25.895874 -11.741441 2.4875991 7 10
8.0136595 -3.6368432 -1.3938313 1 3
24.607227 -11.177874 3.3185024 9 11
12.220409 -5.5537133 -1.6481611 10 4
25.216385 -11.470514 4.3876743 16 12
14.161761 -6.447917 -1.3613727 5 5
29.77951 -13.565028 6.3608093 14 13
14.218429 -6.4827085 -0.8189531 3 6
32.489334 -14.826792 8.2449055 6 14
14.314232 -6.5354433 -0.27466598 9 7
30.442999 -13.912193 8.9685974 18 15
4.1188965 -1.8953516 -1.2148967 3 0
14.263419 -6.56949 0.27410749 4 8
4.8476944 -2.2337918 -1.2322818 5 1
30.920942 -14.261294 1.7845517 3 9
6.0675807 -2.8010459 -1.2990277 4 2
22.638844 -10.455819 2.1816826 8 10
8.0024176 -3.699331 -1.3963342 1 3
24.215117 -11.204345 3.2760921 17 11
12.246192 -5.6689134 -1.6569357 7 4
24.377533 -11.294994 4.255331 3 12
13.93746 -6.4636412 -1.3441159 5 5
29.676958 -13.76929 6.359283 23 13
14.022473 -6.5119905 -0.81026536 3 6
36.189735 -16.821754 9.2135448 8 14
14.097814 -6.5559535 -0.27138492 7 7
29.707615 -13.827646 8.7801771 12 15
4.096817 -1.9199613 -1.2123084 2 0
14.070564 -6.6001201 0.2712802 6 8
4.8513875 -2.2766874 -1.2372309 5 1
14.042737 -6.5960398 0.81309152 9 9
6.0532079 -2.8458428 -1.3001726 4 2
21.845934 -10.275259 2.1121323 15 10
8.0371618 -3.783715 -1.4069717 1 3
22.845184 -10.764741 3.1008439 15 11
12.238638 -5.769505 -1.6613231 7 4
24.882269 -11.740549 4.3576388 9 12
13.782101 -6.508884 -1.3334829 5 5
25.04475 -11.833252 5.3842483 6 13
13.812367 -6.5320258 -0.80074024 7 6
31.632727 -14.97299 8.079792 6 14
13.731811 -6.5027294 -0.26520678 7 7
29.839045 -14.143099 8.8479881 9 15
4.0798268 -1.9468517 -1.2112732 3 0
13.794979 -6.5887361 0.26684731 31 8
4.847683 -2.3163817 -1.2403802 4 1
13.841391 -6.6198058 0.80408967 32 9
6.0526724 -2.8973572 -1.3043704 3 2
21.881483 -10.479155 2.122591 16 10
8.0639915 -3.8653479 -1.4163579 1 3
22.701462 -10.891337 3.0915818 8 11
12.276804 -5.8926005 -1.6720475 7 4
24.176502 -11.614583 4.2481351 17 12
13.551378 -6.5160127 -1.3155288 6 5
25.032299 -12.04185 5.3995132 14 13
13.590075 -6.5433822 -0.7904824 5 6
25.202278 -12.145293 6.4587946 15 14
13.678874 -6.5949631 -0.26506716 21 7
32.791306 -15.823705 9.7559252 7 15
4.0661359 -1.9752867 -1.2112732 3 0
13.626355 -6.625422 0.26447377 35 8
4.8366513 -2.3527257 -1.2417299 3 1
13.643998 -6.6428347 0.79529727 30 9
6.0393567 -2.9429817 -1.3058969 4 2
21.238285 -10.354015 2.0671599 13 10
8.0581131 -3.9319456 -1.4201121 1 3
22.703358 -11.087887 3.1023064 12 11
12.285309 -6.0025654 -1.6788722 7 4
21.727579 -10.625428 3.8307676 16 12
13.324816 -6.5219932 -1.2979233 5 5
24.663744 -12.077307 5.3380728 9 13
13.362924 -6.5493207 -0.7799105 3 6
24.628742 -12.081491 6.333272 10 14
17.107943 -8.3959093 -0.33264288 6 7
29.175697 -14.330932 8.7097788 2 15
4.052247 -2.0036252 -1.2112732 2 0
13.429222 -6.6458869 0.26154178 41 8
4.8201084 -2.3864343 -1.2417299 4 1
13.434438 -6.6572261 0.78577214 34 9
6.0432873 -2.9972849 -1.3112395 4 2
21.379656 -10.608303 2.0880773 15 10
8.0552359 -4.0004063 -1.4244925 1 3
21.272638 -10.573716 2.9168212 17 11
12.260877 -6.0970244 -1.6813096 9 4
21.569756 -10.735488 3.8160627 1 12
13.14164 -6.546453 -1.2845013 3 5
20.934528 -10.433007 4.546597 15 13
13.204279 -6.5862885 -0.7733162 3 6
24.876816 -12.419389 6.4192033 8 14
13.225876 -6.605711 -0.25805128 36 7
35.661987 -17.827063 10.683015 4 15
4.0588684 -2.0422859 -1.2174848 4 0
13.223544 -6.6594272 0.25843525 38 8
4.7963686 -2.4165192 -1.2399302 3 1
13.216432 -6.6645231 0.77572364 35 9
6.0169573 -3.0367479 -1.3100946 4 2
21.129 -10.668397 2.0708203 9 10
8.0588465 -4.0725818 -1.430124 1 3
21.263842 -10.755118 2.9258394 30 11
12.253438 -6.200398 -1.6861844 6 4
21.409693 -10.842969 3.8010449 9 12
12.987212 -6.5830894 -1.2738683 5 5
20.876942 -10.586894 4.5500317 8 13
13.010155 -6.6032834 -0.76462841 5 6
24.763445 -12.57952 6.4124546 14 14
24.934898 -12.683045 7.4959178 8 15
4.0445118 -2.0705721 -1.2174848 3 0
13.021899 -6.6722484 0.25539851 37 8
4.8001919 -2.4606125 -1.245329 3 1
13.034529 -6.6873384 0.76776856 35 9
6.0130749 -3.0876477 -1.3139107 5 2
21.378325 -10.982248 2.1027195 16 10
8.0548124 -4.1413884 -1.4345042 1 3
21.21648 -10.917836 2.9297392 10 11
12.268096 -6.3157754 -1.6942277 5 4
21.526632 -11.091699 3.8354607 9 12
12.763858 -6.5822768 -1.2564372 7 5
22.432108 -11.573115 4.9064627 9 13
12.811119 -6.6151433 -0.75562662 3 6
24.737343 -12.784303 6.4286513 14 14
17.130859 -8.8570471 -0.336622 1 7
24.751379 -12.807981 7.4674473 12 15
4.0213914 -2.094296 -1.2148967 3 0
12.838459 -6.6918249 0.25271085 38 8
4.8001761 -2.5030742 -1.2498281 4 1
12.847646 -6.7051706 0.75949949 30 9
5.9983335 -3.1331873 -1.3154373 5 2
24.25359 -12.674081 2.3941681 16 10
8.050211 -4.2103376 -1.4388845 1 3
21.157331 -11.074894 2.9321766 21 11
12.301082 -6.4417887 -1.7049522 3 4
21.166985 -11.094071 3.7850888 6 12
12.560566 -6.5888529 -1.2409234 6 5
21.846626 -11.464871 4.7957935 28 13
12.669142 -6.6542687 -0.74997431 3 6
24.4198 -12.836996 6.3692641 14 14
12.670487 -6.6634426 -0.24988356 10 7
24.45793 -12.873391 7.4058485 20 15
3.9981363 -2.1177979 -1.2123084 4 0
12.662455 -6.7129159 0.25016278 8 8
4.7963572 -2.543829 -1.2534273 3 1
12.747599 -6.7666068 0.75635934 9 9
6.0075216 -3.1915665 -1.3223064 5 2
20.360828 -10.821486 2.0173068 3 10
8.0206213 -4.2664356 -1.4388845 1 3
12.29786 -6.5499053 -1.7108021 2 4
21.075071 -11.234138 3.7825856 6 12
12.410546 -6.6210485 -1.2306391 7 5
21.482006 -11.465506 4.7332082 8 13
12.354605 -6.599515 -0.73406422 5 6
24.652674 -13.179895 6.4538455 10 14
12.500226 -6.6857181 -0.24744022 10 7
27.370176 -14.651167 8.3184452 15 15
4.0121679 -2.1612334 -1.2211083 3 0
12.497349 -6.7375717 0.24782418 11 8
4.7801962 -2.5781767 -1.2538772 3 1
12.538354 -6.7681541 0.74672949 9 9
6.0040941 -3.2436934 -1.3265042 4 2
20.223436 -10.93021 2.0112059 10 10
8.0358133 -4.3467607 -1.4470189 1 3
21.030315 -11.385284 2.9363203 26 11
12.204704 -6.6100745 -1.704221 5 4
20.937084 -11.34899 3.7719483 7 12
12.230924 -6.635323 -1.2173914 7 5
21.672344 -11.762225 4.7931223 4 13
12.278394 -6.6693993 -0.73228478 5 6
24.491577 -13.314449 6.4358497 12 14
12.356628 -6.7202754 -0.24552046 7 7
24.484507 -13.32722 7.4695177 12 15
3.9952877 -2.1882625 -1.2205906 4 0
12.320247 -6.7535253 0.24524122 6 8
4.7637897 -2.6124227 -1.2543271 3 1
12.389246 -6.799787 0.74065852 4 9
5.9830236 -3.2864759 -1.3268858 4 2
20.120447 -11.056736 2.0085912 15 10
8.024312 -4.4132271 -1.4504606 1 3
20.945105 -11.528954 2.9355891 20 11
12.033061 -6.6261749 -1.6866719 3 4
21.559738 -11.881984 3.8989732 1 12
12.074393 -6.6599255 -1.2064098 6 5
21.287169 -11.746302 4.7259574 15 13
12.116141 -6.6912284 -0.72537643 5 6
21.967607 -12.141784 5.7947392 12 14
12.176412 -6.7328362 -0.24286768 7 7
26.559511 -14.697946 8.133647 19 15
3.9748497 -2.2132816 -1.2190377 3 0
12.148778 -6.770257 0.24276298 8 8
4.752244 -2.6494119 -1.2561266 3 1
12.205431 -6.8102069 0.73249412 4 9
5.9787893 -3.3386936 -1.3310837 4 2
19.764467 -11.04146 1.9807014 14 10
8.0139971 -4.4807076 -1.4542149 1 3
20.529768 -11.48781 2.8885474 28 11
11.880848 -6.6508703 -1.6718037 3 4
21.153997 -11.851659 3.8404665 26 12
11.892053 -6.6680512 -1.1928135 6 5
21.228619 -11.908073 4.7313004 11 13
11.93329 -6.6993885 -0.71721202 5 6
25.881605 -14.541904 6.8538089 16 14
11.986171 -6.7373328 -0.24000549 7 7
26.360283 -14.829019 8.1041422 2 15
3.9525764 -2.2371709 -1.2169672 3 0
11.974202 -6.7829561 0.24021493 6 8
4.7573681 -2.6959753 -1.2624253 3 1
12.044666 -6.8312049 0.72569048 4 9
5.9672866 -3.3871357 -1.3337549 4 2
19.856689 -11.275587 1.9977839 8 10
7.9996943 -4.5463052 -1.4573436 1 3
20.152281 -11.462049 2.8466244 13 11
11.720254 -6.6688576 -1.655717 2 4
20.825275 -11.859267 3.7957265 13 12
11.727503 -6.683825 -1.1809603 6 5
21.160316 -12.064736 4.7347345 13 13
11.789086 -6.7271028 -0.71135038 5 6
29.581898 -16.893751 7.8647389 5 14
11.813829 -6.7494245 -0.23749235 7 7
26.232637 -14.999262 8.0968952 14 15
3.9452348 -2.269527 -1.2195554 4 0
11.789649 -6.7875652 0.23745745 5 8
4.7519398 -2.7369027 -1.2660246 3 1
11.877286 -6.846303 0.71846807 6 9
5.9741054 -3.4463713 -1.3406241 4 2
19.698111 -11.368127 1.9897656 15 10
7.9917092 -4.6158757 -1.4617239 1 3
20.107861 -11.623321 2.851743 11 11
11.565149 -6.687911 -1.6403615 3 4
20.646233 -11.948953 3.7782056 15 12
11.566768 -6.6996279 -1.1694556 6 5
20.890417 -12.104879 4.6931381 33 13
11.627803 -6.743113 -0.70444208 5 6
27.430593 -15.920154 7.3221574 2 14
11.659203 -6.7694821 -0.23532824 7 7
26.285963 -15.27424 8.1460705 4 15
3.9292943 -2.2970145 -1.2195554 4 0
11.633237 -6.8060894 0.23525845 5 8
4.7192626 -2.762136 -1.2624253 3 1
11.715459 -6.8624291 0.71155971 8 9
5.9566746 -3.4919658 -1.3421506 5 2
19.599361 -11.494278 1.987848 14 10
7.9763255 -4.6815538 -1.4648525 1 3
22.747738 -13.362033 3.2392874 3 11
11.405221 -6.7021103 -1.6242748 2 4
20.778559 -12.219975 3.8179402 13 12
11.387501 -6.7023973 -1.1560338 7 5
20.972887 -12.349044 4.7309184 15 13
11.415255 -6.7267833 -0.69439352 3 6
27.813961 -16.403296 7.4548783 5 14
11.485932 -6.7765355 -0.23278019 7 7
28.321297 -16.72249 8.812789 9 15
3.9148233 -2.3253763 -1.220073 3 0
11.454803 -6.8094792 0.23260568 8 8
4.7099137 -2.8009913 -1.2651247 3 1
11.536827 -6.8664174 0.70360464 4 9
5.9338379 -3.5344701 -1.3425322 4 2
19.912298 -11.865401 2.0279398 17 10
7.9638071 -4.7492661 -1.4686069 1 3
19.977705 -11.923284 2.8566177 23 11
11.247367 -6.7154236 -1.6084318 2 4
20.575737 -12.294823 3.7963521 10 12
11.282293 -6.7469659 -1.1501071 7 5
24.523594 -14.671254 5.554832 5 13
11.302897 -6.7673244 -0.69041598 9 6
25.366856 -15.199795 6.8272648 2 14
11.349155 -6.8030944 -0.23096514 10 7
25.200418 -15.118004 7.874311 12 15
3.9067645 -2.357641 -1.2226613 4 0
11.336804 -6.8468947 0.23117457 9 8
4.7002521 -2.8398507 -1.2678242 3 1
11.374101 -6.8775511 0.69659162 9 9
5.910697 -3.5768259 -1.3429137 5 2
19.844316 -12.013412 2.0295086 21 10
7.957489 -4.8211246 -1.4736128 1 3
20.184242 -12.238459 2.8982971 37 11
11.089889 -6.726862 -1.5925888 3 4
20.200651 -12.26288 3.7428513 16 12
11.086775 -6.7355652 -1.1349421 6 5
23.38879 -14.215015 5.320137 6 13
11.151289 -6.7827559 -0.68403101 5 6
25.150261 -15.309641 6.7975712 2 14
11.174997 -6.8051949 -0.22838219 7 7
24.884756 -15.165884 7.8085709 17 15
3.8869159 -2.382838 -1.2216259 3 0
11.155779 -6.844306 0.228452 8 8
4.686955 -2.8766727 -1.2696238 3 1
11.210084 -6.8857055 0.68947399 8 9
5.8939447 -3.6231437 -1.3448219 4 2
19.878765 -12.224716 2.0417104 8 10
7.9505548 -4.8931265 -1.4786187 1 3
19.834635 -12.216669 2.8602738 7 11
11.056176 -6.8124499 -1.5945386 6 4
20.383574 -12.569501 3.7929103 12 12
11.054742 -6.8222179 -1.1365108 7 5
23.34411 -14.411986 5.3327303 4 13
11.057789 -6.8320961 -0.68120486 9 6
23.211258 -14.352359 6.3004293 8 14
11.048987 -6.8346539 -0.22677657 10 7
25.05094 -15.50804 7.8944988 8 15
3.8849449 -2.4191058 -1.2262847 3 0
11.078874 -6.9040418 0.22785862 9 8
4.6932173 -2.9258187 -1.2768222 3 1
11.092265 -6.9204535 0.68518245 9 9
5.8968172 -3.681879 -1.3513094 6 2
21.183664 -13.231882 2.1851687 12 10
7.93295 -4.9589829 -1.4817474 1 3
20.021494 -12.525399 2.8997593 32 11
11.079022 -6.9337006 -1.6047755 5 4
20.32881 -12.732469 3.7991679 16 12
11.096318 -6.9553103 -1.1457494 7 5
22.704016 -14.236681 5.2090859 16 13
11.084259 -6.9558387 -0.68581045 7 6
23.03293 -14.465343 6.279284 14 14
11.073813 -6.9573674 -0.22827749 9 7
23.735111 -14.923667 7.5124817 10 15
3.866329 -2.4451361 -1.225767 2 0
11.106442 -7.0293427 0.22942933 9 8
4.6578588 -2.9491296 -1.2727731 4 1
11.109477 -7.0394144 0.68926466 9 9
5.8941813 -3.7376759 -1.356652 5 2
23.572336 -14.953688 2.4422781 4 10
7.9114795 -5.0227146 -1.4842504 1 3
21.627506 -13.741124 3.1461792 13 11
11.069326 -7.0383654 -1.6106254 5 4
20.981131 -13.345871 3.9383945 11 12
11.097912 -7.0647039 -1.1509787 7 5
22.768795 -14.505323 5.2476292 8 13
11.092694 -7.0695477 -0.68936932 11 6
22.980675 -14.657226 6.2927809 12 14
11.099596 -7.0848475 -0.22984821 11 7
23.757349 -15.170097 7.5528574 12 15
3.8568602 -2.4779615 -1.2283553 2 0
11.119338 -7.1467128 0.2307208 12 8
4.654665 -2.9939811 -1.277722 3 1
11.129354 -7.164135 0.69366086 9 9
5.892704 -3.7946775 -1.3623763 4 2
21.33614 -13.750202 2.2207284 14 10
7.9184971 -5.1070356 -1.492385 1 3
19.617807 -12.657357 2.866611 42 11
11.06995 -7.1477761 -1.6179376 5 4
20.374083 -13.165457 3.842031 19 12
11.10521 -7.1787858 -1.1569053 6 5
22.157623 -14.334408 5.1297092 15 13
11.073676 -7.1693664 -0.69135809 5 6
22.68478 -14.692298 6.2396922 17 14
11.098528 -7.1937065 -0.23086044 10 7
23.541218 -15.270325 7.5186934 8 15
3.8475561 -2.5101047 -1.2309434 3 0
11.126518 -7.26436 0.23194249 8 8
4.6401763 -3.0306661 -1.2795216 3 1
11.13591 -7.27881 0.69721967 9 9
5.8670416 -3.837822 -1.3627579 5 2
21.276302 -13.922821 2.2245631 12 10
7.8892598 -5.1665206 -1.4936365 1 3
21.723303 -14.236999 3.1890771 13 11
11.089503 -7.270597 -1.6281745 5 4
26.722919 -17.533655 5.0622196 2 12
11.134774 -7.3086162 -1.1652722 7 5
22.547642 -14.811031 5.243813 1 13
11.11181 -7.3046474 -0.69690567 7 6
22.042721 -14.495888 6.090775 4 14
11.124875 -7.3215809 -0.23246606 9 7
23.850286 -15.708454 7.6522446 12 15
3.8283281 -2.5358374 -1.2304258 2 0
11.161827 -7.3962598 0.23372263 11 8
4.6416426 -3.0780644 -1.2858201 3 1
11.162666 -7.4052296 0.70203459 8 9
5.8669524 -3.8950422 -1.3688638 5 2
21.19186 -14.079838 2.2259576 17 10
7.8966842 -5.2485313 -1.5017711 1 3
21.751509 -14.46809 3.2076015 12 11
11.107879 -7.3940377 -1.6384115 4 4
29.136652 -19.402355 5.5443511 6 12
11.124928 -7.4137959 -1.1696301 7 5
20.993288 -14.000783 4.9049363 15 13
11.101705 -7.4067168 -0.69941777 9 6
22.250538 -14.8561 6.1767063 9 14
11.111731 -7.4246211 -0.23326886 10 7
24.129877 -16.12916 7.7769952 4 15
3.8205988 -2.5683041 -1.2335316 2 0
11.139786 -7.4940948 0.23435092 11 8
4.6335173 -3.1182919 -1.2894194 3 1
11.165363 -7.5197964 0.70548874 11 9
5.8542695 -3.9457819 -1.3722984 4 2
20.996416 -14.156929 2.2154989 6 10
7.8794999 -5.3167906 -1.5055255 1 3
21.248558 -14.348528 3.148129 12 11
11.128357 -7.5203094 -1.6491361 4 4
23.834045 -16.112604 4.5566239 8 12
11.152109 -7.5448689 -1.177997 7 5
20.667437 -13.992906 4.8515096 9 13
11.157214 -7.5568428 -0.70622146 5 6
24.217503 -16.414984 6.7543802 14 14
11.157266 -7.5682445 -0.23532824 9 7
24.072636 -16.33519 7.7951126 6 15
3.8053136 -2.5977561 -1.2345669 2 0
11.174718 -7.6314526 0.23620087 9 8
4.6046495 -3.1469703 -1.2876198 3 1
11.180508 -7.6468577 0.709885 6 9
5.854125 -4.0054026 -1.3787858 5 2
22.615788 -15.485352 2.3980031 2 10
7.8542886 -5.3819709 -1.5080284 1 3
20.987413 -14.386527 3.1242428 12 11
11.137789 -7.6404886 -1.6583982 4 4
22.094475 -15.168083 4.2446933 5 12
11.145151 -7.6541238 -1.1828777 7 5
20.659851 -14.199122 4.8728805 2 13
11.127537 -7.6534648 -0.70779151 9 6
22.031311 -15.158689 6.1740065 11 14
11.151921 -7.6788406 -0.23634049 10 7
20.729084 -14.284024 6.7453423 15 15
3.790261 -2.6264589 -1.2356021 3 0
11.172407 -7.7476859 0.23731782 11 8
4.5873704 -3.1823723 -1.2889696 4 1
11.172788 -7.7566171 0.71281582 8 9
5.8317623 -4.0516715 -1.3803123 5 2
21.518955 -14.956061 2.2927189 4 10
7.8619308 -5.4682555 -1.5167887 1 3
20.903481 -14.54995 3.1271677 12 11
11.129791 -7.7498188 -1.6652229 4 4
21.900526 -15.260976 4.2277985 10 12
11.17807 -7.7921305 -1.1921163 7 5
21.709879 -15.145021 5.1453557 10 13
11.144256 -7.7801242 -0.71229243 5 6
24.987698 -17.451117 7.036469 6 14
11.166881 -7.8046207 -0.23780648 7 7
24.079929 -16.842163 7.8737931 6 15
3.7749929 -2.6550786 -1.2366375 2 0
11.199548 -7.8799391 0.23902817 9 8
4.5825691 -3.2266614 -1.2939185 3 1
11.181781 -7.8761935 0.71679336 9 9
5.8200955 -4.1025839 -1.3841285 5 2
21.337498 -15.05195 2.2845263 21 10
7.84551 -5.5364485 -1.520856 1 3
21.303381 -15.044593 3.202239 19 11
11.137018 -7.8708658 -1.674485 5 4
20.470276 -14.472318 3.9706202 9 12
11.172194 -7.904501 -1.1973456 7 5
21.393721 -15.147597 5.0953636 15 13
11.164382 -7.9077482 -0.71700269 9 6
24.175264 -17.136051 6.8412113 4 14
11.177363 -7.9286671 -0.23920268 10 7
23.769371 -16.867052 7.8096061 12 15
3.763123 -2.6852007 -1.238708 2 0
11.206103 -8.0020924 0.24035454 11 8
4.5700145 -3.2645757 -1.2966179 3 1
11.180141 -7.9923935 0.72024751 8 9
5.8040867 -4.1522536 -1.3871815 4 2
21.351204 -15.280325 2.2970767 21 10
7.8387866 -5.61409 -1.5271133 1 3
21.236557 -15.220706 3.2080889 25 11
11.147717 -7.9927588 -1.6842345 4 4
20.428125 -14.657483 3.9821963 16 12
11.196039 -8.0392456 -1.2058868 5 5
20.460962 -14.69728 4.8969226 2 13
11.178638 -8.0356245 -0.72150356 5 6
20.013176 -14.396821 5.6917119 10 14
11.170207 -8.0384378 -0.24021493 9 7
20.881012 -15.037712 6.8949394 10 15
3.7411559 -2.7091403 -1.2376727 3 0
11.208257 -8.1223736 0.24161112 6 8
4.5565791 -3.3032632 -1.2993174 4 1
19.944435 -14.469218 1.2913375 4 9
5.781312 -4.1972861 -1.388708 4 2
20.144567 -14.630514 2.1781962 6 10
7.8217735 -5.6849365 -1.5314937 1 3
11.168693 -8.1264496 -1.6959339 4 4
21.117361 -15.376473 4.1373792 12 12
11.186339 -8.1512394 -1.2109419 9 5
20.410215 -14.877928 4.9095159 1 13
11.199718 -8.1699705 -0.72652781 11 6
19.926346 -14.546529 5.6957607 12 14
11.209096 -8.1858063 -0.24227431 11 7
21.181049 -15.479487 7.0295258 22 15
3.7237086 -2.7363362 -1.2381904 2 0
11.217331 -8.2489948 0.24304222 12 8
4.5239882 -3.3280647 -1.2966179 3 1
18.176624 -13.381387 1.1828974 7 9
5.7834806 -4.2608347 -1.3963403 6 2
20.075621 -14.795614 2.1818569 10 10
7.8073306 -5.7581644 -1.5364995 1 3
22.745321 -16.787685 3.4710829 1 11
11.16918 -8.2466707 -1.7047086 4 4
22.623659 -16.716198 4.4552541 7 12
11.193241 -8.2765179 -1.2179143 5 5
19.803926 -14.648786 4.7881613 6 13
11.182542 -8.2776651 -0.72914463 5 6
19.857191 -14.709644 5.7052088 3 14
11.20148 -8.3007689 -0.24335635 9 7
25.209375 -18.694839 8.4095488 18 15
3.7138069 -2.7691948 -1.2412962 3 0
11.23159 -8.3809214 0.24461293 5 8
4.5178218 -3.3723891 -1.3015668 4 1
18.836411 -14.070936 1.2321979 6 9
5.7661734 -4.3105102 -1.3993932 5 2
19.603258 -14.659777 2.1415908 11 10
7.8903017 -5.9048471 -1.5609033 3 3
22.169962 -16.603363 3.4008863 15 11
11.178059 -8.3744345 -1.7149456 4 4
26.340715 -19.748428 5.2142739 2 12
11.214872 -8.4142456 -1.2266299 7 5
22.488262 -16.878529 5.4655333 10 13
11.217104 -8.4251013 -0.73521554 9 6
20.040644 -15.063356 5.7879906 12 14
11.243951 -8.4544783 -0.24555536 10 7
23.830971 -17.931852 7.9912972 4 15
3.7067089 -2.8043787 -1.2454373 3 0
11.25571 -8.5218954 0.24642798 11 8
4.5019355 -3.4097304 -1.3038163 3 1
18.643808 -14.130917 1.2260222 12 9
5.7484536 -4.3601522 -1.4024462 5 2
19.168713 -14.544571 2.1051598 7 10
7.8913631 -5.9920416 -1.5693507 9 3
21.087791 -16.023912 3.2519619 9 11
11.195274 -8.5130844 -1.7268888 3 4
18.345947 -13.955635 3.6508679 1 12
11.230368 -8.5490532 -1.2348225 5 5
22.379404 -17.048536 5.468586 7 13
11.207258 -8.5407343 -0.73846042 5 6
19.339966 -14.749117 5.6152282 1 14
11.219727 -8.562624 -0.24635819 9 7
20.913647 -15.966569 7.050231 13 15
3.6804173 -2.8261254 -1.2433668 2 0
11.260962 -8.6502104 0.24785908 8 8
4.486691 -3.4489837 -1.3065157 3 1
17.897915 -13.768327 1.1834208 5 9
5.7256536 -4.4061637 -1.4043542 6 2
18.096493 -13.936175 1.9983069 3 10
7.8592358 -6.0567975 -1.5715408 7 3
20.881081 -16.098021 3.2373376 4 11
11.193723 -8.6358976 -1.7359071 3 4
18.430117 -14.229005 3.6877866 9 12
11.235062 -8.6771793 -1.2419693 7 5
18.340675 -14.175284 4.5057635 15 13
11.245387 -8.6976929 -0.74505478 7 6
19.253481 -14.896891 5.6201773 2 14
11.248219 -8.7093019 -0.24831285 9 7
22.344267 -17.313259 7.5740809 6 15
3.6590738 -2.850563 -1.2428491 2 0
11.266588 -8.7834377 0.24936 11 8
4.4747968 -3.48981 -1.310115 3 1
17.842293 -13.924888 1.1861422 13 9
5.706356 -4.4566898 -1.4074073 4 2
17.37232 -13.572744 1.9287566 11 10
7.8120918 -6.1078682 -1.5706023 6 3
20.390131 -15.953454 3.1788402 3 11
11.231643 -8.7909164 -1.7512627 3 4
18.190371 -14.247698 3.6596284 3 12
11.241648 -8.8082428 -1.2494646 5 5
18.434387 -14.454405 4.5534658 15 13
11.240958 -8.8203745 -0.74882293 5 6
19.317633 -15.163298 5.6696663 12 14
11.243754 -8.8320847 -0.24956942 9 7
19.934046 -15.669652 6.7940006 8 15
3.6512096 -2.8856215 -1.2469902 2 0
11.270856 -8.9107704 0.25079107 8 8
4.4503245 -3.5209646 -1.310115 3 1
16.707203 -13.222985 1.1166401 1 9
5.6958957 -4.5112743 -1.4123683 5 2
17.391127 -13.784036 1.9414812 3 10
7.7796235 -6.1682644 -1.5724794 6 3
21.223433 -16.839588 3.326546 14 11
11.229073 -8.9160194 -1.7605247 4 4
19.557793 -15.534689 3.9559155 6 12
11.264104 -8.953454 -1.2588775 7 5
18.157873 -14.443425 4.5099616 10 13
11.261928 -8.9613514 -0.75426584 7 6
20.505573 -16.328405 6.0516329 3 14
11.288166 -8.9951077 -0.25194293 9 7
23.411631 -18.662514 8.022356 6 15
3.6586175 -2.9321537 -1.2563076 2 0
11.30041 -9.0630541 0.25285047 11 8
4.4308152 -3.5548334 -1.3114647 4 1
17.636148 -14.159565 1.1853049 16 9
5.676506 -4.5607662 -1.4154211 5 2
17.433559 -14.011932 1.9568207 13 10
7.7625394 -6.2434726 -1.5777982 4 3
19.633177 -15.802411 3.0945067 4 11
11.251618 -9.059474 -1.7736866 4 4
17.999889 -14.503344 3.6611927 6 12
11.278874 -9.0944042 -1.2675931 5 5
18.221117 -14.697338 4.5504131 7 13
11.239499 -9.0723715 -0.75698733 5 6
18.49159 -14.936827 5.487906 11 14
11.276449 -9.1119528 -0.25305989 9 7
24.886604 -20.124023 8.5757113 5 15
3.6260664 -2.9478755 -1.2521666 2 0
11.300463 -9.1934643 0.25428155 8 8
4.4104242 -3.58937 -1.3128144 3 1
17.495054 -14.248289 1.1824788 7 9
5.6475716 -4.6027651 -1.4161844 6 2
17.375463 -14.166033 1.9613528 9 10
7.7646804 -6.3349757 -1.5871843 4 3
19.740726 -16.117361 3.1291175 4 11
11.251134 -9.1892872 -1.7836798 3 4
17.696306 -14.463638 3.619894 18 12
11.298388 -9.2410393 -1.2770059 7 5
18.131742 -14.835376 4.5538478 12 13
11.290244 -9.2442484 -0.76473308 7 6
18.460726 -15.126077 5.5099511 9 14
11.299169 -9.2614431 -0.25501457 9 7
18.879892 -15.486056 6.5429454 4 15
3.5964553 -2.9657431 -1.2490608 2 0
11.330089 -9.3497725 0.25641075 11 8
4.4032922 -3.6349599 -1.3182131 3 1
16.794632 -13.873989 1.1416566 17 9
5.6153011 -4.6420798 -1.4161844 6 2
17.377478 -14.370793 1.9728574 16 10
7.7674413 -6.4280705 -1.5968832 5 3
18.028521 -14.930394 2.874167 7 11
11.287598 -9.3511934 -1.7997667 4 4
20.075216 -16.643105 4.1301832 15 12
11.290334 -9.3667603 -1.2834555 5 5
18.568579 -15.410456 4.6904669 2 13
11.293036 -9.3789892 -0.76933861 5 6
20.064701 -16.675791 6.0232892 3 14
11.29882 -9.3937922 -0.25648057 9 7
18.380745 -15.292532 6.4068069 8 15
3.5934451 -3.0056522 -1.2552725 3 0
11.319742 -9.4748487 0.25766733 6 8
4.3852787 -3.6718674 -1.3204627 4 1
15.96407 -13.376464 1.0915188 3 9
5.6053219 -4.7000904 -1.4219086 6 2
17.273676 -14.489198 1.9725088 16 10
7.8055921 -6.551991 -1.614091 4 3
17.957289 -15.083984 2.879529 11 11
11.28739 -9.4846802 -1.8102474 3 4
11.31766 -9.5236034 -1.2940885 7 5
18.403465 -15.491669 4.6759653 6 13
11.332683 -9.5463867 -0.77656096 5 6
17.922916 -15.108542 5.4118724 13 14
11.333858 -9.5575266 -0.25878429 9 7
24.00201 -20.254564 8.4152422 10 15
3.5709012 -3.0294156 -1.2547548 2 0
11.361555 -9.6455317 0.26014557 9 8
4.3654795 -3.7074382 -1.3222623 4 1
16.465357 -13.993306 1.1324455 10 9
5.5753641 -4.7416515 -1.4226719 6 2
16.961168 -14.429981 1.9482795 16 10
7.8423858 -6.6767545 -1.6312988 5 3
17.739727 -15.113715 2.8614924 13 11
11.341765 -9.6662617 -1.8297465 3 4
18.954126 -16.165482 3.9455907 13 12
11.30697 -9.6502399 -1.3005379 6 5
21.003338 -17.932205 5.3682203 3 13
11.306761 -9.6602993 -0.77938718 5 6
18.01252 -15.400461 5.4712596 8 14
11.312449 -9.6754103 -0.25983143 9 7
18.400267 -15.748666 6.4896293 9 15
3.5687017 -3.0706518 -1.261484 4 0
11.334855 -9.7598429 0.26108801 9 8
4.3409672 -3.7390964 -1.3227122 3 1
16.205393 -13.968388 1.1212456 15 9
5.5510454 -4.7881532 -1.4249617 6 2
17.114944 -14.768012 1.9777381 9 10
7.8269806 -6.7584524 -1.637869 7 3
17.358912 -14.999677 2.8168881 25 11
11.275508 -9.7465029 -1.8299903 1 4
12.528666 -10.837372 2.6237192 18 12
14.026183 -12.141293 -1.6230143 6 5
18.16905 -15.732976 4.6717677 4 13
14.167295 -12.276424 -0.98245066 16 6
17.714638 -15.361145 5.4132223 15 14
14.295963 -12.401032 -0.33033916 12 7
18.298624 -15.884336 6.4927344 8 15
3.5559115 -3.1031122 -1.2645899 3 0
15.553113 -13.582191 0.36042708 1 8
4.3264985 -3.7795675 -1.3263115 4 1
16.160109 -14.127191 1.1249092 14 9
5.51896 -4.8280821 -1.4253433 5 2
16.6276 -14.551237 1.9331143 11 10
7.8316202 -6.8584795 -1.6488196 6 3
17.225405 -15.095641 2.8122571 22 11
12.381426 -10.862042 2.6087015 6 12
13.831778 -12.142962 -1.6102896 10 5
21.433912 -18.823523 5.5449095 14 13
14.022735 -12.323609 -0.9783684 14 6
20.599508 -18.116228 6.333272 17 14
14.156491 -12.454303 -0.32911751 18 7
19.84173 -17.468235 7.0833602 1 15
3.5413942 -3.1342633 -1.2671782 3 0
15.46989 -13.701048 0.36070633 12 8
4.3102169 -3.8187258 -1.3294607 4 1
16.014761 -14.198587 1.1216643 31 9
5.490994 -4.8717055 -1.4268698 5 2
16.227581 -14.402455 1.898252 9 10
7.7717319 -6.9024925 -1.6463164 5 3
17.097345 -15.195747 2.8086011 13 11
12.384491 -11.010936 -2.0347307 4 4
12.610785 -11.220018 2.6734653 13 12
13.636551 -12.141188 -1.5973904 10 5
13.415994 -11.949015 3.4921863 9 13
13.840934 -12.336156 -0.97166944 12 6
20.303829 -18.109131 6.2810831 12 14
13.845382 -12.353133 -0.32388175 12 7
19.676065 -17.56773 7.0678306 11 15
3.5179892 -3.1576195 -1.2666605 3 0
15.262284 -13.708496 0.35808849 19 8
4.29215 -3.8565381 -1.3321601 4 1
15.878118 -14.276662 1.1190475 21 9
5.4845786 -4.9348712 -1.4341204 6 2
16.291016 -14.663346 1.9176006 6 10
7.7365651 -6.9684792 -1.6491324 5 3
16.959877 -15.286828 2.8034828 9 11
12.350072 -11.135678 -2.0417993 3 4
17.829531 -16.08762 3.8035481 13 12
13.476042 -12.167994 -1.5885006 11 5
21.441448 -19.367039 5.6162724 19 13
13.689281 -12.373555 -0.9670639 14 6
12.622673 -11.41747 3.929445 10 14
13.825528 -12.509867 -0.32545248 13 7
19.688984 -17.827848 7.1170063 9 15
3.5087173 -3.1938062 -1.2713192 2 0
13.61396 -12.400786 0.32143843 10 8
4.2651219 -3.8864088 -1.3321601 4 1
15.928596 -14.524427 1.129724 10 9
5.4644957 -4.9862733 -1.4379367 6 2
16.258881 -14.841196 1.9259676 9 10
7.7110634 -7.0436368 -1.6541382 4 3
16.114281 -14.729839 2.6806383 10 11
12.2984 -11.245736 -2.0461864 3 4
17.378683 -15.902324 3.7309623 16 12
13.305538 -12.183737 -1.5783905 10 5
21.252153 -19.46719 5.6021523 19 13
13.492143 -12.367603 -0.9592135 16 6
12.96433 -11.89628 -0.30712748 7 7
19.677877 -18.069397 7.1584172 11 15
3.4792371 -3.2116721 -1.2687311 2 0
13.499146 -12.469746 0.32077524 12 8
4.2507668 -3.9279928 -1.3362092 3 1
15.583387 -14.41018 1.1123486 10 9
5.4209065 -5.0163007 -1.4356469 6 2
15.926785 -14.743203 1.898775 13 10
7.7008295 -7.1335425 -1.6625856 5 3
15.91206 -14.750212 2.6640639 11 11
12.229779 -11.34077 -2.0478926 3 4
17.270136 -16.025948 3.7315884 24 12
13.150078 -12.211252 -1.5700234 9 5
13.582825 -12.617522 3.6036191 12 13
13.349883 -12.40982 -0.95523596 14 6
12.342175 -11.481105 3.8916533 10 14
13.457745 -12.523227 -0.32087997 12 7
13.183558 -12.27667 4.8269753 6 15
3.470834 -3.2490854 -1.2739074 3 0
13.845201 -12.969713 0.33114195 17 8
4.2317729 -3.9655681 -1.3389087 3 1
15.524655 -14.55824 1.115384 12 9
5.405797 -5.0728316 -1.4409896 6 2
15.766819 -14.800849 1.8919767 12 10
7.6709962 -7.2060652 -1.6669658 5 3
13.374476 -12.572653 2.2538519 5 11
12.167664 -11.442192 -2.0508175 2 4
17.130503 -16.120403 3.7256439 16 12
12.967325 -12.211245 -1.5583447 7 5
39.770126 -37.464375 10.620429 16 13
13.180083 -12.424625 -0.94926965 12 6
12.287237 -11.591059 3.8997514 16 14
13.205645 -12.461788 -0.31693572 12 7
13.025897 -12.300764 4.8005757 11 15
3.4480669 -3.2732372 -1.2739074 2 0
12.83804 -12.195626 0.30908212 10 8
4.2195239 -4.0097814 -1.3438576 4 1
15.412513 -14.656631 1.1146513 14 9
5.3688283 -5.1090932 -1.4406079 6 2
15.599611 -14.850119 1.8843071 12 10
7.6533995 -7.290781 -1.6741619 4 3
15.845373 -15.105174 2.6879506 6 11
12.110472 -11.548778 -2.0547173 2 4
16.427332 -15.676373 3.5964289 4 12
12.795996 -12.215307 -1.5477117 8 5
11.417884 -10.907354 3.0693536 23 13
13.012176 -12.439051 -0.94340807 16 6
12.351714 -11.811805 3.9456415 8 14
13.079315 -12.516346 -0.31599328 25 7
15.915811 -15.241396 5.9046979 5 15
3.422348 -3.2945497 -1.2728721 2 0
15.334485 -14.767017 0.37159666 7 8
4.1970406 -4.0445499 -1.3456572 5 1
15.362718 -14.809717 1.1183149 10 9
5.3466439 -5.1577868 -1.4440426 6 2
12.975558 -12.525973 1.5778675 12 10
7.6092787 -7.3481951 -1.6754133 4 3
15.733625 -15.204401 2.6864879 17 11
12.089483 -11.691 -2.0649543 1 4
16.290432 -15.758984 3.5898588 13 12
12.640262 -12.236438 -1.5391705 9 5
11.38094 -11.025049 3.0800388 33 13
12.845451 -12.448107 -0.93744171 14 6
12.411647 -12.036126 3.9915316 10 14
12.469254 -12.100438 -0.30328792 8 7
12.547338 -12.180465 4.6856599 29 15
3.4192002 -3.3366575 -1.2801191 2 0
13.270987 -12.959661 0.32377702 12 8
4.1722012 -4.0757475 -1.3465569 4 1
15.06329 -14.725333 1.1039748 10 9
5.3203297 -5.2045975 -1.4467138 6 2
12.823071 -12.548512 1.5696748 12 10
7.5817871 -7.4246335 -1.6807321 4 3
15.658288 -15.344438 2.6918504 8 11
16.194117 -15.886159 3.5929871 1 12
12.487702 -12.258784 -1.5309777 8 5
11.312099 -11.112489 3.0823288 9 13
12.671336 -12.452087 -0.93105674 16 6
12.177254 -11.974912 3.9429424 21 14
12.753628 -12.550468 -0.31232825 15 7
3.3966093 -3.3623984 -1.2806368 3 0
14.294169 -14.155137 0.35114241 3 8
4.1512346 -4.1137285 -1.3492564 4 1
14.723533 -14.600698 1.0867039 13 9
5.2936215 -5.2512918 -1.4493852 6 2
12.643866 -12.551518 1.5586933 12 10
7.5634995 -7.5135021 -1.6885538 2 3
12.781099 -12.701043 2.2124164 8 11
11.947595 -11.881054 -2.0688543 1 4
15.911999 -15.834428 3.5554428 5 12
12.339687 -12.283817 -1.523308 8 5
12.528156 -12.48886 -0.9270792 12 6
12.05472 -12.021103 3.9303446 6 14
12.594926 -12.568574 -0.31058303 12 7
15.837815 -15.815717 5.997355 19 15
3.3744156 -3.3873975 -1.2811544 2 0
12.853674 -12.912134 0.31801775 10 8
4.1306615 -4.1508975 -1.3519558 5 1
14.622651 -14.704547 1.0868086 9 9
5.2545252 -5.2876449 -1.4490036 6 2
12.933649 -13.019714 1.6055831 11 10
7.5233865 -7.5787382 -1.6913697 2 3
12.589225 -12.690706 2.1948669 26 11
11.261916 -11.35666 -1.9638027 5 4
15.802459 -15.946532 3.5557559 20 12
12.175108 -12.290401 -1.5135466 10 5
17.195772 -17.370728 4.7511444 4 13
12.371838 -12.506442 -0.92195034 14 6
11.804704 -11.937305 3.8759067 1 14
12.34523 -12.492623 -0.30656895 18 7
11.669702 -11.817277 4.4501348 27 15
3.3412089 -3.401226 -1.2775309 2 0
13.573926 -13.822577 0.33815783 16 8
4.115232 -4.1935425 -1.3564548 5 1
15.243926 -15.539433 1.1408192 10 9
5.2266583 -5.3317008 -1.4512933 5 2
12.867536 -13.135308 1.6087207 12 10
7.4826822 -7.6410632 -1.6938726 2 3
15.019724 -15.348351 2.6367655 10 11
15.932439 -16.298098 3.6098821 18 12
12.011043 -12.295285 -1.5037853 10 5
12.814476 -13.126896 3.5658388 7 13
12.220862 -12.523183 -0.91703075 12 6
11.076181 -11.358113 3.6626532 4 14
11.97022 -12.283484 -0.2993786 18 7
11.582253 -11.889516 4.4475465 22 15
3.3314242 -3.4377627 -1.2827072 3 0
13.845742 -14.297679 0.34740758 3 8
4.0947247 -4.2298579 -1.3591542 5 1
13.161777 -13.605639 0.99208051 1 9
5.2097774 -5.3892317 -1.4570175 6 2
12.822134 -13.268436 1.6142987 2 10
7.4469948 -7.7115884 -1.6979399 4 3
14.814337 -15.351416 2.6194599 18 11
16.753271 -17.378845 3.8232586 6 12
11.877916 -12.330051 -1.4978585 10 5
36.641075 -38.049118 10.267815 15 13
12.041733 -12.513213 -0.91012239 16 6
12.034616 -12.518929 -0.30311337 27 7
11.508336 -11.979836 4.45117 8 15
3.3166859 -3.4707134 -1.2863307 3 0
11.574578 -12.120572 0.29253724 19 8
4.0650954 -4.2583408 -1.3591542 6 1
13.00719 -13.635049 0.98757958 13 9
5.181509 -5.4354191 -1.4596889 5 2
13.772434 -14.452374 1.7466011 11 10
7.4038754 -7.7748342 -1.7004429 4 3
14.768385 -15.519174 2.6304281 9 11
16.480465 -17.336462 3.7885301 9 12
11.718818 -12.336114 -1.4886199 9 5
10.611159 -11.174014 2.9953198 5 13
11.893588 -12.533227 -0.90551674 12 6
10.995632 -11.595082 3.6891975 8 14
12.011585 -12.670849 -0.3047539 16 7
13.326941 -14.068233 5.1924276 10 15
3.2857502 -3.4867537 -1.2837424 3 0
11.599354 -12.317545 0.29532963 12 8
4.0406103 -4.2922921 -1.3609538 5 1
12.856945 -13.667335 0.98339272 27 9
5.1582284 -5.4871945 -1.4638867 6 2
13.645278 -14.520584 1.7432891 13 10
7.3642912 -7.8421731 -1.7038844 4 3
14.598554 -15.556759 2.6194599 12 11
16.006428 -17.074949 3.7068715 7 12
11.59507 -12.373437 -1.4835651 10 5
11.496406 -12.276732 3.2693214 11 13
11.751214 -12.55762 -0.90132987 16 6
11.158744 -11.928666 3.7710793 8 14
11.881866 -12.710573 -0.30370677 12 7
11.50875 -12.32005 4.5174279 29 15
3.2771094 -3.5265894 -1.2899542 2 0
11.654062 -12.545655 0.29888994 2 8
4.0264564 -4.3375349 -1.3663527 5 1
13.038046 -14.050264 1.0045364 3 9
5.1234288 -5.5250573 -1.4646499 6 2
13.5043 -14.573111 1.738234 12 10
7.3174529 -7.8993645 -1.7054487 4 3
12.568015 -13.576974 2.2716448 6 11
10.511633 -11.363461 -1.9006745 9 4
15.499559 -16.761459 3.6158266 10 12
11.813985 -12.79373 3.3849518 23 13
