# .PCD v0.7 - Point Cloud Data file format
VERSION 0.7
FIELDS x y z intensity ring
SIZE 4 4 4 4 2
TYPE F F F F U
COUNT 1 1 1 1 1
WIDTH 1336
HEIGHT 1
VIEWPOINT 0 0 0 1 0 0 0
POINTS 1336
DATA ascii
2.7253509 3.9982109 1.1171069 5 14
2.6441107 3.8775773 -0.0819216 27 7
2.7038069 3.962146 1.2852954 6 15
1.9500921 2.8416498 -0.92346638 29 0
2.680727 3.9034045 0.082654595 14 8
2.0414717 2.9714711 -0.8323189 25 1
2.6681864 3.8807888 0.24681638 11 9
2.5539825 3.7119029 -0.87581331 15 2
2.6275589 3.8174148 0.40544853 15 10
2.6535089 3.852232 -0.74087369 9 3
2.6690378 3.8718824 0.57741702 3 11
2.7012677 3.9171741 -0.58424169 7 4
2.6703336 3.8694251 0.74462813 3 12
2.6901667 3.895251 -0.4141641 11 5
2.6827421 3.8830552 0.91740966 6 13
2.6987855 3.9033587 -0.2487005 11 6
2.7476516 3.971076 1.1148574 3 14
2.6938806 3.891907 -0.082619689 27 7
2.7182 3.924118 1.2790838 6 15
1.8848591 2.7059083 -0.88360828 24 0
2.7136321 3.8927956 0.082829125 15 8
2.0922618 3.0003059 -0.84446627 25 1
2.7123613 3.8866332 0.24838647 13 9
2.0391371 2.9197755 -0.69225508 8 2
2.7043548 3.8708403 0.41311821 9 10
2.7301416 3.9048462 -0.75463998 10 3
2.8132191 4.0206842 0.60252208 5 11
2.736517 3.9096041 -0.58594781 9 4
2.8083448 4.0092478 0.7752893 6 12
2.7321603 3.8975856 -0.41643015 12 5
2.7988343 3.9912176 0.94755751 7 13
2.7443252 3.9105818 -0.25037524 11 6
2.7573884 3.926281 1.107659 3 14
2.7347784 3.8926415 -0.083038554 29 7
2.7033074 3.8449924 1.2594135 4 15
1.9628111 2.7762876 -0.91104311 30 0
2.7580676 3.8982425 0.083352692 17 8
2.1187861 2.9935791 -0.84671575 11 1
2.7659805 3.9050889 0.25079393 22 9
2.2502034 3.1745536 -0.75636691 8 2
2.7405317 3.8648677 0.41451269 7 10
2.5229836 3.5554404 -0.69050181 7 3
2.8412223 4.0009451 0.60252208 5 11
2.8016827 3.9438086 -0.59399122 7 4
2.7687378 3.8945534 0.75683004 7 12
2.784714 3.9141319 -0.42026496 16 5
2.7549114 3.8708119 0.92351556 6 13
2.781987 3.9059682 -0.25131726 13 6
2.7745519 3.8926525 1.1036098 2 14
2.7816236 3.901134 -0.083631933 25 7
2.7199852 3.8118727 1.2547548 4 15
1.9539914 2.7232759 -0.89810216 28 0
2.8038747 3.9048829 0.083911166 13 8
2.1566882 3.0024543 -0.85346431 32 1
2.7990026 3.8937933 0.25131726 12 9
2.2826295 3.1731105 -0.75980145 7 2
2.7814121 3.865047 0.41660443 6 10
2.8328788 3.9336722 -0.76778048 9 3
2.7901616 3.8715022 0.58594781 5 11
2.8268239 3.920934 -0.59350377 7 4
2.8883228 4.0032854 0.78185952 6 12
2.8376307 3.9301336 -0.42409983 19 5
2.8979704 4.0122285 0.96205902 6 13
2.8302486 3.9155879 -0.2532014 11 6
2.8964572 4.0042415 1.1409518 3 14
2.8287196 3.9091599 -0.084225312 27 7
2.8689013 3.9617765 1.3106596 6 15
1.9422516 2.6674027 -0.88412589 29 0
2.8499098 3.9110713 0.084469646 13 8
2.2246614 3.0518899 -0.87191027 42 1
2.8520138 3.9096563 0.25362006 16 9
2.3325095 3.1951525 -0.7689603 11 2
2.8247759 3.8680625 0.41904479 6 10
2.631825 3.6012046 -0.70645815 12 3
2.9096975 3.9785104 0.60520321 6 11
2.8846056 3.9427567 -0.599841 7 4
2.845017 3.8857992 0.76277459 4 12
2.8826609 3.9343364 -0.42671451 22 5
2.8562734 3.8968914 0.93916196 5 13
2.8728702 3.9166708 -0.25456211 11 6
2.8943603 3.9430785 1.1292543 3 14
2.868959 3.9070477 -0.084609263 28 7
2.8976338 3.9432085 1.3111774 7 15
1.904573 2.5776453 -0.85876161 24 0
2.8973563 3.9184139 0.085063025 13 8
2.2690895 3.0676196 -0.88090831 23 1
2.8946865 3.9105189 0.2549808 15 9
2.3430729 3.1630151 -0.76514411 30 2
2.8564565 3.854651 0.41974208 5 10
2.9157674 3.9318147 -0.7752893 48 3
2.9634264 3.993171 0.61056548 6 11
2.9286265 3.9448364 -0.6032533 6 4
2.956893 3.9800117 0.78530115 7 12
2.920758 3.928504 -0.4282833 28 5
2.9572208 3.9761024 0.96320391 9 13
2.9216104 3.9253571 -0.25644621 10 6
2.9509192 3.9618471 1.1405019 5 14
2.9081151 3.902957 -0.084958315 24 7
2.9297111 3.9290776 1.3132479 9 15
2.0024822 2.670938 -0.89447862 11 0
2.931844 3.9076874 0.085272454 13 8
2.1149817 2.8179164 -0.81342304 13 1
2.9387112 3.9125712 0.25644621 14 9
2.3474023 3.1230409 -0.75941986 15 2
2.9048522 3.8632777 0.42287967 6 10
2.3742309 3.1552935 -0.62542504 8 3
3.0198901 4.0104437 0.6164152 1 11
2.9775922 3.9528358 -0.60764056 8 4
3.016712 4.0018611 0.79374862 1 12
2.9697111 3.9366481 -0.43142092 28 5
2.9872723 3.9584942 0.96396708 1 13
2.9682021 3.930366 -0.25812095 10 6
2.9749796 3.9364867 1.1391522 1 14
2.9594114 3.9144626 -0.085656419 24 7
2.9745514 3.9316394 1.3210124 1 15
2.0444708 2.687645 -0.90483141 11 0
2.9808536 3.9157658 0.085900746 14 8
2.3010721 3.0216868 -0.87685925 21 1
2.9841115 3.9157896 0.25801629 17 9
2.4989154 3.276736 -0.80101627 16 2
2.9535027 3.871418 0.42601725 6 10
2.3818171 3.1198003 -0.62167066 2 3
2.9851494 3.9072371 0.60374081 3 11
2.3662424 3.0960379 -0.47845906 1 4
2.9797747 3.8959723 0.77685362 5 12
3.0237608 3.9506285 -0.4352558 19 5
2.9670959 3.8751893 0.94870234 6 13
3.0113585 3.9301596 -0.2594817 11 6
2.992903 3.90325 1.135553 2 14
3.0097892 3.9238544 -0.086319603 22 7
2.9725194 3.8724661 1.3080715 4 15
2.0655463 2.6763644 -0.90586674 23 0
3.038676 3.9344254 0.086773366 14 8
2.300667 2.9777896 -0.868761 27 1
3.0260363 3.9138222 0.25927237 19 9
2.4544523 3.1722567 -0.77964556 11 2
3.0048482 3.8822162 0.4295035 5 10
3.0071456 3.8823833 -0.77779222 18 3
3.1959877 4.1232152 0.64054531 5 11
3.068985 3.9579394 -0.61495274 6 4
3.1994474 4.1232185 0.82659984 6 12
3.0793731 3.9656167 -0.43926495 12 5
3.1891847 4.1055527 1.0105245 4 13
3.0644641 3.9421544 -0.2616798 14 6
3.16606 4.069912 1.190441 1 14
3.061672 3.9343097 -0.087017693 23 7
3.0303454 3.8912473 1.3215301 3 15
1.9722302 2.518898 -0.85720873 15 0
3.082103 3.9335787 0.087227128 19 8
2.1915648 2.7960114 -0.82017154 40 1
3.0791717 3.9256022 0.26147047 21 9
2.611094 3.3264635 -0.82200515 15 2
3.0527961 3.8877831 0.4324668 6 10
2.5740461 3.275733 -0.6598407 6 3
3.2578259 4.1429343 0.64712632 6 11
3.1137242 3.9582603 -0.61836511 6 4
3.2562578 4.1364808 0.83379585 7 12
3.1168466 3.9565423 -0.44065943 10 5
3.2590849 4.1356153 1.0234995 6 13
3.109226 3.9426205 -0.26314521 10 6
3.2680366 4.1410251 1.217885 5 14
3.1064115 3.934813 -0.087506369 26 7
3.238271 4.0988932 1.3996935 9 15
1.9801549 2.4929662 -0.85306764 12 0
3.1318848 3.9401443 0.087855421 12 8
1.9733121 2.4816821 -0.73199075 10 1
3.1313725 3.9352686 0.2635639 21 9
2.62447 3.2958674 -0.81895226 13 2
3.0972412 3.8881948 0.43490714 6 10
3.0019562 3.7658751 -0.76277459 10 3
3.3114276 4.1511254 0.65200108 5 11
2.5098064 3.1451066 -0.49405837 0 4
3.3097098 4.1445189 0.8400532 6 12
3.1618059 3.9564762 -0.44309977 10 5
3.3123953 4.1434312 1.0311319 6 13
3.1628761 3.9535689 -0.26534331 10 6
3.3102641 4.1348433 1.222834 3 14
3.1513062 3.9348819 -0.087995037 26 7
3.2740567 4.0852308 1.4027992 4 15
2.1235659 2.635529 -0.90690196 22 0
3.1743801 3.9368625 0.08827427 14 8
2.2793274 2.8258128 -0.83816761 27 1
3.1876242 3.9490552 0.26597136 20 9
2.5413218 3.146122 -0.78613311 8 2
3.1455998 3.8928204 0.43787044 6 10
3.1250553 3.8646352 -0.78717828 15 3
3.1942251 3.94736 0.6234836 2 11
3.2236426 3.9822881 -0.62908959 6 4
3.1955688 3.9447951 0.80407327 3 12
3.209425 3.9590697 -0.44588876 10 5
3.168118 3.9067245 0.9777053 6 13
3.2130542 3.9593072 -0.26722744 11 6
3.1891735 3.9270782 1.1679459 3 14
3.197613 3.9360664 -0.088518605 20 7
3.1550426 3.8808961 1.3401651 6 15
2.0710056 2.5338831 -0.87687898 45 0
3.2220433 3.9393711 0.088832751 13 8
2.2002773 2.689173 -0.80217546 15 1
3.2328303 3.9483395 0.26743674 18 9
2.316854 2.8276229 -0.71057272 12 2
3.2004867 3.9046652 0.44170532 6 10
2.9314709 3.5739183 -0.73211342 18 3
3.420702 4.1673956 0.66199434 5 11
3.2677402 3.9796317 -0.63225818 8 4
3.417418 4.1589522 0.85256797 7 12
3.2648261 3.9704239 -0.44972363 10 5
3.4073403 4.1422648 1.0425804 7 13
3.2545793 3.9537413 -0.26837882 11 6
3.4159932 4.146884 1.2403802 4 14
3.2555351 3.950685 -0.089356326 21 7
3.3848536 4.1047006 1.4255754 9 15
2.0824814 2.5119262 -0.87429082 19 0
3.2813852 3.9552579 0.08970537 15 8
2.1791739 2.6257591 -0.78777856 21 1
3.2717988 3.9395037 0.26837882 18 9
2.6013124 3.129962 -0.79109418 15 2
3.2480466 3.9067409 0.44449428 6 10
3.2911503 3.9557765 -0.8150236 21 3
3.4649544 4.1617193 0.6649192 5 11
3.3177357 3.9820731 -0.63640177 19 4
3.4653406 4.1577549 0.857261 6 12
3.3179862 3.9781368 -0.45320985 11 5
3.4645705 4.1509356 1.050976 7 13
3.3051417 3.9585214 -0.2702629 11 6
3.4636052 4.1453648 1.2471286 5 14
3.3106587 3.9595037 -0.090089321 29 7
3.4456549 4.1194959 1.439034 9 15
2.1675563 2.5767915 -0.9022432 15 0
3.3359559 3.9643846 0.090438366 16 8
2.199163 2.6115887 -0.78822851 13 1
3.2960446 3.9114087 0.2680648 17 9
2.6458783 3.1387429 -0.79796326 11 2
3.3028977 3.9153793 0.44815481 6 10
3.3257444 3.939672 -0.81658798 12 3
3.5041683 4.1495633 0.6668691 4 11
3.3313608 3.942136 -0.63372064 20 4
3.5013819 4.1403923 0.85882533 6 12
3.3662665 3.9792135 -0.45599884 10 5
3.5010765 4.1356378 1.0532657 5 13
3.3617859 3.9682956 -0.27256569 10 6
3.4949806 4.1240568 1.2480285 3 14
3.3446858 3.9439216 -0.090263851 24 7
3.3937941 3.9989939 1.4053875 3 15
2.1365907 2.504281 -0.88205534 32 0
3.3811188 3.960182 0.090892136 15 8
2.1958253 2.570982 -0.78058016 15 1
3.3401401 3.90804 0.26942554 19 9
2.7397292 3.2032812 -0.81933385 16 2
3.3495805 3.9149334 0.45076951 6 10
2.7210774 3.1781001 -0.66265643 6 3
3.5854356 4.1846795 0.67661864 6 11
3.3717213 3.9338534 -0.63615805 11 4
3.5790699 4.1728258 0.87071437 7 12
3.4128222 3.9761894 -0.4584392 11 5
3.5759032 4.1647196 1.067004 7 13
3.4193449 3.9795709 -0.27497312 11 6
3.5561647 4.1358819 1.2592759 3 14
3.4047377 3.9583759 -0.091136463 23 7
3.3472736 3.8888175 1.3748468 4 15
2.1287401 2.4600868 -0.87170261 34 0
3.4270098 3.9576447 0.091380797 13 8
2.2009614 2.5408597 -0.77608109 16 1
3.366034 3.8831172 0.26932088 26 9
2.6282339 3.0298407 -0.77964556 11 2
3.4042523 3.9230547 0.45443004 6 10
2.8960285 3.3350263 -0.69957501 3 3
3.6262813 4.1730323 0.67881227 5 11
3.485055 4.009099 -0.65224481 7 4
3.623672 4.1656222 0.87446874 6 12
3.4718943 3.9883325 -0.46262267 10 5
3.6255198 4.1633425 1.0731099 10 13
3.4667289 3.9781873 -0.27654323 10 6
3.6361842 4.169704 1.2772721 5 14
3.4625261 3.969167 -0.091939278 21 7
3.5903194 4.1127605 1.4628453 9 15
2.1203773 2.4161253 -0.86134982 29 0
3.4849033 3.968183 0.092183605 16 8
2.2855272 2.6015611 -0.79947603 12 1
3.4022923 3.8700237 0.27005357 39 9
2.8542137 3.2443132 -0.83994126 16 2
3.5013206 3.9784629 0.46366853 7 10
3.1829648 3.6141794 -0.76277459 9 3
3.6710763 4.1654854 0.68173718 1 11
3.5103333 3.9816928 -0.6517573 11 4
3.5441964 4.0172753 0.84850067 3 12
3.5207531 3.9878929 -0.46541166 11 5
3.5011435 3.9642901 1.0280789 4 13
3.527483 3.9913013 -0.27916002 18 6
3.5089903 3.9675894 1.222834 1 14
3.5206275 3.9793441 -0.092742085 29 7
3.4691131 3.9183648 1.4022816 6 15
2.1282015 2.3911629 -0.85772634 20 0
3.5444436 3.9795947 0.093021333 18 8
2.2375181 2.5113378 -0.77653104 7 1
3.4425187 3.8610842 0.27110028 45 9
2.3918819 2.6808195 -0.69836092 8 2
3.552891 3.9806783 0.46680617 10 10
3.0844262 3.4533808 -0.73336488 10 3
3.5175097 3.9355073 0.64810121 6 11
3.2138789 3.5945284 -0.59204131 5 4
3.7065089 4.1425905 0.88041329 5 12
3.5910356 4.0107174 -0.47098961 10 5
3.7540298 4.1912847 1.0937172 7 13
3.5739229 3.987402 -0.28062543 12 6
3.7525995 4.1838107 1.2975177 3 14
3.5683529 3.9769962 -0.09326566 24 7
3.7209582 4.1441665 1.4923507 6 15
2.2445142 2.4866691 -0.8975845 15 0
3.6002879 3.9859154 0.093754329 16 8
2.482326 2.7472444 -0.85481399 14 1
3.5028782 3.8739929 0.27371708 49 9
2.8373218 3.1357257 -0.82200515 8 2
3.7076137 4.0961061 0.48336574 15 10
2.7530546 3.0393958 -0.64951599 11 3
3.766207 4.155005 0.68856186 3 11
3.4082386 3.7587676 -0.62299615 7 4
3.7552483 4.1385584 0.88510633 4 12
3.6363597 4.0047245 -0.47325566 11 5
3.6828754 4.0545306 1.0647143 5 13
3.6312277 3.9948683 -0.2829282 12 6
3.5981379 3.9556901 1.2345314 6 14
3.6269846 3.9860053 -0.094068475 25 7
3.5742126 3.9252524 1.4224695 9 15
2.28269 2.4937389 -0.90586674 29 0
3.6536889 3.9887021 0.09441752 13 8
2.3803222 2.5976655 -0.81342304 13 1
3.5541341 3.8759427 0.27560118 49 9
2.410495 2.6269116 -0.69301832 3 2
3.7455487 4.0803981 0.48458594 13 10
2.9091763 3.1670318 -0.68111575 7 3
3.7440734 4.0730758 0.67929977 5 11
3.685663 4.0081286 -0.66857523 6 4
3.6904178 4.010489 0.86320543 6 12
3.6925714 4.0100193 -0.47691619 10 5
3.6671968 3.9810688 1.0521209 5 13
3.6955783 4.0090699 -0.28575432 11 6
3.6586986 3.9662833 1.2457789 3 14
3.683202 3.9914486 -0.094801471 24 7
3.6487086 3.9513001 1.4411045 3 15
2.4327881 2.6207438 -0.95814812 25 0
3.7045829 3.988004 0.095010899 13 8
2.7884033 3.0006812 -0.94569421 9 1
3.615109 3.8876009 0.27821797 46 9
2.908915 3.1259854 -0.83001924 12 2
3.7576532 4.0366497 0.48249418 7 10
3.2893708 3.5311224 -0.76433885 9 3
3.8049035 4.081687 0.68514949 8 11
3.5835874 3.8429265 -0.64517635 5 4
3.8005369 4.0727253 0.88229048 8 12
3.7531106 4.019093 -0.48109969 8 5
3.7900538 4.0572309 1.0792158 12 13
3.7548468 4.0167303 -0.28816178 15 6
3.7967956 4.058764 1.2831209 5 14
3.7396712 3.9963002 -0.095534474 29 7
3.7712791 4.0272589 1.4783745 12 15
2.3993828 2.5488367 -0.93796021 13 0
3.7597578 3.9911556 0.095708996 15 8
2.5954468 2.7542229 -0.87370992 29 1
3.6640871 3.885515 0.27989271 51 9
2.7285526 2.8914216 -0.77277648 11 2
3.3234377 3.5181241 -0.76652896 10 3
3.7569382 3.9742427 0.67150015 5 11
3.82583 4.045701 -0.68368703 6 4
3.7596292 3.9729207 0.86633414 9 12
3.8166983 4.0304046 -0.48563176 7 5
3.766978 3.9765141 1.0647143 14 13
3.8075306 4.0165095 -0.29004589 13 6
3.7713912 3.9756064 1.2651247 3 14
3.8005149 4.0049071 -0.096372187 18 7
3.7394397 3.9377935 1.4550807 7 15
2.4718106 2.5893157 -0.95918339 11 0
3.8331144 4.0125246 0.096860856 16 8
2.5015182 2.6176903 -0.83591807 21 1
3.7214925 3.8915968 0.28219551 49 9
2.6794446 2.7999642 -0.75331396 10 2
3.8425829 4.0140128 0.48615471 3 10
2.7070293 2.8258262 -0.61979342 7 3
3.8409147 4.006671 0.68149346 1 11
3.875963 4.0418191 -0.6875869 6 4
3.8447206 4.0064363 0.87947464 4 12
3.8861437 4.046773 -0.49086115 7 5
3.8096101 3.9656906 1.068912 5 13
3.8728502 4.0287061 -0.29287204 20 6
3.8436356 3.9955273 1.2799715 1 14
3.8575006 4.0085359 -0.09710519 19 7
6.1440592 6.3801689 2.3733706 2 15
2.495203 2.5775471 -0.961254 13 0
3.8916419 4.0172668 0.097628765 13 8
2.4966788 2.5763712 -0.82826978 40 1
3.7735958 3.8913314 0.28407961 50 9
2.6209943 2.7008817 -0.73156172 12 2
4.0162268 4.1371961 0.50445741 0 10
2.7624786 2.8436978 -0.62792808 4 3
3.942836 4.0545092 -0.69441158 9 4
3.9323692 4.0381021 -0.4931272 7 5
3.9273691 4.0287452 -0.29486081 19 6
4.7532258 4.8725157 1.5715082 1 14
3.9147189 4.0115643 -0.097838193 16 7
3.8696401 3.9625986 1.4840684 6 15
2.4698291 2.5159504 -0.94468951 19 0
3.9518239 4.0228105 0.098431572 15 8
2.5173352 2.5616593 -0.82916957 13 1
3.8454828 3.9104614 0.28742909 49 9
2.6838503 2.727298 -0.74377352 21 2
3.9262054 3.988369 0.48964092 5 10
3.3755937 3.4266429 -0.76183593 13 3
3.9508321 4.0077853 0.69099921 10 11
3.9968419 4.0516286 -0.69879889 6 4
3.9405212 3.9931419 0.8885479 6 12
3.9898634 4.0403214 -0.49678773 7 5
3.9384298 3.9854503 1.0891378 5 13
3.9961185 4.0424199 -0.2978963 22 6
3.9429052 3.9858029 1.2943684 0 14
3.9728675 4.0132918 -0.098571189 13 7
6.1632195 6.223752 2.3469713 2 15
2.472775 2.4831548 -0.93899554 16 0
4.0094471 4.0248756 0.099164575 16 8
2.5342257 2.5422001 -0.82871968 23 1
3.9043994 3.9139519 0.28973189 47 9
2.7277884 2.7335079 -0.75064266 11 2
4.0067358 4.0123348 0.4960905 6 10
3.4447076 3.4471142 -0.77184772 7 3
4.018012 4.0194159 0.69782394 5 11
3.8004034 3.799078 -0.65980065 6 4
4.0109205 4.0067239 0.89793396 3 12
4.0447593 4.0391173 -0.50009966 10 5
4.0259123 4.0174909 1.1055473 4 13
4.0673704 4.0560298 -0.30103645 32 6
4.0432901 4.0277972 -0.099618338 11 7
6.1747384 6.1467791 2.334548 1 15
2.6726174 2.6466222 -1.0078415 13 0
4.0736823 4.0312448 0.10003719 30 8
2.6391923 2.6107867 -0.85706353 12 1
3.9657178 3.9202971 0.29224399 56 9
3.0391862 3.0022807 -0.83040082 13 2
4.3096747 4.2558556 0.52990693 8 10
3.4954038 3.4493444 -0.77779222 11 3
4.3180509 4.2581778 0.74462175 5 11
4.1131043 4.0532417 -0.70903593 18 4
4.3188372 4.2544947 0.96019489 5 12
4.1147351 4.0506043 -0.50515467 18 5
4.1021433 4.0353904 1.1185224 5 13
4.1126766 4.0443406 -0.30229253 25 6
4.080863 4.0102539 1.3209126 3 14
4.1162391 4.0421953 -0.10070039 15 7
4.0599847 3.9855611 1.5244442 7 15
2.5781329 2.5167727 -0.96539509 13 0
4.1346416 4.034831 0.10084001 15 8
2.6340892 2.5687051 -0.84941518 18 1
4.0194163 3.9169095 0.29412812 52 9
3.0080395 2.9303021 -0.81628096 16 2
4.1615639 4.0511861 0.50811797 6 10
3.5851285 3.4876065 -0.79218423 9 3
4.1313572 4.0175695 0.70757347 5 11
3.9391475 3.8279796 -0.67442501 18 4
4.3321652 4.2069669 0.95644045 6 12
4.1872301 4.0648007 -0.51055831 16 5
4.3711801 4.2404094 1.1837791 8 13
4.1830988 4.0551214 -0.30532798 24 6
4.3662572 4.2311988 1.4036945 4 14
4.1817083 4.0495291 -0.10160792 27 7
4.3480039 4.2076278 1.6212426 12 15
2.6777546 2.5777602 -0.99593574 29 0
4.2066417 4.046731 0.10188715 14 8
2.7573056 2.6515608 -0.88315785 15 1
4.081224 3.9219687 0.29664022 52 9
2.7329767 2.624495 -0.73652273 25 2
4.1983671 4.0303144 0.50916386 6 10
3.609391 3.4624906 -0.79218423 9 3
4.1943922 4.0208726 0.71342319 3 11
3.7966533 3.6383164 -0.64566386 5 4
4.2087727 4.0304313 0.92296344 5 12
4.2593923 4.0760608 -0.51578766 7 5
4.4205384 4.2287889 1.1891217 4 13
4.2488418 4.0617046 -0.30804947 17 6
4.4231963 4.2254219 1.4122428 3 14
4.230124 4.0395713 -0.10209658 13 7
4.3507185 4.1518302 1.6114074 4 15
2.6970851 2.5603347 -0.99645334 21 0
4.2768631 4.0571756 0.10289939 17 8
2.753124 2.6107929 -0.87595946 12 1
4.1519966 3.9345953 0.29978037 49 9
2.9892926 2.8307884 -0.80025297 11 2
4.5128903 4.2721052 0.54367751 8 10
3.6076453 3.4127729 -0.78655261 9 3
4.5224109 4.2751403 0.76412088 4 11
3.7151942 3.5108285 -0.62762713 5 4
4.2712746 4.0335026 0.93047231 6 12
3.7878232 3.57446 -0.45565021 6 5
4.3856869 4.1372037 1.1719489 5 13
4.3148823 4.0675616 -0.31077093 12 6
4.3490391 4.0968947 1.3793999 2 14
4.3033524 4.0524387 -0.10317863 12 7
4.3992939 4.1398902 1.6186544 4 15
2.7628455 2.5863307 -1.0140531 28 0
4.3269901 4.0477076 0.10342296 14 8
2.7100792 2.5342748 -0.85661358 25 1
4.2231445 3.9464204 0.30292055 49 9
3.16395 2.9545653 -0.84146774 11 2
4.3285098 4.0406389 0.51805371 6 10
3.7541609 3.5020392 -0.81314647 7 3
4.5826397 4.2718883 0.76923937 5 11
3.8180356 3.5578876 -0.64078909 6 4
4.5783381 4.2634006 0.99085599 6 12
4.3822703 4.0793924 -0.52380598 18 5
4.5768991 4.2575846 1.2150718 8 13
4.3899851 4.0808535 -0.31412044 13 6
4.5852451 4.2608728 1.4450855 4 14
4.3769641 4.0644798 -0.10426068 15 7
4.5088034 4.1839805 1.6481597 9 15
2.7268925 2.5171862 -0.99438286 20 0
4.4117546 4.0710516 0.10478425 18 8
2.8724017 2.6487186 -0.90205371 15 1
4.285152 3.9500737 0.30543268 52 9
3.3572674 3.0925756 -0.88726187 15 2
4.6424589 4.2734504 0.55204445 8 10
3.8055313 3.5018165 -0.8190909 11 3
4.4041181 4.0497966 0.7346285 3 11
4.2929811 3.9448361 -0.71586055 9 4
4.6247091 4.2481737 0.99461043 3 12
4.4620147 4.0958552 -0.52990693 10 5
4.6108508 4.2295089 1.2162166 4 13
4.4515166 4.0819254 -0.3165279 12 6
4.3993654 4.0312753 1.3776002 2 14
4.4524245 4.0770407 -0.10537763 14 7
4.4573808 4.0801449 1.6191721 7 15
2.7668176 2.5193768 -1.002665 15 0
4.4755654 4.0724525 0.10562197 17 8
3.1138077 2.8323545 -0.97178853 17 1
4.3451385 3.9496162 0.30773544 50 9
3.141897 2.8538992 -0.82505816 8 2
4.4782104 4.0662956 0.52920967 7 10
3.7421103 3.3955207 -0.80031884 10 3
4.4778709 4.0602875 0.74218434 4 11
3.8770237 3.5142391 -0.64249521 10 4
4.6820717 4.2409806 1.0005549 2 12
4.5333395 4.1033769 -0.53496194 10 5
4.6904836 4.2441316 1.2295732 4 13
4.518425 4.0855746 -0.31924936 10 6
4.4736695 4.042273 1.3919971 4 14
4.5171738 4.0801473 -0.10625025 11 7
4.5087013 4.0696373 1.6274542 7 15
2.7570271 2.475477 -0.99282992 6 0
4.5574694 4.0891843 0.10687853 20 8
3.1335053 2.8105469 -0.97178853 14 1
4.4172244 3.959177 0.31087559 49 9
3.597544 3.22223 -0.93878025 13 2
4.6014876 4.1199903 0.54036558 9 10
3.8128328 3.4114625 -0.81033063 9 3
4.6644511 4.1705017 0.76826441 8 11
4.2167177 3.7688582 -0.69441158 5 4
4.6644201 4.1660824 0.99054313 8 12
4.5975485 4.1034708 -0.53914541 10 5
4.6657968 4.1629219 1.2154534 10 13
4.5885768 4.0911489 -0.32218018 10 6
4.5730758 4.0744643 1.4140424 3 14
4.5858669 4.0844216 -0.10719268 15 7
4.6452312 4.1343918 1.6662771 12 15
2.7727945 2.4548895 -0.99231225 5 0
4.639823 4.1049685 0.1081351 26 8
2.9749599 2.6310995 -0.91690052 22 1
4.4926467 3.9705672 0.31422511 54 9
3.0092692 2.6576989 -0.7804088 21 2
4.6928697 4.1431479 0.5476867 3 10
3.830631 3.3795333 -0.80907917 9 3
4.6175117 4.0708852 0.75583369 4 11
3.9927294 3.5188272 -0.65346348 6 4
4.6177869 4.066833 0.97458684 3 12
4.6709538 4.1107626 -0.54437476 8 5
4.6446309 4.086154 1.2024784 4 13
4.6770267 4.1117635 -0.32636705 10 6
4.7038908 4.1324706 1.4455354 3 14
4.6608467 4.093215 -0.10827474 15 7
4.6783376 4.1056838 1.66783 11 15
2.7855005 2.4316595 -0.99075931 6 0
4.6894646 4.0908804 0.10862378 30 8
2.9947259 2.6115453 -0.91735035 23 1
4.5624185 3.9758463 0.31715593 54 9
3.2498331 2.8300226 -0.83765155 10 2
4.8013263 4.1796179 0.55692518 8 10
3.4398031 2.9922872 -0.72210157 9 3
4.8046255 4.1765976 0.78167003 4 11
4.3408494 3.7721174 -0.70611101 4 4
4.810133 4.1769657 1.0090024 5 12
4.7446833 4.1172276 -0.54960412 9 5
4.7798209 4.1462564 1.2299548 6 13
4.7508941 4.1182585 -0.32950723 10 6
4.7326279 4.0995283 1.4455354 3 14
4.7361722 4.1011558 -0.10935678 14 7
4.7214971 4.0855618 1.6730064 6 15
2.7950878 2.4058526 -0.9881711 6 0
4.7633891 4.0971646 0.10967092 32 8
3.2020216 2.7532003 -0.97493786 10 1
4.6445975 3.9907582 0.32092413 53 9
3.399101 2.9185309 -0.87085229 8 2
4.8455052 4.1589756 0.55866832 8 10
3.5130899 3.0132098 -0.73305202 9 3
4.8201017 4.1313267 0.7794764 3 11
4.6964045 4.0224667 -0.75924611 7 4
4.8076653 4.1163034 1.0024322 4 12
4.8247814 4.1280441 -0.55553067 12 5
4.7854934 4.0915341 1.2238491 5 13
4.8265934 4.1252193 -0.33275205 11 6
4.8204045 4.1170154 1.4635316 3 14
4.8201551 4.1138935 -0.11061335 12 7
4.8086886 4.1026568 1.6937119 8 15
2.8284369 2.3995371 -0.99386519 6 0
4.852881 4.1155448 0.11106712 35 8
3.2365077 2.7428157 -0.97943687 12 1
4.7065663 3.985816 0.3232269 53 9
3.3849301 2.8655541 -0.86207509 16 2
4.8949165 4.1409235 0.56093436 8 10
3.6054628 3.0479338 -0.74775684 6 3
4.9504094 4.1834245 0.79580688 4 11
4.9169884 4.152236 -0.79020089 32 4
4.9517331 4.1786165 1.0262102 5 12
4.9052639 4.1379371 -0.56145728 9 5
4.8454633 4.0845976 1.2318629 12 13
4.9048719 4.1317496 -0.33610156 11 6
4.8415761 4.0769863 1.461282 2 14
4.8915997 4.1161928 -0.11159069 12 7
4.90446 4.1240911 1.7170056 8 15
2.8480823 2.3822126 -0.99490041 6 0
4.9359083 4.1255984 0.11228879 34 8
3.0641594 2.5602195 -0.92184937 12 1
4.7833381 3.9938233 0.32657638 56 9
3.5349901 2.9494252 -0.89489418 10 2
4.9588971 4.1360011 0.56494349 8 10
3.4733946 2.8949499 -0.71615702 5 3
5.0336061 4.1923575 0.80433774 4 11
5.0007768 4.1635332 -0.79897547 42 4
4.9261179 4.0984631 1.0149469 4 12
4.9899006 4.1485872 -0.56773251 9 5
4.9116082 4.0820417 1.2414035 4 13
4.9827623 4.1382422 -0.33945104 10 6
5.0160856 4.1629558 1.5049226 3 14
4.9617701 4.1164165 -0.11253312 12 7
4.9807229 4.1292057 1.7335701 8 15
2.8542109 2.3536677 -0.99127698 6 0
5.0108871 4.12919 0.11333593 32 8
3.0353305 2.5003557 -0.90790248 29 1
4.8666167 4.0060287 0.33034459 49 9
3.6131094 2.97207 -0.90939575 11 2
5.0168929 4.1253219 0.56825542 8 10
3.6659839 3.0123436 -0.75151128 6 3
5.1057076 4.1923862 0.81116241 4 11
5.0910974 4.1788979 -0.808725 42 4
5.001955 4.1028104 1.0246458 10 12
5.0572662 4.1452231 -0.57209027 15 5
5.0705833 4.1546631 1.2742226 5 13
5.0733466 4.1539645 -0.34363794 11 6
5.087256 4.1623883 1.5175198 3 14
5.0569463 4.1361156 -0.11403403 19 7
4.9795132 4.0698824 1.7232174 8 15
2.878068 2.3397772 -0.99386519 6 0
5.0923624 4.1369767 0.11452269 32 8
2.9619479 2.4053943 -0.88090831 15 1
4.9518485 4.0185184 0.33421743 52 9
3.623096 2.938117 -0.90672439 13 2
5.1848655 4.2031159 0.58394349 8 10
3.4566824 2.8001666 -0.7045809 9 3
5.2058258 4.2140932 0.8223744 4 11
5.1834145 4.1944537 -0.81871831 36 4
5.1072769 4.1298938 1.0402893 4 12
5.1573677 4.167418 -0.58010858 24 5
5.1529202 4.1623378 1.2875792 6 13
5.1550641 4.161097 -0.34719676 11 6
5.1798954 4.1781592 1.5364157 3 14
5.1308427 4.1371112 -0.11504627 10 7
5.1236334 4.1283517 1.7630754 5 15
2.8928242 2.3184211 -0.99334759 6 0
5.1632628 4.1350751 0.11546512 25 8
2.920861 2.3383756 -0.86381203 13 1
5.0281281 4.022531 0.33746228 50 9
3.3536942 2.6810553 -0.83459854 10 2
5.1845083 4.1431866 0.58063155 8 10
3.8172784 3.0483854 -0.77372491 7 3
5.1916761 4.1429753 0.81554973 4 11
5.2622294 4.1977777 -0.826518 36 4
5.265738 4.1975656 1.0665703 5 12
5.2408781 4.1747622 -0.58620954 30 5
5.1879969 4.1311541 1.2891057 4 13
5.2293091 4.1610732 -0.35023224 9 6
5.1784315 4.1176381 1.5274177 3 14
5.2190833 4.1484756 -0.11637264 11 7
5.2128391 4.1405435 1.7837809 6 15
2.9256146 2.3113406 -0.99904156 9 0
5.261065 4.1534481 0.11700094 21 8
3.2935448 2.5992191 -0.96863925 23 1
5.0968628 4.019486 0.34018376 48 9
3.5172753 2.7718043 -0.8704707 10 2
5.3729453 4.2326498 0.59841132 8 10
3.8244963 3.0106666 -0.77090919 3 3
5.3671312 4.2220006 0.8384611 4 11
5.2749662 4.1465201 -0.8238368 28 4
5.2560816 4.1301918 1.0587486 4 12
5.3341432 4.1885214 -0.59335625 15 5
5.3548894 4.2017865 1.3230697 6 13
5.3132334 4.1676073 -0.35389575 9 6
5.3420238 4.1871743 1.5670091 3 14
5.3131809 4.1615782 -0.11780374 15 7
5.2066355 4.0766554 1.7718753 7 15
2.9725671 2.3140802 -1.0093943 11 0
5.3530564 4.1657448 0.11839712 18 8
3.2951384 2.5624256 -0.96369034 14 1
5.1885777 4.0319309 0.34437063 49 9
3.5644495 2.7688587 -0.87733978 11 2
5.3401413 4.1452255 0.59143883 8 10
4.2392788 3.2883222 -0.84975213 9 3
5.4215751 4.2038903 0.84236097 4 11
5.4073505 4.1898394 -0.83992356 27 4
5.4245124 4.2001071 1.0865939 5 12
5.4199758 4.1950817 -0.59963149 9 5
5.337502 4.1282687 1.3116212 6 13
5.4108725 4.1819992 -0.35839668 10 6
5.3479919 4.1319089 1.5602605 4 14
5.3911734 4.1622667 -0.11888579 11 7
5.3763933 4.1478577 1.8194979 7 15
3.0070419 2.307384 -1.015606 10 0
5.438272 4.1699171 0.11961879 11 8
3.2371607 2.4812686 -0.94164515 12 1
5.283195 4.046618 0.34876686 50 9
3.5888488 2.746861 -0.87848467 12 2
5.5018687 4.2095404 0.60608101 7 10
4.0644045 3.1074722 -0.81033063 9 3
5.5225024 4.2192187 0.85332924 3 11
5.3102603 4.0555973 -0.8204245 10 4
5.4835382 4.1849046 1.0925384 6 12
5.5037208 4.1972685 -0.6055581 8 5
5.5004644 4.1932673 1.3444403 6 13
5.4987206 4.1889038 -0.36226952 9 6
5.482862 4.173799 1.5908539 3 14
5.4773879 4.1681223 -0.12014236 12 7
5.4313598 4.1301036 1.8282977 5 15
3.0569749 2.3119714 -1.026994 9 0
5.5262771 4.1764617 0.12091027 26 8
3.461206 2.6148412 -1.0014821 27 1
5.3718877 4.055366 0.35274437 53 9
3.5327075 2.6649871 -0.86016703 12 2
5.4977145 4.1458383 0.60242045 8 10
3.4912422 2.6308393 -0.692379 6 3
5.8103061 4.3752007 0.89305866 3 11
5.558897 4.1843681 -0.85430413 22 4
5.6767998 4.2700143 1.1250768 2 12
5.5918174 4.2030363 -0.61200762 18 5
5.5139093 4.1429715 1.3406241 6 13
5.614078 4.2151699 -0.3679218 15 6
5.7223029 4.2933044 1.6515907 2 14
5.5751433 4.1813741 -0.12164328 11 7
5.5048914 4.1256838 1.8433093 7 15
3.1133115 2.3205924 -1.0404526 9 0
5.6114316 4.1795845 0.12213194 11 8
3.3902807 2.5242789 -0.97583771 16 1
5.4673715 4.0678349 0.3571406 53 9
3.6504846 2.7140551 -0.88420898 17 2
5.8287578 4.3319745 0.63536537 7 10
3.7791214 2.806623 -0.74556679 6 3
5.7801323 4.2895789 0.88379657 3 11
5.4620247 4.0520215 -0.83504879 9 4
5.9016576 4.3749762 1.1635597 5 12
5.69627 4.2196355 -0.62020022 8 5
5.8550944 4.33571 1.4161844 6 13
5.686718 4.2079501 -0.37074795 9 6
5.7082624 4.2208099 1.6389934 2 14
5.6781712 4.1970267 -0.1232489 11 7
5.5335603 4.087152 1.8433093 7 15
3.1730306 2.3308239 -1.0549464 9 0
5.7114029 4.1923723 0.12366775 12 8
3.176862 2.3310785 -0.90970206 34 1
5.555232 4.0732627 0.36101347 51 9
3.8372099 2.8115017 -0.92466044 15 2
5.6949067 4.1710939 0.6175856 8 10
4.0855513 2.9901736 -0.80188316 7 3
5.9733748 4.3686471 0.90865791 3 11
4.4405384 3.2464163 -0.67539996 3 4
5.6991792 4.1635351 1.1178808 6 12
5.7963953 4.2314539 -0.62786996 7 5
5.7091889 4.166265 1.3738248 6 13
5.7853484 4.2187486 -0.37524885 11 6
5.8793354 4.2841468 1.6794846 2 14
5.7703714 4.2032008 -0.12461019 11 7
5.6338048 4.1007199 1.8671206 6 15
3.2330432 2.3403316 -1.0694402 9 0
5.8199224 4.2098279 0.12537809 13 8
3.2072721 2.3191183 -0.91375118 19 1
5.6499062 4.0823426 0.36530501 47 9
3.8662946 2.7915397 -0.92695016 11 2
5.9936829 4.325964 0.64669561 7 10
4.0951118 2.9534893 -0.79969311 9 3
5.8314104 4.2026515 0.8825779 2 11
4.4179964 3.1828468 -0.66857523 0 4
6.069581 4.369472 1.1845219 4 12
5.906662 4.2490616 -0.63658553 7 5
5.9102802 4.2500954 1.4150395 6 13
5.886023 4.2295403 -0.37985441 18 6
6.0578985 4.3498359 1.7217753 2 14
5.8613048 4.2071266 -0.12593657 11 7
5.7659049 4.1355977 1.9012847 12 15
3.2744663 2.3356547 -1.0777225 9 0
5.9126778 4.2143602 0.12673938 12 8
3.2567124 2.3204191 -0.92319912 9 1
5.771008 4.1088276 0.37127131 29 9
3.7449162 2.6643243 -0.89336777 11 2
5.867867 4.173161 0.62996167 8 10
4.254108 3.0232358 -0.82659984 6 3
6.0596828 4.3032122 0.91255772 3 11
4.8836365 3.4667711 -0.73535967 10 4
5.9355955 4.2104197 1.1526093 5 12
5.9914479 4.2468958 -0.64251208 8 5
6.0359187 4.2768354 1.4379367 8 13
6.0066895 4.2529764 -0.38571605 25 6
5.8781285 4.1588664 1.6623883 4 14
5.9525728 4.2099824 -0.12726295 11 7
5.8230343 4.1153126 1.9106023 29 15
3.3286257 2.3393974 -1.0901459 9 0
6.020505 4.2281437 0.12841481 14 8
3.2824025 2.3043449 -0.92589855 8 1
6.0022998 4.2106676 0.38425064 21 9
3.721626 2.6088164 -0.88344568 11 2
6.1252918 4.2921643 0.6543653 6 10
4.168313 2.9186852 -0.80595046 6 3
6.0619268 4.241456 0.90841419 4 11
4.4359789 3.1026471 -0.66467547 0 4
6.1996174 4.332963 1.1979753 5 12
6.1026258 4.2620006 -0.65122765 10 5
5.9738727 4.1705346 1.4161844 7 13
6.1033964 4.2577868 -0.39000759 16 6
6.2395372 4.3495269 1.7559679 2 14
6.0687757 4.2289128 -0.1291129 10 7
5.9277182 4.1275506 1.9354489 37 15
3.3909357 2.3479953 -1.1051573 9 0
6.109076 4.2269711 0.12967138 12 8
3.2246842 2.2303803 -0.90520304 17 1
6.0857687 4.2061343 0.38770482 10 9
3.8915999 2.6876438 -0.91931778 7 2
6.0911627 4.2051516 0.64756715 18 10
4.2373672 2.9231646 -0.81533653 9 3
6.1060996 4.2091722 0.91060776 3 11
4.5457993 3.1324263 -0.67783737 2 4
6.2590017 4.3097415 1.2036068 5 12
6.2077332 4.271246 -0.65924603 31 5
6.1338668 4.2188449 1.4470955 6 13
6.2004566 4.2614579 -0.39429915 9 6
6.2087078 4.2639389 1.7388717 2 14
6.1904721 4.2498212 -0.13106757 22 7
6.0392284 4.1428938 1.9623661 40 15
3.455534 2.3563216 -1.1206865 9 0
6.2333593 4.247333 0.13166095 12 8
3.2615001 2.2215095 -0.91105175 15 1
6.1801028 4.2063084 0.39178702 9 9
3.8571608 2.6232929 -0.90672439 8 2
6.2298422 4.2353907 0.65907168 8 10
4.215693 2.8639069 -0.80720192 10 3
6.3101597 4.2835526 0.9364441 6 11
4.8966203 3.3227453 -0.72658509 4 4
6.2210131 4.2182808 1.1904664 5 12
6.3222599 4.2837119 -0.66813594 8 5
6.1964092 4.1968632 1.4547279 15 13
6.3118424 4.2718301 -0.39942807 9 6
6.2293754 4.212851 1.7361722 2 14
6.2969308 4.2569323 -0.13267319 12 7
6.1503615 4.1547232 1.9887657 35 15
3.5216117 2.3655345 -1.1367333 9 0
6.3375778 4.25386 0.13323167 12 8
3.6119037 2.4234421 -1.0041815 4 1
6.2872887 4.215332 0.39670658 7 9
3.3094056 2.2171273 -0.7743029 7 2
6.3321013 4.2405729 0.66674143 14 10
4.3258777 2.8948298 -0.82440978 6 3
6.3943639 4.2758112 0.94448751 8 11
4.8173757 3.2200842 -0.71147329 2 4
6.3488684 4.2405806 1.2092385 9 12
6.4199562 4.2848182 -0.67528266 70 5
6.3921371 4.2646427 1.4936529 23 13
6.402997 4.2686548 -0.40330091 61 6
6.287828 4.1887059 1.7442704 5 14
6.2515922 4.1598434 2.0120592 40 15
3.5670404 2.3600793 -1.1460507 9 0
3.6449919 2.4089117 -1.0086806 4 1
6.4165626 4.2373729 0.40298688 83 9
4.0408883 2.6665018 -0.94107002 8 2
6.4047933 4.2247868 0.67127347 61 10
4.3261886 2.8515153 -0.82065529 9 3
6.414114 4.2245116 0.94302505 20 11
4.269381 2.8108664 -0.62762713 0 4
6.3964729 4.2080932 1.2126801 23 12
6.4064269 4.2114382 -0.67075062 47 5
6.4086299 4.2112846 1.4906 27 13
6.4159465 4.2128873 -0.40225419 67 6
6.3886056 4.1917481 1.7640662 6 14
6.4075875 4.2025986 -0.13375525 74 7
6.3580379 4.1669269 2.036906 42 15
3.6206577 2.3593757 -1.1579564 10 0
6.4114332 4.1747818 0.13354582 78 8
3.6617217 2.3834045 -1.0086806 8 1
6.4225469 4.1772313 0.4015215 84 9
4.3293748 2.8136799 -1.0036553 12 2
6.4090686 4.163692 0.66865885 66 10
4.3128524 2.7997315 -0.81439793 6 3
6.4251304 4.1677465 0.94034398 27 11
4.2439294 2.7518322 -0.62104625 8 4
6.4157486 4.1568904 1.2108029 36 12
6.417273 4.1547027 -0.66883314 66 5
6.4082065 4.1472411 1.4837308 45 13
6.4217205 4.1528115 -0.40078878 66 6
6.4226265 4.1502151 1.7654159 24 14
6.4182935 4.1458273 -0.13337129 79 7
6.398335 4.1297712 2.0405295 60 15
3.6581759 2.3476069 -1.1646857 9 0
6.418539 4.1158872 0.13309206 81 8
3.7078016 2.376714 -1.0167787 10 1
6.4330525 4.1204424 0.40037012 86 9
4.2745023 2.73576 -0.9864825 16 2
6.4245534 4.1102562 0.66726434 75 10
4.5919333 2.9355335 -0.86320543 6 3
6.4306479 4.107831 0.93693155 30 11
4.3617511 2.785167 -0.63542682 3 4
6.4346189 4.1056261 1.2089256 40 12
6.425962 4.0969472 -0.66674143 61 5
6.4254141 4.0950165 1.4810596 107 13
6.416863 4.086422 -0.39869535 68 6
6.431715 4.092721 1.760017 24 14
6.4285188 4.0891156 -0.13298734 85 7
6.4074454 4.0725665 2.0343177 57 15
3.6842744 2.3282027 -1.1677916 9 0
6.4302092 4.0603004 0.132743 84 8
3.7770376 2.3840561 -1.0311756 7 1
6.4312539 4.056252 0.39848602 86 9
4.3433237 2.7372563 -0.99793106 12 2
6.4261208 4.0483131 0.66447538 65 10
4.5872374 2.8876212 -0.85851246 6 3
6.4356446 4.0480399 0.93351924 28 11
5.0028782 3.1456039 -0.72561014 6 4
6.438035 4.0448408 1.2042327 40 12
6.4307857 4.0371518 -0.66430104 61 5
6.4289002 4.0344086 1.4753352 111 13
6.4232397 4.0277276 -0.39733464 70 6
6.4452677 4.0384073 1.7559679 27 14
6.4247117 4.0239658 -0.13232414 84 7
6.4226208 4.0195355 2.0301766 62 15
3.7004387 2.3024249 -1.1677916 9 0
6.4380193 4.0026398 0.13232414 87 8
3.8399336 2.386431 -1.0437729 7 1
6.4356613 3.9965034 0.39702061 84 9
4.3289638 2.6861649 -0.99029869 15 2
6.4356036 3.991796 0.66255796 67 10
4.7617564 2.9512653 -0.88729644 6 3
6.4502468 3.9946508 0.93156934 28 11
4.7614112 2.9476016 -0.6875869 6 4
6.4392376 3.9831693 1.1992267 40 12
6.4401708 3.9806352 -0.66238362 49 5
6.4418774 3.9801407 1.4719007 105 13
6.4359064 3.9733438 -0.39639258 72 6
6.4534001 3.9810379 1.7505691 28 14
6.4254141 3.9622211 -0.13176566 80 7
6.4340773 3.9644685 2.0250003 57 15
3.7230105 2.2805729 -1.169862 9 0
6.4487505 3.9471569 0.1319751 87 8
3.9196658 2.3982151 -1.0608691 7 1
6.4463649 3.9410586 0.39597389 86 9
4.4414325 2.7131913 -1.0116693 16 2
6.439507 3.9322357 0.66011757 67 10
4.6389122 2.8304939 -0.86070251 9 3
6.4542503 3.9350519 0.92815697 27 11
4.8022146 2.9266856 -0.69051176 5 4
6.4466438 3.925786 1.1954722 40 12
4.5189514 2.749728 -0.46279699 11 5
6.4544134 3.9258859 1.4684662 108 13
6.4481258 3.918983 -0.39545053 70 6
6.4643793 3.9257722 1.7460701 28 14
6.4289861 3.9027426 -0.13127699 80 7
6.4335175 3.902421 2.0162005 64 15
3.7421515 2.2565196 -1.1708974 10 0
6.447032 3.8844957 0.13138172 90 8
4.0064268 2.413018 -1.0797651 7 1
6.453186 3.8836 0.39471781 86 9
4.468677 2.6871789 -1.0135775 13 2
6.4463105 3.8748662 0.6580258 67 10
4.6670251 2.8031268 -0.86226684 6 3
6.4662447 3.8807063 0.92596334 26 11
4.6335764 2.7797365 -0.66345674 9 4
6.4603376 3.8725622 1.1929693 40 12
6.406239 3.8370945 -0.65331942 58 5
6.4563956 3.8656054 1.4627419 101 13
6.465045 3.8677189 -0.39482248 74 6
6.4698863 3.8675451 1.7402214 27 14
6.4492092 3.8536618 -0.13113739 84 7
6.4440198 3.8475046 2.011024 64 15
3.7611363 2.2323112 -1.1719327 10 0
6.4602323 3.8312356 0.13110249 90 8
4.0701122 2.4128141 -1.0923624 7 1
6.468111 3.8313317 0.39398512 82 9
4.5076041 2.6679137 -1.0181569 13 2
6.4491968 3.8155682 0.65558547 73 10
4.6915836 2.7734902 -0.86320543 7 3
6.4675417 3.8203247 0.92230725 27 11
4.9554272 2.9259641 -0.70659852 5 4
6.4736052 3.8193359 1.1904664 41 12
6.5375681 3.8539977 -0.66395247 42 5
6.4696941 3.8124635 1.4596889 105 13
6.5125418 3.834651 -0.39607856 39 6
6.4816108 3.8133919 1.7361722 27 14
6.5035348 3.8247631 -0.13169587 45 7
6.457397 3.7945964 2.0068829 59 15
3.7949774 2.2167192 -1.1776267 10 0
6.5852637 3.843497 0.13309206 51 8
4.1541853 2.4236233 -1.1103585 7 1
6.5395632 3.8122349 0.39670658 52 9
4.5108514 2.6274865 -1.0147223 7 2
6.5314403 3.8013887 0.66116345 42 10
4.8457198 2.819144 -0.88792211 10 3
6.5335274 3.7980254 0.92791325 16 11
5.0620646 2.9402814 -0.71878546 5 4
6.5223193 3.786943 1.1945337 25 12
6.740099 3.910243 -0.68173224 21 5
6.5171914 3.7778845 1.4642683 35 13
6.7178278 3.8910573 -0.40685976 67 6
6.5063891 3.7670729 1.7357224 20 14
6.7349858 3.8962874 -0.13581464 87 7
6.4860582 3.7492583 2.0074008 60 15
3.8442447 2.2087526 -1.1879795 10 0
6.7391973 3.8689554 0.1356401 84 8
4.2322707 2.4287508 -1.126555 6 1
6.7347412 3.8617101 0.40685976 100 9
4.5602002 2.6127079 -1.0215914 2 2
6.7348433 3.8555198 0.67894322 82 10
4.961781 2.839339 -0.90544277 12 3
6.7380362 3.8526649 0.95301831 104 11
6.0292444 3.4446051 -0.85259801 9 4
6.7310801 3.8440127 1.2276978 43 12
6.7817492 3.8698151 -0.68312669 42 5
6.7453094 3.8458967 1.5092993 105 13
6.7645893 3.8537614 -0.40801117 37 6
6.7363882 3.836138 1.7897105 26 14
6.7505279 3.8410707 -0.1355703 46 7
6.7176075 3.8192353 2.0705523 60 15
3.8885441 2.1973443 -1.1967793 9 0
6.8137255 3.8471775 0.13658254 42 8
4.324214 2.4405475 -1.1463506 6 1
6.8022151 3.8359833 0.40926722 50 9
4.6010146 2.5925379 -1.0265524 2 2
6.768538 3.8123219 0.67964047 36 10
4.830482 2.7185049 -0.87791038 9 3
6.7896571 3.8179719 0.95643073 19 11
5.0304451 2.8275735 -0.70854843 7 4
6.7584152 3.795748 1.2276978 30 12
7.8743558 4.4188871 -0.78997964 7 5
6.7702823 3.7977517 1.5089177 43 13
7.8697863 4.4109063 -0.47280309 10 6
6.7823691 3.7983093 1.7946595 27 14
7.8136458 4.3740664 -0.15630375 8 7
6.7407355 3.7703588 2.0695171 64 15
3.9021003 2.1692069 -1.1962616 7 0
7.9137673 4.3957081 0.1580141 12 8
4.4041843 2.4453015 -1.1629969 11 1
7.9396057 4.4046221 0.47583854 11 9
4.6172848 2.5594018 -1.0261708 1 2
5.0152507 2.776566 -0.90794575 12 3
5.4357238 3.0056331 -0.76265842 6 4
8.0480452 4.442759 -0.80427319 8 5
8.0315666 4.4281774 -0.48065343 7 6
7.887466 4.3451385 2.0789976 29 14
7.9911346 4.4004312 -0.15923576 6 7
3.9205391 2.1437659 -1.197297 7 0
8.0706148 4.40938 0.16052724 15 8
4.4639063 2.4378462 -1.1742445 12 1
8.1507473 4.4476204 0.48661977 2 9
4.6436582 2.531806 -1.0280789 2 2
8.054471 4.3896146 0.80253005 3 10
5.1594195 2.8095052 -0.93047231 11 3
8.0960255 4.4049382 1.1316788 2 11
5.4112325 2.942955 -0.75632119 17 4
8.0725803 4.3867059 1.4551535 4 12
7.4257631 4.0318589 -0.73925501 1 5
8.1046963 4.398663 1.7924597 6 13
8.1834316 4.4376931 -0.48787585 6 6
8.0341167 4.3531003 2.109591 32 14
8.1623297 4.4207215 -0.16202815 6 7
8.031311 4.3461423 2.4468753 6 15
3.9354098 2.1163433 -1.197297 7 0
8.235074 4.4248662 0.16317999 10 8
4.4945512 2.4139993 -1.1778437 9 1
8.426218 4.5218878 0.50116915 9 9
4.6716013 2.5048919 -1.0303686 2 2
8.2974014 4.4471655 0.82362181 7 10
5.2311497 2.8013937 -0.93985838 12 3
8.2596035 4.4194822 1.150203 6 11
6.2158475 3.3245342 -0.86551613 5 4
8.2807159 4.4252038 1.4870663 4 12
7.4045162 3.9536464 -0.73437428 1 5
8.2737684 4.4159241 1.8229893 17 13
8.3587208 4.4575219 -0.49645892 9 6
8.1881399 4.3628845 2.141984 31 14
8.3341885 4.4388371 -0.16482052 6 7
8.1927738 4.359848 2.4867337 7 15
3.960335 2.0942357 -1.2004027 6 0
8.4160519 4.4466715 0.1661469 12 8
4.5388656 2.3971238 -1.1850421 9 1
8.4151878 4.4405808 0.49865705 1 9
4.7063413 2.4813731 -1.0341848 8 2
8.4234266 4.4392915 0.83303457 2 10
5.5232463 2.9083836 -0.98866594 10 3
8.4536352 4.4476743 1.1728706 9 11
5.4869337 2.8855941 -0.76119596 5 4
8.430315 4.4297714 1.5083412 4 12
8.5926809 4.5112615 -0.84907126 13 5
8.3878384 4.4018488 1.8413069 7 13
8.5452957 4.4806776 -0.50567007 6 6
8.358222 4.3788624 2.178426 35 14
8.4978371 4.4501219 -0.16743839 8 7
8.5944538 4.4968905 2.599061 7 15
3.9714313 2.064754 -1.1993675 6 0
8.58708 4.4606314 0.16890439 7 8
4.564137 2.3698683 -1.1872917 10 1
8.6090879 4.466341 0.50828689 1 9
4.7880416 2.4818857 -1.0483047 7 2
8.5798149 4.4454551 0.8454107 2 10
5.3048382 2.7462449 -0.94611579 10 3
8.6378775 4.4678922 1.1940759 5 11
6.1064849 3.1571937 -0.8440671 0 4
6.3058491 3.2574809 1.1241382 18 12
8.6102858 4.4421988 1.8832849 20 13
8.5445089 4.4007139 2.2189171 31 14
6.423636 3.3069737 -0.12611109 1 7
8.7613525 4.506588 2.6399543 6 15
3.9891894 2.0387361 -1.2004027 7 0
6.3811378 3.2583733 0.12506394 1 8
4.5840421 2.3397186 -1.1881914 10 1
4.9102077 2.5018761 -1.0712018 7 2
8.7668734 4.4650235 0.86075008 2 10
5.5809212 2.8399417 -0.99179459 10 3
8.9095135 4.5298352 1.2272245 3 11
6.3306818 3.2159078 -0.87185335 11 4
6.3125849 3.2053292 1.1213224 32 12
6.394732 3.2442336 -0.62734705 7 5
8.7329121 4.4266286 1.9031291 37 13
6.3906851 3.2379706 -0.37545818 3 6
8.7332401 4.4210491 2.2598584 30 14
6.3953876 3.2347484 -0.12509885 18 7
8.7426023 4.4200397 2.6249428 7 15
3.9984972 2.0075376 -1.1988499 6 0
6.3894339 3.2065666 0.12478471 53 8
4.5971837 2.305109 -1.1872917 13 1
6.3945961 3.2035747 0.37483016 3 9
5.0188384 2.5132468 -1.091046 7 2
6.4644227 3.2343237 0.63240206 0 10
5.6258373 2.8122985 -0.99617481 15 3
6.4530873 3.2244289 0.88574642 0 11
6.1203141 3.0554786 -0.83992356 18 4
6.3282895 3.1565485 1.1200709 34 12
6.4243574 3.2030668 -0.62804425 0 5
6.4530258 3.2117417 -0.37776098 1 6
6.4231882 3.1926887 -0.12520356 11 7
8.876091 4.4080629 2.6554835 0 15
4.0262737 1.9864138 -1.202991 7 0
6.430151 3.1696072 0.12513375 15 8
4.6236515 2.2781286 -1.1899911 16 1
6.4651871 3.1826711 0.37765631 1 9
5.1318259 2.5240583 -1.1116532 8 2
6.468967 3.1803215 0.63065898 0 10
5.6967511 2.7982104 -1.005248 15 3
6.4866881 3.1834166 0.88720888 0 11
5.5123763 2.7040651 -0.75388384 0 4
6.367909 3.1209884 1.1231996 28 12
9.0542307 4.4336629 -0.88201612 6 5
6.4574156 3.1606648 1.3974851 4 13
9.3567867 4.5757461 -0.54586405 1 6
6.4661441 3.1593399 1.6614884 1 14
6.4507098 3.1504042 -0.12530828 3 7
6.4620948 3.1531713 1.926649 6 15
4.0417819 1.9590992 -1.2035086 7 0
4.6868029 2.268719 -1.2021384 5 1
5.2447767 2.5342972 -1.1322607 7 2
9.4046116 4.542316 0.91374075 3 10
5.7303791 2.7652423 -1.007751 20 3
9.5521345 4.6053524 1.3020523 11 11
6.0407753 2.9111283 -0.82334936 8 4
9.5522757 4.5992584 1.6791677 7 12
9.3542795 4.4998999 -0.90816277 28 5
9.3350401 4.4886384 2.0134165 34 13
9.5307264 4.5786371 -0.55413318 9 6
9.3042727 4.4658504 2.3826816 5 14
9.501482 4.5584664 -0.18394837 4 7
9.3235102 4.4690795 2.7703991 3 15
4.0483832 1.9275125 -1.2014381 7 0
9.610446 4.5716028 0.1857634 3 8
4.7130876 2.240962 -1.2048379 6 1
9.8266325 4.6681333 0.57014793 6 9
5.3616648 2.5447607 -1.1536313 6 2
9.6485023 4.5773225 0.93430954 3 10
5.8602157 2.7776253 -1.0271488 1 3
9.7831984 4.632854 1.3291072 8 11
6.7230277 3.1822712 -0.91328895 21 4
9.7734451 4.6219721 1.7123318 7 12
9.138669 4.3178821 -0.88428217 13 5
9.5525503 4.5113897 2.0534863 39 13
9.7683764 4.6091495 -0.56606579 9 6
9.5802355 4.5162935 2.4452181 13 14
9.724822 4.5823741 -0.18764828 4 7
9.5624752 4.5018029 2.8319981 5 15
4.0634913 1.900021 -1.2019557 6 0
9.8287382 4.5915742 0.18935861 3 8
4.7498055 2.2179 -1.2102367 7 1
10.00016 4.6652789 0.57831234 6 9
5.493185 2.5603487 -1.1780548 6 2
9.9420948 4.6318536 0.95958471 3 10
5.7433577 2.6732934 -1.0033708 5 3
9.872901 4.5912318 1.3369068 6 11
6.6946774 3.1118259 -0.90646422 25 4
9.8502636 4.5744281 1.7201536 6 12
9.2318478 4.2833261 -0.89038306 20 5
9.7654791 4.5288405 2.0924115 46 13
9.9996548 4.6332068 -0.57757968 9 6
9.7813044 4.5278854 2.4884086 6 14
9.9670944 4.6117835 -0.19169722 6 7
9.8672266 4.5613885 2.9127498 4 15
4.0927854 1.8781459 -1.2066144 7 0
10.055843 4.6102962 0.19309342 5 8
4.7513819 2.1773598 -1.2066375 6 1
10.125904 4.636003 0.58365065 6 9
5.5845647 2.5544572 -1.1937011 7 2
10.083704 4.6102972 0.97004336 3 10
5.7497621 2.6263812 -1.0011806 2 3
10.140275 4.6276002 1.3685929 13 11
6.4969487 2.9622018 -0.87672812 13 4
10.091258 4.5988488 1.7564464 6 12
9.5487604 4.3475995 -0.91792428 8 5
9.9985628 4.5481839 2.1351528 45 13
10.259821 4.664865 -0.59066367 8 6
10.237504 4.6504011 2.5959353 8 14
10.193654 4.6261907 -0.19539714 5 7
9.9348001 4.5066237 2.9231024 5 15
4.1166887 1.8535715 -1.2097203 7 0
10.308433 4.6392832 0.19731691 7 8
4.7810588 2.1496992 -1.2102367 6 1
10.286352 4.6207132 0.59097767 1 9
5.6201735 2.5234463 -1.1975174 7 2
10.263684 4.6040745 0.98416263 4 10
5.7954483 2.5972874 -1.0058737 1 3
10.282842 4.6062026 1.3834609 8 11
6.6950388 2.9962394 -0.9006145 12 4
10.475558 4.6837463 1.8174559 5 12
9.3496857 4.1784029 -0.89596105 7 5
10.241611 4.5727129 2.1801836 41 13
10.482638 4.6759462 -0.60154951 3 6
10.260822 4.5748487 2.5936856 5 14
10.463169 4.6606951 -0.19993477 5 7
10.242128 4.5579515 3.003854 25 15
4.1383648 1.8286884 -1.2123084 9 0
10.562718 4.6631193 0.20154038 8 8
4.7995172 2.1178401 -1.2111365 6 1
10.630871 4.6865573 0.60887659 3 9
5.6524582 2.4895003 -1.2005702 7 2
10.501634 4.6230183 1.0038599 7 10
5.9544802 2.6187978 -1.0302775 1 3
10.56634 4.6427002 1.4170969 13 11
6.8430195 3.0053053 -0.91767621 16 4
10.526089 4.6184411 1.8205845 5 12
8.1549215 3.5746706 -0.77899802 1 5
10.494464 4.5980144 2.2271228 39 13
10.75837 4.7091665 -0.61547089 5 6
10.495055 4.5895371 2.6445246 8 14
10.728154 4.6892486 -0.20436768 8 7
10.44012 4.5590038 3.0525119 26 15
4.1191268 1.7859205 -1.202991 3 0
10.811538 4.6830568 0.20565915 8 8
4.8249154 2.088927 -1.213836 6 1
10.797146 4.6701117 0.6165176 11 9
5.6895261 2.4585419 -1.2047681 9 2
10.800695 4.6649356 1.0293093 6 10
6.0306578 2.6022046 -1.0402893 5 3
10.890163 4.6945539 1.4560951 14 11
7.0115032 3.0210819 -0.93741906 9 4
10.80302 4.6502819 1.8628219 11 12
6.5305648 2.8084538 -0.62194335 5 5
10.762592 4.6262016 2.2771149 41 13
11.082783 4.7592502 -0.63211375 20 6
10.827707 4.6452384 2.7201083 12 14
11.005065 4.7190533 -0.20901002 12 7
10.684783 4.5772996 3.1146286 35 15
4.1066055 1.746537 -1.195744 9 0
10.989365 4.6692414 0.20841664 13 8
4.8465548 2.0582411 -1.2156355 6 1
11.046444 4.6866674 0.62886894 9 9
5.6957059 2.4141645 -1.2024784 9 2
11.05498 4.6834612 1.050401 3 10
6.1651034 2.6093152 -1.060313 5 3
11.101853 4.6941743 1.4799815 8 11
7.0452232 2.9774683 -0.93912524 15 4
11.046321 4.663878 1.8991146 20 12
7.2347531 3.0516169 -0.68696153 11 5
10.99724 4.6363721 2.3198559 16 13
11.141508 4.692615 -0.63357919 58 6
11.111342 4.6753445 2.7830944 12 14
11.133594 4.6824203 -0.21082507 54 7
10.955137 4.6028676 3.1839921 31 15
4.1151319 1.7163373 -1.1947087 9 0
11.112144 4.6300888 0.21012698 28 8
4.85361 2.0213587 -1.213836 6 1
11.154501 4.6408854 0.63316047 66 9
5.7595558 2.3939335 -1.2124004 10 2
11.138927 4.6275659 1.0552818 43 10
6.3236547 2.624517 -1.0844039 5 3
7.1593647 2.9669697 -0.95155597 8 4
11.160743 4.6206551 1.9131937 57 12
7.2724514 3.0078878 -0.68853039 5 5
11.141827 4.6059914 2.3435161 68 13
11.138923 4.6002331 -0.63159037 65 6
11.138282 4.5931439 -0.21030149 60 7
11.162052 4.5983882 3.2347205 63 15
4.1288023 1.6882976 -1.1952263 9 0
11.1479 4.5539112 0.21019679 64 8
4.8712115 1.9888982 -1.2147356 6 1
11.15889 4.5515842 0.63159037 78 9
5.8161259 2.3699675 -1.220796 6 2
11.15251 4.5421734 1.0535386 46 10
6.4973483 2.6435878 -1.1109977 3 3
11.151599 4.5327291 1.4780315 68 11
7.2074885 2.9281266 -0.955212 7 4
11.167106 4.5322199 1.9088136 53 12
7.9081235 3.2063332 -0.74657607 3 5
11.168255 4.525878 2.3423715 113 13
11.150401 4.5141125 -0.63043898 67 6
11.180955 4.5219464 2.7844441 62 14
11.160807 4.5115252 -0.21012698 61 7
11.168803 4.5102291 3.2274735 69 15
4.1064186 1.6457753 -1.1853913 4 0
11.16828 4.471519 0.20998736 63 8
4.8940253 1.9584601 -1.2169852 7 1
11.164428 4.4631958 0.63012499 78 9
5.8288832 2.3278491 -1.2200328 6 2
11.165442 4.4568229 1.0517955 48 10
6.6606007 2.6559651 -1.1357143 12 3
11.182972 4.4547658 1.4780315 104 11
7.3697658 2.9342787 -0.97397989 17 4
11.16727 4.4417372 1.9034947 55 12
