# .PCD v0.7 - Point Cloud Data file format
VERSION 0.7
FIELDS x y z intensity ring
SIZE 4 4 4 4 2
TYPE F F F F U
COUNT 1 1 1 1 1
WIDTH 1290
HEIGHT 1
VIEWPOINT 0 0 0 1 0 0 0
POINTS 1290
DATA ascii
-4.1515474 3.1809905 1.0166303 2 13
-4.1161323 3.156137 -0.27183297 8 6
-4.1062813 3.1508601 1.19494 0 14
-4.1179123 3.1609268 -0.090612896 8 7
-4.0506744 3.1115623 1.3686352 1 15
-2.5563862 1.9743738 -0.86549091 9 0
-4.090003 3.1611133 0.090228938 9 8
-2.6254835 2.0299351 -0.76618326 10 1
-4.0707293 3.1496229 0.26973954 10 9
-3.2567773 2.5216663 -0.80063456 7 2
-3.9599242 3.0672061 0.43821907 33 10
-3.5050659 2.7168481 -0.70239085 9 3
-4.1644497 3.2302773 0.64712632 1 11
-3.5365582 2.7442236 -0.54963076 3 4
-4.1735878 3.2408686 0.83692449 3 12
-4.0951195 3.1822267 -0.45373279 4 5
-4.1710887 3.24243 1.0269341 3 13
-4.0577407 3.1565893 -0.26942554 7 6
-4.1749096 3.2500784 1.2214842 1 14
-4.0484138 3.1527376 -0.089565754 8 7
-4.1431355 3.2288287 1.4074581 3 15
-2.5121267 1.9683435 -0.85513818 9 0
-4.0379367 3.1661456 0.089565754 7 8
-2.632714 2.0650537 -0.77248192 9 1
-4.021934 3.1569996 0.26796013 14 9
-3.2483571 2.5516179 -0.80292428 10 2
-3.9039502 3.0676932 0.4343842 34 10
-3.5714169 2.8084097 -0.71959865 7 3
-4.1542764 3.2690926 0.64907616 2 11
-4.0647984 3.1998291 -0.6351831 6 4
-4.1074128 3.2356982 0.82816416 3 12
-3.9982498 3.1508338 -0.44536582 4 5
-4.0049858 3.1584089 0.99144357 2 13
-4.0261965 3.1774175 -0.26879749 8 6
-3.9905601 3.1504226 1.1737946 1 14
-4.0027676 3.1623302 -0.089042179 9 7
-3.962887 3.1330705 1.3536236 3 15
-2.592087 2.0603616 -0.88723171 9 0
-3.9802923 3.1649325 0.088762946 8 8
-2.5648623 2.0409141 -0.75673532 11 1
-3.9847252 3.1718643 0.26691341 14 9
-2.7333777 2.1773436 -0.67928004 7 2
-3.8559527 3.0737617 0.43142092 32 10
-3.5352294 2.8191059 -0.71615702 10 3
-4.060554 3.2403376 0.63786417 2 11
-3.7864163 3.0237384 -0.59496623 4 4
-4.0729461 3.2537184 0.82566124 3 12
-3.9854925 3.1861346 -0.4464117 5 5
-4.0303636 3.2243109 1.0032737 3 13
-3.9639325 3.172302 -0.26607603 7 6
-4.0004106 3.2037878 1.1832426 1 14
-3.9525063 3.1676867 -0.088413894 9 7
-3.9987447 3.2058916 1.3732939 3 15
-2.4967818 2.0124912 -0.85927927 9 0
-3.9254136 3.1662781 0.088029936 12 8
-2.7071199 2.18437 -0.80307525 10 1
-3.9391756 3.180784 0.26534331 15 9
-2.7761371 2.2432625 -0.69378155 7 2
-3.8132489 3.082401 0.42898056 31 10
-3.4279203 2.7729051 -0.69832355 1 3
-3.9390872 3.1886706 0.62226492 1 11
-3.9740121 3.218092 -0.62787092 5 4
-3.9181464 3.1751161 0.79875451 2 12
-3.9404969 3.1943693 -0.44379702 8 5
-3.939713 3.1960118 0.98610091 4 13
-3.9122269 3.1759806 -0.26408726 8 6
-3.9936383 3.2432275 1.1877415 1 14
-3.9199898 3.1856887 -0.088169552 10 7
-3.9447925 3.2081323 1.3624235 3 15
-2.5664244 2.0983498 -0.88826698 9 0
-3.8867438 3.178998 0.087645985 6 8
-2.625452 2.1489065 -0.78327954 13 1
-3.883436 3.1796873 0.26304054 15 9
-3.0645227 2.5109632 -0.77010518 7 2
-3.7685263 3.0899982 0.42636588 33 10
-3.3371832 2.7372932 -0.68361872 6 3
-3.9986138 3.2821608 0.6351831 3 11
-3.8870237 3.1928363 -0.61763388 4 4
-3.9880164 3.2769585 0.81752664 3 12
-3.8442326 3.1610594 -0.43543008 7 5
-3.9718797 3.268348 0.99983919 4 13
-3.8658466 3.1822267 -0.26241252 8 6
-3.9724028 3.2722681 1.1881914 1 14
-3.8652506 3.1862669 -0.087436557 10 7
-3.9362779 3.245971 1.3670822 3 15
-2.5550563 2.1182363 -0.88930225 9 0
-3.8490663 3.1932862 0.08729694 8 8
-2.715734 2.2538455 -0.81477273 9 1
-3.8288777 3.1799233 0.26084244 10 9
-2.9729347 2.4708085 -0.75140589 8 2
-3.724426 3.0964713 0.42375124 35 10
-2.9489889 2.4535189 -0.60759157 1 3
-3.9450912 3.2845933 0.63030833 2 11
-3.6974137 3.0794752 -0.59082258 5 4
-3.8132987 3.1782477 0.78623968 3 12
-3.7348566 3.1150806 -0.42549434 7 5
-3.8214071 3.1883981 0.96740162 3 13
-3.8251381 3.1937778 -0.26115644 10 6
-3.8268359 3.1974614 1.1512995 1 14
-3.8189237 3.1919837 -0.086878076 15 7
-3.8335025 3.2064414 1.3391298 3 15
-2.4529696 2.0626667 -0.85876161 10 0
-3.7991371 3.1969051 0.086668648 9 8
-2.6224093 2.2074907 -0.79137778 9 1
-3.7882533 3.1911361 0.25958636 9 9
-3.0591874 2.5788126 -0.7777375 11 2
-3.6722543 3.0967095 0.42026496 36 10
-2.9136727 2.4587584 -0.60383707 4 3
-3.8871822 3.2825968 0.62470233 2 11
-3.5150833 2.969424 -0.56498629 5 4
-3.8604109 3.2634552 0.80063164 3 12
-3.7464833 3.1693873 -0.42932916 10 5
-3.8530059 3.2606559 0.9811399 4 13
-3.7814112 3.2023332 -0.25969106 8 6
-3.7895536 3.2115006 1.1468004 1 14
-3.7645154 3.191411 -0.086145081 11 7
-3.7417867 3.1743877 1.3148009 3 15
-2.4223411 2.0659516 -0.85306764 9 0
-3.740222 3.1921933 0.085830934 9 8
-2.7136421 2.3168499 -0.82377076 10 1
-3.7506986 3.2045307 0.25853965 8 9
-2.9321785 2.5069728 -0.74987942 8 2
-3.6172359 3.0937803 0.41643015 36 10
-3.5282488 3.0198054 -0.73555493 6 3
-3.7516558 3.2121508 0.60642189 1 11
-3.3224177 2.8466511 -0.53720009 6 4
-3.7955446 3.2543244 0.79187137 3 12
-3.7399464 3.207787 -0.43107229 15 5
-3.8212097 3.279803 0.97885019 5 13
-3.7301762 3.203928 -0.25770226 7 6
-3.8415096 3.3007212 1.1692957 1 14
-3.7239478 3.2019696 -0.085726224 11 7
-3.7962513 3.265291 1.341718 3 15
-2.4754429 2.1405165 -0.87687898 9 0
-3.6926999 3.1953342 0.085237555 8 8
-2.5607824 2.2166541 -0.78192985 12 1
-3.6970968 3.2025254 0.25634155 7 9
-2.8735082 2.4908669 -0.7391941 6 2
-3.5810406 3.1052778 0.41468704 35 10
-3.3867636 2.9388833 -0.71021259 1 3
-3.8016596 3.3000746 0.61812133 3 11
-3.3674057 2.9251773 -0.54768091 5 4
-3.7822502 3.2878604 0.79374862 3 12
-3.7105083 3.2266319 -0.43020076 15 5
-3.7706571 3.2812502 0.9715994 4 13
-3.6766512 3.2017002 -0.25550416 8 6
-3.7454832 3.2627914 1.1468004 1 14
-3.6809638 3.2088473 -0.085237555 12 7
-3.6778417 3.2072554 1.3075538 1 15
-2.4680786 2.1636841 -0.87946719 7 0
-3.6528265 3.2045696 0.084818691 8 8
-2.503159 2.1967568 -0.76888269 22 1
-3.6376951 3.1946673 0.25372472 9 9
-2.5571237 2.2472789 -0.66172564 7 2
-3.538872 3.1111629 0.41224664 32 10
-3.37113 2.9657822 -0.71115112 6 3
-3.7368097 3.2898071 0.61129665 2 11
-3.2565432 2.8679996 -0.53281283 7 4
-3.6338155 3.2025115 0.76715469 1 12
-3.2699955 2.8828886 -0.38139355 6 5
-3.665792 3.2341046 0.95022881 2 13
-3.6397991 3.2134342 -0.25445744 8 6
-3.7100427 3.2766001 1.1427513 1 14
-3.6380591 3.2152891 -0.084748887 12 7
-3.7031159 3.2750869 1.3246359 3 15
-2.4182634 2.1500552 -0.86704385 9 0
-3.6115041 3.2120829 0.084364928 9 8
-2.5125082 2.2362037 -0.77653104 11 1
-3.599457 3.2047451 0.25257334 7 9
-2.7777686 2.4749007 -0.72316611 8 2
-3.4947586 3.1159058 0.409632 34 10
-3.3287516 2.9689376 -0.70645815 7 3
-3.6165845 3.2279253 0.59520996 4 11
-3.5295873 3.1524897 -0.58107305 7 4
-3.6900041 3.2969275 0.78373677 3 12
-3.523082 3.149997 -0.41346684 10 5
-3.6782391 3.2910361 0.95938772 4 13
-3.5970073 3.2194855 -0.25299203 8 6
-3.6609483 3.2790179 1.1346531 1 14
-3.5887208 3.216584 -0.084120601 14 7
-3.6246419 3.2499216 1.3044481 3 15
-2.3992674 2.1625857 -0.86549091 16 0
-3.5696886 3.2198052 0.083911166 9 8
-2.5348461 2.2871966 -0.78822851 12 1
-3.5621715 3.2164121 0.25152662 7 9
-2.8638475 2.5876844 -0.75026101 7 2
-3.4483409 3.1169093 0.40666869 36 10
-3.2390897 2.9298234 -0.69175333 6 3
-3.5468662 3.2104654 0.58741027 1 11
-3.3839059 3.0651119 -0.56059903 6 4
-3.5497916 3.2164962 0.75870728 7 12
-3.5644708 3.232065 -0.42096224 6 5
-3.5519445 3.2229667 0.93229276 7 13
-3.5552177 3.2270682 -0.25163129 8 6
-3.5456479 3.2206395 1.1058594 2 14
-3.5380626 3.2160027 -0.083457403 12 7
-3.52897 3.2088642 1.2780485 2 15
-2.3523662 2.1510189 -0.85410291 22 0
-3.5117106 3.2122564 0.083073452 8 8
-2.5730376 2.3552771 -0.80532479 13 1
-3.5096102 3.2148368 0.24943319 7 9
-2.7733393 2.541297 -0.73118013 7 2
-3.4024541 3.1199598 0.4038797 36 10
-2.5572584 2.3465815 -0.54971075 5 3
-3.6223474 3.3250892 0.60374081 5 11
-3.3770452 3.1020896 -0.56303644 6 4
-3.6139421 3.3220253 0.77747941 2 12
-3.4640913 3.185394 -0.41172373 6 5
-3.5900352 3.3035188 0.94832075 3 13
-3.5129344 3.2348385 -0.25027055 8 6
-3.4757786 3.2017429 1.0910126 1 14
-3.4964097 3.223006 -0.08300364 11 7
-3.474678 3.2052178 1.2666605 2 15
-2.3103781 2.1424305 -0.84426773 10 0
-3.4710441 3.2209806 0.082654595 9 8
-2.5293956 2.3479927 -0.79677659 10 1
-3.4783001 3.2311049 0.24880517 7 9
-2.8010976 2.6038504 -0.74339187 7 2
-3.3630807 3.1273558 0.40178797 35 10
-3.2103624 2.987432 -0.69456911 6 3
-3.5679529 3.3225155 0.59862226 1 11
-3.5028927 3.2642148 -0.58789778 7 4
-3.4750674 3.2394185 0.75244987 0 12
-3.4703465 3.2372823 -0.41520998 6 5
-3.5734782 3.3358231 0.95022881 2 13
-3.4508531 3.2224786 -0.24744442 8 6
-3.6336031 3.3955114 1.1481502 2 14
-3.4542689 3.2301872 -0.082549877 10 7
-3.5636692 3.3336565 1.3075538 6 15
-2.3329794 2.1946483 -0.858244 11 0
-3.4266298 3.2245779 0.082131028 9 8
-1.9790956 1.8637017 -0.62761348 5 1
-3.4289272 3.231256 0.24692108 7 9
-2.5928509 2.4442339 -0.69263667 8 2
-3.3246741 3.1363027 0.39987054 34 10
-3.1601746 2.9832075 -0.6883117 9 3
-3.5879683 3.388231 0.60593444 2 11
-3.4194221 3.2313249 -0.57766074 7 4
-3.6125467 3.4162152 0.7874912 3 12
-3.4331887 3.2477381 -0.41346684 6 5
-3.6042824 3.4119763 0.96473032 6 13
-3.4103055 3.230607 -0.24618836 8 6
-3.5843494 3.3966672 1.140052 2 14
-3.417125 3.2404633 -0.082200833 9 7
-3.5453289 3.3643918 1.3096244 6 15
-2.3225687 2.2140708 -0.85979694 10 0
-3.3915789 3.235405 0.081816882 8 8
-2.3431122 2.2359989 -0.74773729 7 1
-3.3871987 3.2346151 0.24545565 7 9
-2.8245435 2.6991918 -0.75941986 8 2
-3.2879581 3.1431386 0.39795309 31 10
-3.2202549 3.080569 -0.70583236 13 3
-3.4185586 3.2725582 0.58107305 1 11
-3.1341114 3.0013065 -0.53281283 5 4
-3.4186628 3.2760897 0.74994689 0 12
-3.3871222 3.2469974 -0.41050354 11 5
-3.5574887 3.4127014 0.95824283 6 13
-3.3729553 3.2379396 -0.24503697 8 6
-3.4998972 3.3609741 1.1202562 2 14
-3.3609536 3.2298014 -0.081363119 9 7
-3.4978733 3.3637273 1.3003069 3 15
-2.1112115 2.0409107 -0.78680992 9 0
-3.3493528 3.2389543 0.081328213 8 8
-2.2700291 2.1967402 -0.72929132 11 1
-3.3507528 3.2437048 0.24440894 7 9
-2.6791959 2.5954146 -0.72507423 11 2
-3.2401853 3.1410542 0.3948155 30 10
-3.155251 3.0597866 -0.69613349 10 3
-3.5187185 3.4146414 0.60203457 3 11
-3.3622997 3.2651284 -0.57546705 20 4
-3.4983006 3.3983855 0.77247345 3 12
-3.3415132 3.2483454 -0.40771458 7 5
-3.3168631 3.2266335 0.89947367 5 13
-3.3422489 3.2524662 -0.24440894 8 6
-3.3255677 3.2384923 1.0716668 1 14
-3.3197055 3.2350433 -0.080909356 9 7
-3.3337984 3.2499096 1.2475078 1 15
-2.2048938 2.1606998 -0.82718569 10 0
-3.3038149 3.2398565 0.08076974 8 8
-2.2731085 2.2298815 -0.73514003 11 1
-3.3080719 3.2474301 0.24294353 7 9
-2.7142322 2.6663361 -0.73957568 7 2
-3.1988349 3.1434863 0.39237517 32 10
-2.9873338 2.9376936 -0.66359508 11 3
-3.4198046 3.3653288 0.58911645 1 11
-3.2636063 3.2127383 -0.56230521 9 4
-3.2957697 3.2466679 0.73273909 1 12
-3.3051336 3.25703 -0.40597141 6 5
-3.4625697 3.4145567 0.94526786 5 13
-3.2995594 3.256079 -0.24294353 8 6
-3.4615462 3.417124 1.1229557 2 14
-3.2848055 3.2449162 -0.08059521 9 7
-3.4099464 3.3708916 1.2847778 4 15
-2.0006533 1.9881215 -0.75575161 7 0
-3.2561579 3.2368929 0.080141447 8 8
-2.2284729 2.2168345 -0.72569209 9 1
-3.2604079 3.2445138 0.24105945 7 9
-2.7433188 2.7318506 -0.75255072 7 2
-3.1641104 3.1530836 0.39080635 33 10
-3.2064965 3.1964374 -0.71709567 7 3
-3.3771436 3.3689003 0.58570409 1 11
-3.2818389 3.2761159 -0.56937367 7 4
-3.4357374 3.4309416 0.76903194 5 12
-3.2668128 3.2645328 -0.40405402 6 5
-3.4206004 3.4205997 0.94030684 6 13
-3.2490788 3.2502127 -0.24085009 8 6
-3.4238331 3.4274199 1.1184566 2 14
-3.2352293 3.2408803 -0.079932027 8 7
-3.3841941 3.3912883 1.2837424 5 15
-2.0510416 2.0661316 -0.78008062 7 0
-3.2236233 3.2496083 0.079897113 9 8
-2.2297981 2.2485569 -0.73109096 5 1
-3.2236197 3.2530093 0.24001274 7 9
-2.6896441 2.7160609 -0.74301028 2 2
-3.1257544 3.1575563 0.38871458 34 10
-3.2285583 3.2636843 -0.72710747 7 3
-3.3326075 3.3712196 0.582048 2 11
-3.1701624 3.2080121 -0.55377436 7 4
-3.3936563 3.4365726 0.76496464 4 12
-3.2271495 3.270241 -0.40196225 6 5
-3.3724201 3.4186463 0.93343765 6 13
-3.2066798 3.252903 -0.2393847 8 6
-3.380676 3.4318037 1.1121581 2 14
-3.2046759 3.2542777 -0.079722598 8 7
-3.359081 3.413455 1.2832248 5 15
-2.0946777 2.1397614 -0.80233908 9 0
-3.1896722 3.2605979 0.07961788 9 8
-2.1786213 2.2278438 -0.71939349 7 1
-3.1868722 3.2611496 0.23896599 7 9
-2.6774755 2.7417951 -0.74491841 7 2
-3.0911081 3.166471 0.38714582 36 10
-1.9752817 2.024853 -0.44802836 4 3
-3.1898236 3.2721589 0.56108648 5 11
-3.1837108 3.2670288 -0.56011152 7 4
-3.3116999 3.4007416 0.75182414 3 12
-3.1847866 3.2727017 -0.39952192 6 5
-3.3115103 3.4041107 0.92313397 4 13
-3.1755383 3.2666185 -0.23875666 9 6
-3.3050361 3.4022057 1.0950617 1 14
-3.1540165 3.24788 -0.079024501 8 7
-1.966983 2.0375814 -0.75885749 8 0
-3.1390634 3.2540035 0.078919783 10 8
-1.9682223 2.0410025 -0.65460753 4 1
-3.1279933 3.2459273 0.23624454 7 9
-3.0357642 3.1535239 0.38296232 30 10
-3.1703496 3.2956312 -0.72429162 27 3
-2.7541869 2.8650239 0.4879649 1 11
-3.1553235 3.2834504 -0.55913663 6 4
-2.7405822 2.8538611 0.6266765 19 12
-3.1301329 3.2617917 -0.39551273 8 5
-2.7481005 2.8646927 0.7716316 22 13
-3.118103 3.2526629 -0.23613985 8 6
-2.7325399 2.8524535 0.9119516 25 14
-3.0358341 3.1701648 -0.076616064 6 7
-2.7087133 2.8305466 1.0497701 42 15
-2.0872419 2.1925855 -0.81113893 10 0
-2.7289765 2.8687129 0.069111533 36 8
-2.2883079 2.406322 -0.76663321 6 1
-2.74754 2.8912568 0.20902982 47 9
-2.4483128 2.5781808 -0.69111025 10 2
-2.718755 2.8639674 0.34548536 33 10
-2.7638826 2.913543 -0.63606256 36 3
-2.734118 2.8841822 0.4879649 37 11
-2.7704816 2.9235632 -0.49454582 40 4
-2.7110837 2.8628843 0.62448645 36 12
-2.7484891 2.9044137 -0.34984317 38 5
-2.7024009 2.8567092 0.76438087 33 13
-2.738589 2.8969889 -0.20892516 34 6
-2.7018535 2.8601274 0.90835232 26 14
-2.7239354 2.8845112 -0.06925115 31 7
-2.6756275 2.8353376 1.0445937 49 15
-2.1644378 2.3056982 -0.8473736 10 0
-2.7088821 2.8876958 0.069111533 53 8
-2.1234889 2.2644515 -0.71669406 9 1
-2.7095337 2.8914227 0.20766909 54 9
-2.5953135 2.7714717 -0.73804927 11 2
-2.6878009 2.8712425 0.34409088 36 10
-2.7326803 2.9212267 -0.63355964 46 3
-2.6813822 2.8683953 0.48211515 37 11
-2.7310288 2.9225283 -0.49113351 38 4
-2.6856389 2.8759658 0.62323499 39 12
-2.7050366 2.8987675 -0.34687987 43 5
-2.6703393 2.8625851 0.76094633 40 13
-2.704679 2.9014277 -0.20787844 48 6
-2.6711938 2.8675132 0.90475315 28 14
-2.7091823 2.9093113 -0.069390766 50 7
-2.6452394 2.8426337 1.0404526 49 15
-1.9999951 2.1605535 -0.78888047 9 0
-2.6777935 2.8947926 0.068832293 55 8
-2.0560296 2.2234204 -0.69914788 12 1
-2.666239 2.8853309 0.20588967 48 9
-2.6624756 2.8832765 -0.7628544 17 2
-2.6568797 2.8782244 0.34269637 42 10
-2.6934686 2.9199054 -0.62917954 43 3
-2.6559093 2.8812075 0.4811402 42 11
-2.6863463 2.9152458 -0.48674619 42 4
-2.6521137 2.8801146 0.62010628 46 12
-2.6725922 2.9043856 -0.34531105 44 5
-2.6436431 2.8739338 0.75903821 48 13
-2.6694896 2.9040642 -0.20672706 50 6
-2.6445189 2.8789151 0.90250361 40 14
-2.6658127 2.9031148 -0.068797387 51 7
-2.6292479 2.8653021 1.0420054 64 15
-1.9536048 2.1402204 -0.77645719 11 0
-2.6615622 2.9178481 0.068937011 60 8
-2.1730733 2.3831582 -0.74458802 10 1
-2.6393056 2.8964925 0.20536631 56 9
-2.6039495 2.8596969 -0.75178748 16 2
-2.6407447 2.901123 0.34321931 38 10
-2.6663718 2.9313316 -0.62761515 48 3
-2.63306 2.8967404 0.48065275 42 11
-2.660589 2.9280524 -0.48577127 49 4
-2.6332707 2.9000213 0.62041914 35 12
-2.6581173 2.9284115 -0.3460083 51 5
-2.6367059 2.9068608 0.7628544 29 13
-2.6558566 2.9300296 -0.20725042 60 6
-2.6418719 2.9156225 0.90835232 24 14
-2.6334004 2.9083142 -0.068483248 49 7
-2.6234384 2.8993454 1.0476996 42 15
-1.9670491 2.1853957 -0.78784519 9 0
-2.6456518 2.9403565 0.069041722 44 8
-1.9505172 2.1693118 -0.67350346 7 1
-2.6475658 2.9455841 0.20756441 45 9
-2.0727868 2.3077257 -0.60295647 7 2
-2.6337349 2.9343152 0.34496242 33 10
-2.6503155 2.9538236 -0.62855375 25 3
-2.6490619 2.9545019 0.48723367 40 11
-2.6652513 2.9746461 -0.49040228 33 4
-2.6345568 2.9414213 0.62542504 50 12
-2.6495671 2.9602585 -0.3475771 40 5
-2.6399062 2.9515386 0.76972359 46 13
-2.6478326 2.9614391 -0.20819245 41 6
-2.6383309 2.9528873 0.91420108 50 14
-2.6396697 2.9564602 -0.069181338 45 7
-2.6165061 2.9315481 1.052876 67 15
-1.9033889 2.1438382 -0.76817495 11 0
-2.6462941 2.9826884 0.069600195 60 8
-2.0882866 2.3545752 -0.72659194 7 1
-2.6521075 2.9923954 0.20955318 63 9
-1.8171191 2.0517142 -0.53273875 9 2
-2.6348331 2.9760423 0.34775141 47 10
-2.659734 3.0062828 -0.63574976 48 3
-2.6375754 2.9833333 0.48893982 42 11
-2.6712334 3.0224674 -0.49527705 49 4
-2.6270347 2.9745476 0.62855375 45 12
-2.6393838 2.9906337 -0.34897158 41 5
-2.6093645 2.9576612 0.76667058 36 13
-2.6535099 3.0098157 -0.21028589 52 6
-2.6176524 2.9712336 0.91420108 33 14
-2.6432736 3.0013716 -0.069809623 63 7
-2.5883193 2.9410415 1.0497701 57 15
-1.846384 2.1091065 -0.75109291 8 0
-2.61619 2.990555 0.069355868 52 8
-1.9871297 2.2722793 -0.69689834 7 1
-2.6153808 2.9927909 0.20829713 50 9
-2.4768467 2.8362627 -0.73194337 10 2
-2.5982687 2.9763529 0.34565967 37 10
-2.6386819 3.0247772 -0.63574976 48 3
-2.602335 2.9852147 0.48625872 44 11
-2.640939 3.030566 -0.49357089 39 4
-2.5854478 2.9689808 0.62354785 44 12
-2.622364 3.0134966 -0.34949452 36 5
-2.5783443 2.9639559 0.76361769 37 13
-2.6127777 3.0056572 -0.20871581 51 6
-2.5776768 2.9673676 0.90745258 32 14
-2.5986557 2.9925745 -0.069181338 42 7
-2.5550632 2.944448 1.0445937 50 15
-1.8316141 2.1219456 -0.75109291 13 0
-2.5808806 2.9920902 0.06897191 52 8
-1.9928516 2.3111863 -0.70454669 11 1
-2.5709565 2.9837415 0.20641303 51 9
-2.2750814 2.6422262 -0.67775363 7 2
-2.5683284 2.9838493 0.34443948 33 10
-2.600755 3.0236564 -0.63168246 40 3
-2.549082 2.9656744 0.48016527 37 11
-2.59255 3.0173111 -0.4884524 35 4
-2.5003161 2.9120216 0.60790437 20 12
-2.5836246 3.0101101 -0.34705415 45 5
-2.4745097 2.8850205 0.73881245 24 13
-2.5696354 2.998044 -0.20693639 47 6
-2.4762709 2.8901346 0.87865883 32 14
-2.5646954 2.9954531 -0.068832293 45 7
-2.4515543 2.8653326 1.0104296 46 15
-1.8868726 2.2170663 -0.78008062 19 0
-2.4801161 2.9151578 0.066807814 50 8
-1.8996724 2.2344749 -0.67710268 7 1
-2.4820368 2.9205122 0.20086543 59 9
-2.0816653 2.4511445 -0.6250903 10 2
-2.4700832 2.910562 0.3339808 45 10
-2.4983265 2.9448833 -0.61165881 30 3
-2.459518 2.9011903 0.46700338 46 11
-2.4905837 2.9399145 -0.47309685 43 4
-2.4459686 2.888272 0.59945697 46 12
-2.4853232 2.9368212 -0.33659548 45 5
-2.450505 2.8977282 0.73766762 41 13
-2.4769619 2.9300504 -0.20107476 50 6
-2.4384277 2.8865106 0.87236023 36 14
-2.4663253 2.9216027 -0.066738002 48 7
-2.4257641 2.8745716 1.0078415 47 15
-1.9189351 2.2860856 -0.79975086 10 0
-2.448138 2.9186127 0.066493668 51 8
-1.9382592 2.311564 -0.6964485 6 1
-2.4474771 2.9209292 0.19971403 52 9
-2.4174087 2.8870904 -0.73194337 20 2
-2.4259169 2.8982794 0.33066887 38 10
-2.4663005 2.9486165 -0.60884303 39 3
-2.4353848 2.9137208 0.46627215 47 11
-2.4628778 2.9476593 -0.47163439 44 4
-2.419415 2.897696 0.59789258 45 12
-2.4474015 2.9322555 -0.33415511 45 5
-2.4194067 2.9007719 0.73423308 40 13
-2.4487734 2.938066 -0.20044672 54 6
-2.4137335 2.8970528 0.87056059 36 14
-2.4348662 2.9244919 -0.066423863 55 7
-2.3871033 2.8691604 1.0000768 46 15
-1.8450387 2.2294774 -0.77542186 8 0
-2.4167445 2.9213407 0.066179529 52 8
-1.9481479 2.3565814 -0.70589644 9 1
-2.4186337 2.9267428 0.19898133 59 9
-2.0214193 2.447823 -0.61707634 13 2
-2.3929429 2.8997777 0.32892576 37 10
-2.4273171 2.9424787 -0.60415 43 3
-2.4104443 2.9241033 0.46529719 49 11
-2.4321434 2.9525228 -0.46968448 45 4
-2.3858221 2.8973236 0.59445107 48 12
-2.4116807 2.9308074 -0.33206338 46 5
-2.3791454 2.8933294 0.72812718 45 13
-2.4223764 2.9469516 -0.19992337 56 6
-2.3847911 2.9032922 0.86741126 37 14
-2.3978965 2.9213254 -0.0659701 49 7
-2.3577149 2.873395 0.99593574 52 15
-1.8285999 2.2404871 -0.77490425 9 0
-2.3912354 2.9319429 0.066039905 58 8
-1.9837817 2.4332223 -0.7247923 10 1
-2.3930945 2.9373641 0.19856264 60 9
-2.0439463 2.5105944 -0.62928808 10 2
-2.3794372 2.9237251 0.32979733 41 10
-2.2820811 2.8060968 -0.5728631 8 3
-2.3812094 2.9300756 0.46359101 48 11
-2.4069834 2.9628468 -0.46870953 49 4
-2.3792334 2.930778 0.59789258 48 12
-2.3886492 2.9444792 -0.33171475 49 5
-2.3655806 2.9170799 0.73003525 41 13
-2.3740799 2.9296534 -0.1976206 54 6
-2.3791807 2.9380438 0.87281007 26 14
-2.3955708 2.9593396 -0.066458762 62 7
-2.3570368 2.9138162 1.0042179 26 15
-1.8020147 2.2396524 -0.77024549 8 0
-2.3782265 2.9579163 0.066249333 44 8
-1.7274648 2.1493003 -0.63661146 9 1
-2.3762829 2.9586699 0.19887665 42 9
-2.0669212 2.5753293 -0.64188147 10 2
-2.3751776 2.9604671 0.33206338 26 10
-2.3872337 2.9776227 -0.6044628 40 3
-2.378072 2.9683173 0.46700338 31 11
-2.38624 2.9795783 -0.46870953 44 4
-2.3796961 2.9735367 0.60321134 29 12
-2.3891904 2.9875343 -0.33467805 36 5
-2.3684485 2.9626606 0.73728597 25 13
-2.3710229 2.9680016 -0.199086 34 6
-2.3732009 2.972858 0.87820894 21 14
-2.3661225 2.9650493 -0.066214427 38 7
-2.3655438 2.9664502 1.0166413 30 15
-1.7275106 2.1780133 -0.74488121 9 0
-2.388571 3.0136259 0.067121953 40 8
-1.8939462 2.3904219 -0.70409679 9 1
-2.3803651 3.0065053 0.20097008 46 9
-2.0074754 2.5373483 -0.62890649 5 2
-2.3779347 3.0066686 0.33537531 31 10
-2.3884349 3.0221126 -0.61009449 27 3
-2.376976 3.0097728 0.47090316 33 11
-2.3899813 3.0273261 -0.47358429 31 4
-2.3698916 3.0040343 0.60602719 28 12
-2.3860722 3.0256302 -0.33711842 39 5
-2.3805187 3.020756 0.74758971 27 13
-2.3848417 3.0284185 -0.20201682 35 6
-2.3734031 3.0149727 0.88585728 23 14
-2.3799813 3.0255041 -0.067191765 39 7
-2.3662665 3.0102308 1.0259588 28 15
-1.7705683 2.2645941 -0.77024549 8 0
-2.3913994 3.0597503 0.067785151 39 8
-1.7668581 2.2622888 -0.66270578 9 1
-2.3856561 3.0556984 0.2031682 42 9
-1.9189079 2.4596274 -0.60639101 8 2
-2.3789363 3.0514801 0.3385129 30 10
-2.2937388 2.9432559 -0.5910095 8 3
-2.3930249 3.0728683 0.47821537 33 11
-2.3931713 3.0752699 -0.47845906 30 4
-2.3821373 3.0621936 0.61447465 33 12
-2.3869014 3.0705287 -0.34025604 40 5
-2.3882766 3.0745118 0.7567485 27 13
-2.3898983 3.077708 -0.20421492 29 6
-2.3893313 3.079196 0.89980417 23 14
-2.3771832 3.0657489 -0.067715339 39 7
-2.3622904 3.0476439 1.0332056 28 15
-1.7279838 2.2414043 -0.75833982 9 0
-2.3919468 3.1048851 0.068413429 39 8
-1.7205038 2.2341199 -0.65100831 9 1
-2.3922808 3.1086841 0.20557566 38 9
-1.9746937 2.5678983 -0.62966973 7 2
-2.3823955 3.0991945 0.34199914 27 10
-2.1359529 2.7806118 -0.55534244 7 3
-2.393271 3.1178441 0.48260266 29 11
-2.3951435 3.1214111 -0.48309013 25 4
-2.3943567 3.1226418 0.62323499 30 12
-2.390187 3.1183307 -0.34374225 37 5
-2.3863945 3.1156347 0.7628544 28 13
-2.3950596 3.12921 -0.2065177 33 6
-2.3991048 3.1356285 0.91150165 19 14
-2.3866243 3.1215739 -0.068587959 35 7
-2.3726242 3.1055083 1.0471818 31 15
-1.764891 2.3226299 -0.78163356 9 0
-2.3973677 3.1561275 0.069181338 37 8
-1.8297558 2.4106123 -0.69869798 9 1
-2.4024541 3.1662641 0.20829713 43 9
-1.8409247 2.4279678 -0.59227115 7 2
-2.3907814 3.1554523 0.34635693 29 10
-2.0978937 2.7698913 -0.55033648 7 3
-2.3899624 3.1578052 0.48625872 26 11
-2.3972421 3.1697218 -0.4879649 12 4
-2.4052107 3.1814122 0.63168246 25 12
-2.4031875 3.1810434 -0.34879729 26 5
-2.3929741 3.1698241 0.77201319 23 13
-2.404985 3.1868904 -0.20923917 35 6
-2.4029686 3.1865313 0.92139953 20 14
-2.400877 3.1860702 -0.069635101 38 7
-2.3793271 3.1586196 1.0596052 31 15
-1.7382096 2.3209789 -0.7769748 10 0
-2.4046767 3.2132261 0.070053965 30 8
-1.7871994 2.3889992 -0.6888001 13 1
-2.4024563 3.2137685 0.21028589 36 9
-1.8387787 2.4615252 -0.59723216 8 2
-2.4056489 3.2215552 0.35176057 35 10
-2.0425794 2.7373357 -0.54095048 5 3
-2.3957832 3.2130194 0.49210843 22 11
-2.3679368 3.176831 -0.48650244 18 4
-2.4000833 3.2223058 0.63637549 26 12
-2.2167194 2.9772091 -0.32474229 13 5
-2.4012561 3.2274058 0.78193527 21 13
-2.4059513 3.2360747 -0.2113326 32 6
-2.3981004 3.226691 0.92814809 19 14
-2.4048057 3.2380726 -0.07040301 38 7
-2.3900506 3.2205532 1.0746168 28 15
-1.7231121 2.3346109 -0.77749246 9 0
-2.4159896 3.2745762 0.071031295 28 8
-1.7993892 2.4406304 -0.70004767 11 1
-2.4089637 3.2686338 0.21279801 36 9
-1.8836839 2.5577679 -0.61745793 10 2
-2.3819189 3.2366667 0.35158628 36 10
-1.9805888 2.6923015 -0.5293743 6 3
-2.4067788 3.2740371 0.49893317 22 11
-2.4138622 3.2860758 -0.50063932 20 4
-2.4038157 3.2735965 0.64325857 26 12
-2.4221871 3.3010297 -0.35821009 22 5
-2.4065275 3.2820899 0.79109418 20 13
-2.4169285 3.2974815 -0.21426344 31 6
-2.4100599 3.2905188 0.94164515 15 14
-2.4045801 3.2854421 -0.071066193 35 7
-2.4011536 3.2819617 1.0896282 28 15
-1.7549182 2.4118941 -0.7992332 12 0
-2.4259982 3.3366489 0.072008632 35 8
-1.6635799 2.2888801 -0.65325785 10 1
-2.4142554 3.3241556 0.21531016 31 9
-1.8150421 2.5009451 -0.60066676 16 2
-2.348134 3.2366767 0.34984317 32 10
-1.8527579 2.5557272 -0.49996459 9 3
-2.4176354 3.3373802 0.50600159 19 11
-1.8791541 2.5949965 -0.39339426 1 4
-2.4098539 3.3303072 0.65108031 23 12
-2.4177632 3.3436906 -0.36099908 27 5
-2.4117334 3.3365815 0.80025297 17 13
-2.421917 3.3531313 -0.21677555 28 6
-2.4155412 3.3467679 0.95289266 10 14
-2.4137533 3.3455174 -0.072008632 45 7
-2.3928697 3.3190167 1.0963575 12 15
-1.6975131 2.3675666 -0.78059822 11 0
-2.3898337 3.335623 0.071624674 8 8
-1.7292573 2.4145098 -0.68565083 13 1
-2.3979635 3.3506744 0.21593818 7 9
-2.1058848 2.9447234 -0.70370364 7 2
-2.3115764 3.233541 0.34775141 38 10
-1.8796525 2.6312869 -0.5121665 7 3
-2.4098361 3.3772166 -0.5094139 7 4
-2.3716381 3.3261397 0.64701301 4 12
-2.3920469 3.3572443 -0.36065045 7 5
-2.3564918 3.3085606 0.78956765 2 13
-2.3845499 3.3504322 -0.21551949 9 6
-2.3740466 3.3381407 0.94569421 2 14
-2.3729568 3.3378415 -0.071485057 11 7
-2.3360758 3.288394 1.0808283 4 15
-1.6497318 2.3351808 -0.7661044 10 0
-2.3595691 3.3424239 0.071415246 9 8
-1.6123588 2.284817 -0.6456095 8 1
-2.3664563 3.3559077 0.21520546 8 9
-2.0377798 2.8919494 -0.68767565 10 2
-2.2855036 3.2447133 0.34722847 39 10
-1.8362234 2.6088071 -0.50528342 12 3
-2.3422537 3.3302169 0.49990809 2 11
-2.372499 3.3744709 -0.50648904 6 4
-2.3687999 3.3717105 0.65264469 6 12
-2.3628287 3.3657076 -0.35977891 7 5
-2.3795745 3.3908195 0.80521399 7 13
-2.340462 3.3375623 -0.2136354 11 6
-2.3954167 3.4184704 0.96369034 7 14
-2.35304 3.3592389 -0.071589775 10 7
-2.3784211 3.3980005 1.111369 11 15
-1.5991763 2.2974887 -0.75005764 7 0
-2.3304679 3.3506074 0.071240723 7 8
-1.7298627 2.4880192 -0.69959778 13 1
-2.3270156 3.3493834 0.21374007 9 9
-1.964919 2.830308 -0.6697396 13 2
-2.2571156 3.2524059 0.34635693 38 10
-1.9530469 2.816354 -0.54282767 6 3
-2.3087714 3.3318028 0.49771443 2 11
-2.3398402 3.3778973 -0.50453913 6 4
-2.3957949 3.461256 0.66672373 7 12
-2.3279383 3.3657362 -0.3580358 7 5
-2.3134165 3.3459845 0.79071248 1 13
-2.3193731 3.3571079 -0.21384473 9 6
-2.3681731 3.4302979 0.96234065 5 14
-2.313628 3.3525441 -0.071101107 10 7
-2.3754802 3.4447384 1.1212041 8 15
-1.5251927 2.2241554 -0.72262281 8 0
-2.3024983 3.3601973 0.071101107 12 8
-1.7454885 2.5482674 -0.71309483 7 1
-2.2945514 3.3523622 0.21290269 14 9
-1.8486874 2.7029746 -0.63653886 11 2
-2.2276077 3.2582157 0.34531105 39 10
-1.9779098 2.8951631 -0.55534244 5 3
-2.2854548 3.3478398 0.49771443 4 11
-2.3061304 3.3793926 -0.5023455 14 4
-2.3159277 3.3962951 0.65108031 5 12
-2.2993653 3.373271 -0.3571642 8 5
-2.3717866 3.4821277 0.81895226 7 13
-2.2880149 3.3616598 -0.21311203 12 6
-2.3634043 3.4737284 0.96998894 7 14
-2.2778006 3.3504221 -0.070717148 10 7
-2.2623556 3.3302035 1.0787579 4 15
-1.5755931 2.3323991 -0.75419873 7 0
-2.2706201 3.362534 0.070821866 7 8
-1.796326 2.6621606 -0.74143869 12 1
-2.2616277 3.3530009 0.21196064 7 9
-1.7841605 2.6471198 -0.62051088 7 2
-2.1936772 3.2571628 0.34356794 36 10
-1.7518612 2.6021364 -0.49683592 8 3
-2.2493179 3.3435547 0.4947896 2 11
-2.2592251 3.3608139 -0.49722698 5 4
-2.2839422 3.398864 0.64857739 4 12
-2.2613206 3.367738 -0.35489815 7 5
-2.4130504 3.5964181 0.84184933 7 13
-2.2617421 3.3721797 -0.21279801 8 6
-2.3965962 3.5759399 0.99383378 6 14
-2.242115 3.347966 -0.070333198 9 7
-2.2503819 3.3615789 1.0839342 1 15
-1.6014302 2.405787 -0.77438658 8 0
-2.2338002 3.3583243 0.07040301 9 8
-1.643292 2.4714789 -0.68520093 7 1
-2.2315321 3.3587267 0.2113326 7 9
-1.745005 2.6284342 -0.61326015 8 2
-2.1604385 3.2554181 0.34182483 38 10
-1.816623 2.7394209 -0.52061397 3 3
-2.2237272 3.3558664 0.49430209 4 11
-2.2357073 3.3765044 -0.49722698 6 4
-2.3604639 3.5662718 0.67736137 7 12
-2.2267632 3.3668251 -0.35315505 7 5
-2.2190216 3.3576663 0.78231698 2 13
-2.2249341 3.3678901 -0.21154197 9 6
-2.2438154 3.39905 0.94029546 2 14
-2.2142828 3.3568602 -0.070193581 9 7
-2.3300133 3.5336499 1.1341451 8 15
-1.5577003 2.376791 -0.76144564 9 0
-2.1982474 3.3554363 0.070019051 8 8
-1.5978134 2.4407833 -0.67350346 9 1
-2.2030673 3.3679235 0.21091393 7 9
-1.754549 2.6832738 -0.62318224 12 2
-2.1349082 3.2674589 0.3414762 36 10
-1.8282911 2.800318 -0.52968717 5 3
-2.1828856 3.3447111 0.49040228 4 11
-2.2131646 3.393693 -0.49747071 5 4
-2.3230205 3.5648665 0.67391974 6 12
-2.1955922 3.3706028 -0.35193488 7 5
-2.3101225 3.5491345 0.82315004 6 13
-2.1887984 3.3653078 -0.21039055 9 6
-2.3241279 3.574744 0.98438585 6 14
-2.1886146 3.3688834 -0.070123769 9 7
-2.2983561 3.5405099 1.1310393 8 15
-1.6584041 2.569397 -0.81942111 10 0
-2.1752641 3.3727612 0.070053965 9 8
-1.6757689 2.5992863 -0.71399468 9 1
-2.1708498 3.3697889 0.21007656 7 9
-1.7671826 2.7452843 -0.63463074 12 2
-2.1055779 3.2722297 0.34043032 39 10
-1.7627581 2.7415667 -0.5162338 7 3
-2.1567497 3.3569057 0.48991477 3 11
-2.1561637 3.3572819 -0.48991477 5 4
-2.5423939 3.9617071 0.74556679 3 12
-2.1720073 3.385849 -0.35193488 6 5
-2.177222 3.3965859 0.78422499 2 13
-2.155556 3.3653703 -0.20944853 8 6
-2.2907085 3.5777526 0.98078656 6 14
-2.153188 3.3655517 -0.069739819 9 7
-2.2673395 3.5467033 1.1279335 8 15
-1.4963837 2.3542876 -0.74746948 8 0
-2.1490388 3.382426 0.069949247 9 8
-1.6074466 2.5319524 -0.69239932 7 1
-2.1371601 3.3676238 0.20902982 9 9
-1.7421466 2.7473016 -0.63234103 6 2
-2.0773485 3.2784357 0.33955875 39 10
-1.7651975 2.7868769 -0.52249116 1 3
-2.1296034 3.364799 0.48893982 5 11
-2.145407 3.392385 -0.49283966 5 4
-2.1406496 3.3861737 0.6344983 2 12
-2.137676 3.3840849 -0.35019177 6 5
-2.257201 3.5760612 0.82200515 7 13
-2.1272695 3.3715189 -0.20892516 9 6
-2.1898079 3.4733186 0.94794375 5 14
-2.1189802 3.3635819 -0.069390766 9 7
-2.2369699 3.5522449 1.1248276 11 15
-1.436242 2.2940099 -0.72521096 13 0
-2.116888 3.3837843 0.069670007 10 8
-1.635638 2.6155353 -0.71219504 7 1
-2.1072471 3.3722992 0.2084018 9 9
-1.6594975 2.657814 -0.60906237 7 2
-2.0391626 3.2671461 0.3369441 39 10
-2.0760219 3.3287885 -0.62135774 6 3
-2.0997632 3.3694746 0.48747739 3 11
-2.1033719 3.3765824 -0.4884524 5 4
-2.2307401 3.5838318 0.66860098 9 12
-2.1040664 3.3816407 -0.34844866 8 5
-2.2359171 3.5963447 0.82315004 11 13
-2.1005199 3.3811972 -0.20861115 8 6
-2.2288268 3.5891297 0.97538781 8 14
-2.0865486 3.3626342 -0.069076627 8 7
-2.1235487 3.4249341 1.0797932 2 15
-1.4647945 2.3763402 -0.74798709 10 0
-2.0780714 3.3725781 0.069146432 21 8
-1.5560367 2.527324 -0.68520093 6 1
-2.0842438 3.3865645 0.2084018 21 9
-1.6701638 2.7158737 -0.61974764 10 2
-2.0100451 3.2711172 0.33589822 42 10
-1.7793334 2.8967934 -0.5384475 8 3
-2.0778174 3.3853815 0.48772117 2 11
-2.0911651 3.4097974 -0.49113351 12 4
-2.1980348 3.5854602 0.66609806 7 12
-2.0710418 3.3809559 -0.34687987 15 5
-2.1943569 3.5850749 0.81704414 9 13
-2.0764136 3.393713 -0.20850646 13 6
-2.149842 3.5164819 0.95154291 3 14
-2.0609357 3.3737073 -0.069006816 10 7
-2.1676424 3.5497763 1.1144749 9 15
-1.4485853 2.3862555 -0.74798709 8 0
-2.0503273 3.3801649 0.069006816 10 8
-1.4902997 2.4578719 -0.66360557 8 1
-2.0543408 3.3907838 0.20777377 9 9
-1.713183 2.8299155 -0.64302635 8 2
-1.9846382 3.2796099 0.33537531 41 10
-2.0503705 3.3909032 -0.62761515 6 3
-2.0377078 3.3726201 0.48382133 3 11
-2.0627754 3.4154561 -0.48991477 6 4
-2.135186 3.5381408 0.65452182 6 12
-2.0494454 3.3987443 -0.34722847 8 5
-2.0543642 3.4082463 0.77353972 2 13
-2.0351527 3.3790412 -0.20672706 8 6
-2.1584001 3.5865049 0.96638966 8 14
-2.0358622 3.3842306 -0.068937011 8 7
-2.1428089 3.5648217 1.1144749 12 15
-1.3645078 2.2835431 -0.71278769 13 0
-2.0225804 3.3875275 0.068867192 11 8
-1.6768422 2.8095834 -0.7553857 7 1
-2.0162983 3.3810265 0.20630836 9 9
-1.7215241 2.8890297 -0.65371162 8 2
-1.956596 3.2848268 0.33450374 38 10
-1.6609213 2.7906492 -0.51435655 1 3
-2.0039661 3.3697019 0.48138395 3 11
-2.0307658 3.4161232 -0.4879649 6 4
-2.1406977 3.6039119 0.663908 8 12
-2.0175326 3.3992627 -0.34583399 9 5
-2.1306934 3.591351 0.81170154 8 13
-2.0054021 3.3828583 -0.20609902 8 6
-2.1243706 3.5863962 0.96234065 8 14
-2.0040369 3.3845944 -0.068657771 8 7
-2.112951 3.5713806 1.1118866 9 15
-1.424921 2.4229002 -0.75316346 8 0
-1.9948277 3.39467 0.068727575 12 8
-1.4814992 2.5221283 -0.67530304 9 1
-1.9885997 3.3881319 0.20588967 8 9
-2.0042319 3.4174976 -0.77010518 7 2
-1.9295852 3.2915308 0.33380648 39 10
-1.8830156 3.2146626 -0.59007084 6 3
-1.9813951 3.3853235 0.48162767 3 11
-1.9888234 3.3993762 -0.48357758 7 4
-2.0995343 3.5914834 0.65890205 6 12
-1.9873114 3.4008753 -0.34461379 8 5
-2.0976501 3.5925753 0.80864859 6 13
-1.9767039 3.3881507 -0.20557566 9 6
-2.0910738 3.5856228 0.95829147 7 14
-1.9642507 3.3708587 -0.06809929 8 7
-2.0801904 3.5726895 1.1077455 8 15
-1.4186157 2.4511812 -0.75885749 8 0
-1.9636638 3.3943226 0.068448335 11 8
-1.5789351 2.731493 -0.72839153 9 1
-1.9654913 3.4015892 0.20588967 9 9
-1.8641096 3.2287333 -0.72469258 10 2
-1.8956091 3.2859366 0.33188906 39 10
-1.5196604 2.6353149 -0.4818182 7 3
-1.948397 3.381531 0.47919029 4 11
-1.9729666 3.4269407 -0.48552752 7 4
-1.9696122 3.4224956 0.62542504 3 12
-1.9516022 3.3939402 -0.34252208 8 5
-2.0686054 3.6003225 0.80712205 8 13
-1.9545904 3.4032593 -0.20568034 8 6
-2.0659907 3.6001339 0.95829147 6 14
-1.9406698 3.3844895 -0.06809929 8 7
-2.049099 3.5750334 1.1041222 8 15
-1.4305851 2.5111384 -0.77438658 8 0
-1.9270604 3.3853555 0.067994572 11 8
-1.5294662 2.6879776 -0.71399468 9 1
-1.9338003 3.4013369 0.2050523 9 9
-1.6310927 2.8712404 -0.64188147 7 2
-1.8663119 3.2866361 0.33066887 39 10
-1.9301485 3.4018195 -0.61948055 7 3
-1.9247404 3.3950517 0.47919029 3 11
-1.945681 3.4333816 -0.48455253 7 4
-2.0420296 3.606338 0.65639907 8 12
-1.9258982 3.4040139 -0.34217343 8 5
-2.0363195 3.6006491 0.80406916 8 13
-1.9229228 3.4029112 -0.20484295 8 6
-1.9229572 3.4057467 0.90295357 2 14
-1.9146385 3.3923962 -0.067994572 9 7
-1.9842349 3.5185771 1.0823812 5 15
-1.4678032 2.6188054 -0.80440962 16 0
-1.8984938 3.390003 0.06782005 11 8
-1.514472 2.7053907 -0.71579427 9 1
-1.9080576 3.4112685 0.20484295 9 9
-1.8447094 3.3007169 -0.73499632 10 2
-1.8374909 3.2891488 0.32962301 38 10
-1.9092389 3.4203866 -0.62041914 8 3
-1.8913238 3.3910685 0.47675291 4 11
-1.9158627 3.4364793 -0.48309013 8 4
-2.0119982 3.611877 0.65483475 9 12
-1.8982109 3.4104128 -0.3414762 8 5
-2.0073164 3.607914 0.80254269 11 13
-1.889415 3.3987961 -0.20379624 8 6
-1.9672639 3.5417459 0.93534642 3 14
-1.8879964 3.4004354 -0.067889862 8 7
-1.9896117 3.5864022 1.0989457 11 15
-1.3860582 2.5139496 -0.76921022 8 0
-1.873816 3.4014227 0.067785151 12 8
-1.4579477 2.6476161 -0.69779819 5 1
-1.8659028 3.3912585 0.20285419 11 9
-1.5378796 2.7973912 -0.62051088 7 2
-1.8106456 3.2949123 0.32892576 38 10
-1.7788324 3.2396996 -0.58537781 6 3
-1.861873 3.3937483 0.47529048 5 11
-1.8402834 3.3557804 -0.46992823 6 4
-1.8690276 3.4110231 0.61603898 4 12
-1.8686162 3.413095 -0.34043032 14 5
-1.8699201 3.4168959 0.75713015 3 13
-1.8618081 3.4048941 -0.20337754 11 6
-1.9770623 3.6186686 0.95199287 7 14
-1.8584602 3.4030035 -0.067680433 12 7
-1.9626765 3.5968122 1.0979104 8 15
-1.4043894 2.5897958 -0.78939813 11 0
-1.844308 3.4038725 0.067575715 9 8
-1.435716 2.6508758 -0.69599855 9 1
-1.8345773 3.3901498 0.20201682 11 9
-1.6695836 3.0878294 -0.68233299 7 2
-1.7866513 3.3057199 0.32875144 39 10
-1.6923451 3.1338465 -0.56410277 8 3
-1.8305956 3.3926873 0.47334057 5 11
-1.8450806 3.4209614 -0.47724038 7 4
-1.9463781 3.6117938 0.64982885 9 12
-1.8419092 3.4207945 -0.33990738 8 5
-1.9548848 3.6321316 0.80177945 11 13
-1.8342098 3.4107721 -0.20295887 8 6
-1.9434478 3.6169341 0.94794375 9 14
-1.8233048 3.3947537 -0.067261577 9 7
-1.9320354 3.6002138 1.0948045 12 15
-1.2708278 2.3830514 -0.72365808 9 0
-1.8157979 3.4078412 0.067401193 9 8
-1.527104 2.867234 -0.74998683 10 1
-1.8118031 3.4046383 0.20212148 12 9
-1.5226357 2.8636606 -0.63043296 10 2
-1.7513736 3.2952414 0.32648543 37 10
-1.8084695 3.4055362 -0.61072022 6 3
-1.8050046 3.4018774 0.47285309 5 11
-1.8211528 3.433759 -0.47724038 7 4
-1.912791 3.6095848 0.64701301 8 12
-1.8086597 3.415962 -0.33816427 8 5
-1.9202965 3.6283386 0.79796326 9 13
-1.8075526 3.4181976 -0.20264484 9 6
-1.9172411 3.62869 0.94749385 8 14
-1.795825 3.4003272 -0.067121953 9 7
-1.8906275 3.5828598 1.0854871 9 15
-1.384241 2.6399486 -0.79871565 11 0
-1.7817544 3.40095 0.067017242 11 8
-1.5224186 2.9071734 -0.75763518 15 1
-1.7852124 3.411895 0.20180747 12 9
-1.5999302 3.060384 -0.67126608 13 2
-1.7255576 3.3020906 0.32596248 35 10
-1.5012274 2.8752484 -0.51373082 7 3
-1.7720295 3.3967957 0.47041571 4 11
-1.7971363 3.4463894 -0.47724038 8 4
-1.8136129 3.4809499 0.62167066 3 12
-1.7801677 3.4196692 -0.3372927 8 5
-1.7816409 3.4239581 0.75026101 6 13
-1.7818023 3.4271891 -0.20243551 9 6
-1.885573 3.6298809 0.94434458 8 14
-1.7683566 3.4056826 -0.066982336 9 7
-1.8611183 3.5873983 1.0828989 9 15
-1.225039 2.3765223 -0.71641117 12 0
-1.7543055 3.4061952 0.066877626 11 8
-1.4637306 2.8432281 -0.73828936 9 1
-1.7576951 3.4171708 0.20138879 10 9
-1.5830141 3.080209 -0.67317414 16 2
-1.6997313 3.3087399 0.32543954 36 10
-1.7625483 3.4339695 -0.61134595 7 3
-1.7392138 3.3914204 0.46797833 4 11
-1.76941 3.4517858 -0.47626543 8 4
-1.8631068 3.6376977 0.64732587 11 12
-1.7568495 3.4317074 -0.3372927 8 5
-1.8551447 3.6268308 0.79185736 11 13
-1.7414722 3.4075327 -0.20055141 9 6
-1.8608215 3.6426315 0.94434458 8 14
-1.7427192 3.4143829 -0.066912524 9 7
-1.8377852 3.603745 1.0839342 9 15
-1.2695385 2.505646 -0.75264585 8 0
-1.7283691 3.4127057 0.066772908 11 8
-1.4376879 2.8412054 -0.73514003 12 1
-1.7235769 3.4076686 0.20013271 11 9
-1.6859802 3.3362236 -0.72660065 22 2
-1.6747946 3.3169687 0.32509091 36 10
-1.5201838 3.0120652 -0.5343802 7 3
-1.7143013 3.3996353 0.46749085 3 11
-1.6863192 3.3470497 -0.4601787 7 4
-1.8320832 3.6379457 0.64513582 8 12
-1.7274758 3.4332101 -0.33624685 8 5
-1.827134 3.6344314 0.79071248 8 13
-1.7146503 3.4121692 -0.20013271 9 6
-1.7968724 3.5789049 0.9245488 5 14
-1.7179432 3.4246788 -0.066877626 9 7
-1.8019559 3.5937212 1.0772049 8 15
-1.1921567 2.3931863 -0.71641117 11 0
-1.7053943 3.4264781 0.066807814 10 8
-1.4417512 2.8980341 -0.74728745 19 1
-1.6944127 3.4088867 0.19950469 10 9
-1.7001957 3.4235227 -0.74301028 28 2
-1.64775 3.3193681 0.32421938 36 10
-1.5035071 3.0314531 -0.53594452 8 3
-1.6887628 3.4079633 0.46700338 4 11
-1.6969788 3.4260461 -0.46944076 7 4
-1.7917463 3.6205502 0.63981706 8 12
-1.6981684 3.4344699 -0.335201 8 5
-1.7753872 3.5922234 0.77888238 6 13
-1.6899028 3.4222655 -0.20002805 9 6
-1.7908119 3.6298099 0.93444669 9 14
-1.6848633 3.4165649 -0.066493668 9 7
-1.7776769 3.6079462 1.0777225 12 15
-1.122764 2.2938716 -0.68431759 4 0
-1.6761606 3.4275222 0.066598386 10 8
-1.4497253 2.9658041 -0.76213419 11 1
-1.6679418 3.4152498 0.19919068 9 9
-1.6184207 3.3182559 0.32299918 38 10
-1.6847955 3.4574027 -0.60915589 9 3
-1.6631931 3.4160993 0.46651587 4 11
-1.6799701 3.4520888 -0.47139066 7 4
-1.7655643 3.6311929 0.63950419 9 12
-1.6637013 3.424737 -0.33310926 8 5
-1.7691334 3.643383 0.787278 9 13
-1.6633545 3.4285893 -0.19971403 9 6
-1.7628775 3.6369631 0.933097 7 14
-1.6557387 3.4174466 -0.066284239 9 7
-1.7457118 3.6063581 1.0735815 9 15
-0.96105689 1.9987131 -0.59424853 8 0
-1.6443976 3.4229178 0.066284239 12 8
-1.4272976 2.9723392 -0.76123434 20 1
-1.6466516 3.4322124 0.19950469 12 9
-1.5487016 3.2309406 -0.69645286 8 2
-1.5883301 3.3150985 0.32160467 36 10
-1.6469705 3.4405723 -0.60415 11 3
-1.634165 3.4168828 0.46505347 5 11
-1.651548 3.454778 -0.47017199 16 4
-1.7248446 3.6113465 0.63387251 6 12
-1.6403527 3.4359813 -0.33310926 26 5
-1.7225229 3.6113453 0.7777375 6 13
-1.6445346 3.4509351 -0.20034206 16 6
-1.7171296 3.6048944 0.92184937 3 14
-1.6344198 3.4343386 -0.066388957 20 7
-1.6856507 3.545181 1.0518407 4 15
-1.1821998 2.5032237 -0.74177545 9 0
-1.6167922 3.4249902 0.066109717 10 8
-1.1529741 2.4446542 -0.62401426 9 1
-1.6189929 3.4343083 0.19898133 10 9
-1.4940486 3.1721389 -0.68156981 12 2
-1.5651476 3.3261065 0.32160467 38 10
-1.6268761 3.458853 -0.60540146 9 3
-1.6024264 3.409961 0.46261609 5 11
-1.6248581 3.4608333 -0.46944076 8 4
-1.6347653 3.4835196 0.60946876 7 12
-1.6171709 3.4491532 -0.33328354 9 5
-1.6364753 3.4934983 0.74987942 7 13
-1.598987 3.4150205 -0.1976206 9 6
-1.6456817 3.5179453 0.8966549 4 14
-1.6019353 3.4275501 -0.066039905 8 7
-1.6238698 3.4760592 1.0280293 3 15
-1.1074054 2.3867915 -0.70502311 8 0
-1.5903189 3.4307513 0.066004999 12 8
-1.2149557 2.6221895 -0.6672048 7 1
-1.5874262 3.4292152 0.19803928 10 9
-1.6037247 3.467598 -0.74262863 17 2
-1.5391271 3.3294492 0.32090744 37 10
-1.4113605 3.0558634 -0.53312874 7 3
-1.5802448 3.4246697 0.46310353 5 11
-1.5954436 3.4591951 -0.46773461 10 4
-1.6244615 3.525346 0.61478752 7 12
-1.5838869 3.4404511 -0.33136615 8 5
-1.6118371 3.502773 0.74949777 8 13
-1.5734379 3.4224708 -0.19741124 9 6
-1.6178265 3.5222659 0.89485526 5 14
-1.5743974 3.4292874 -0.065865383 8 7
-1.5939232 3.4750204 1.0244058 6 15
-1.1499761 2.52456 -0.74332833 8 0
-1.5630159 3.43449 0.065865383 12 8
-1.2773087 2.8079917 -0.71219504 9 1
-1.558489 3.4293039 0.19741124 10 9
-1.5502576 3.414355 -0.72889042 11 2
-1.5117288 3.3310416 0.32003587 36 10
-1.5694512 3.461441 -0.60195988 13 3
-1.5546592 3.4320023 0.46261609 6 11
-1.5638857 3.4539735 -0.46554092 12 4
-1.5957395 3.5276017 0.61322314 6 12
-1.5606499 3.4532406 -0.33154044 8 5
-1.5905768 3.5210969 0.75102425 6 13
-1.551971 3.4388332 -0.19772527 8 6
-1.5531484 3.4446485 0.87236023 2 14
-1.5405586 3.418318 -0.065446526 8 7
-1.5363139 3.4120786 1.002665 3 15
-1.1339015 2.5360534 -0.74436361 11 0
-1.5373694 3.4416666 0.065795571 11 8
-1.3037558 2.9200468 -0.73828936 10 1
-1.5328827 3.4364526 0.19720189 10 9
-1.4560578 3.2672896 -0.69530803 7 2
-1.4835727 3.3305943 0.31898999 36 10
-1.5436412 3.468704 -0.60133415 12 3
-1.5274357 3.4355164 0.4616411 5 11
-1.5405406 3.4666214 -0.46578467 17 4
-1.5742797 3.5458782 0.61447465 7 12
-1.5260018 3.4403753 -0.32927439 8 5
-1.5659562 3.5321157 0.75102425 6 13
-1.5246903 3.4422798 -0.19730657 8 6
-1.5779546 3.5658951 0.90025413 4 14
-1.5174655 3.4308186 -0.065481432 9 7
-1.5343187 3.4721973 1.0171589 5 15
-1.1169438 2.5456772 -0.74488121 9 0
-1.5084877 3.4413269 0.065586142 12 8
-1.2794267 2.9201536 -0.73603982 12 1
-1.5056509 3.4397519 0.19678321 11 9
-1.5071557 3.4464593 -0.73118013 7 2
-1.4554969 3.329917 0.31794414 33 10
-1.5099028 3.4576719 -0.59757972 12 3
-1.5002389 3.4388182 0.46066615 6 11
-1.5115407 3.4663744 -0.46432224 14 4
-1.5218734 3.4933977 0.60352427 4 12
-1.4987659 3.4436378 -0.32857716 8 5
-1.5255959 3.5069561 0.74339187 3 13
-1.495845 3.4418497 -0.19667853 8 6
-1.5483646 3.5660992 0.8975547 4 14
-1.4902927 3.4339914 -0.065341808 9 7
-1.5231048 3.5129557 1.0259588 7 15
-1.0930351 2.5392172 -0.74074018 7 0
-1.4796876 3.4407513 0.065376714 11 8
-1.1328017 2.6353965 -0.66225594 6 1
-1.4816018 3.4501789 0.19678321 11 9
-1.0604318 2.4717906 -0.52281672 10 2
-1.4314306 3.338165 0.31776983 37 10
-1.3441535 3.1376581 -0.54063755 8 3
-1.4683843 3.4309583 0.45822877 8 11
-1.4794966 3.4585912 -0.46188486 17 4
-1.5191838 3.5547979 0.6122846 7 12
-1.4754705 3.4558494 -0.32875144 9 5
-1.5126343 3.5446072 0.74911612 7 13
-1.4686466 3.44486 -0.19625986 8 6
-1.5219038 3.5732362 0.8966549 5 14
-1.4662825 3.4443119 -0.065341808 9 7
-1.5030791 3.5341697 1.0290645 7 15
-1.1338921 2.6856043 -0.78111589 9 0
-1.4548533 3.4491551 0.065341808 12 8
-1.2680562 3.0077639 -0.75358605 10 1
-1.4489511 3.440191 0.19563182 12 9
-1.4672638 3.4870722 -0.73537791 18 2
-1.406546 3.344404 0.3174212 33 10
-1.4484707 3.4474568 -0.59226096 8 3
-1.4428593 3.4374652 0.45774129 8 11
-1.4545486 3.4670045 -0.4616411 17 4
-1.4920386 3.5598516 0.61134595 6 12
-1.4482301 3.4587147 -0.32805422 9 5
-1.4878514 3.5550809 0.74911612 7 13
-1.4399387 3.4439728 -0.19563182 8 6
-1.490912 3.5693886 0.89305568 5 14
-1.4383488 3.4452379 -0.065167286 9 7
-1.468702 3.5213983 1.0223353 6 15
-1.0692989 2.5827897 -0.74902231 5 0
-1.4307382 3.4592278 0.065341808 12 8
-1.270851 3.0741727 -0.7679829 13 1
-1.4226116 3.4446847 0.1953178 11 9
-1.4383895 3.4863422 -0.7330882 8 2
-1.3824039 3.3523002 0.31724688 36 10
-1.4303855 3.4720972 -0.59476393 10 3
-1.4142948 3.4364398 0.45627886 8 11
-1.4272865 3.469732 -0.46066615 17 4
-1.4303601 3.4806519 0.59601539 4 12
-1.4172401 3.4521525 -0.32648543 15 5
-1.4592712 3.5562992 0.74720806 6 13
-1.4219222 3.4687252 -0.1964692 15 6
-1.4630024 3.5724964 0.89125609 5 14
-1.4119906 3.4496427 -0.065062575 19 7
-1.4411573 3.5244133 1.0202647 5 15
-1.0018398 2.4684689 -0.71382296 3 0
-1.4020451 3.4580128 0.06513238 10 8
-1.2193502 3.0089209 -0.74953693 15 1
-1.3992779 3.4563835 0.19542249 9 9
-1.4103364 3.4871984 -0.73118013 7 2
-1.3522465 3.3452446 0.31567809 37 10
-1.4061124 3.481998 -0.59476393 8 3
-1.3917547 3.4499111 0.45676634 7 11
-1.4030302 3.4796112 -0.46066615 17 4
-1.4355485 3.5638452 0.6085301 7 12
-1.3931035 3.4619632 -0.32648543 15 5
-1.4329429 3.5627573 0.74644482 7 13
-1.3917125 3.463742 -0.19563182 9 6
-1.4336724 3.5717716 0.88855666 5 14
-1.3804259 3.4408579 -0.064713523 8 7
-1.3698046 3.4178302 0.98661828 2 15
-1.1752155 2.9546869 -0.8520323 9 0
-1.3734392 3.4565666 0.064922951 10 8
-1.2680842 3.1930408 -0.79317743 13 1
-1.3765868 3.4697812 0.19563182 9 9
-1.3816166 3.4860084 -0.72889042 7 2
-1.3229891 3.3397849 0.31428361 33 10
-1.3788619 3.4843826 -0.59351242 8 3
-1.3632572 3.4484673 0.45530388 6 11
-1.3787038 3.4893215 -0.46066615 13 4
-1.4048311 3.5590811 0.60602719 7 12
-1.3680454 3.467658 -0.32613677 18 5
-1.4029963 3.5598888 0.74377352 7 13
-1.3631086 3.4622223 -0.19500379 8 6
-1.3750747 3.4944046 0.86696136 2 14
-1.3578353 3.4541326 -0.064783335 9 7
-1.3833343 3.5226138 1.0140531 5 15
-1.1861238 3.0438199 -0.87532604 7 0
-1.3447989 3.4527915 0.064678617 11 8
-1.2556541 3.2272415 -0.79947603 10 1
-1.3464221 3.4623179 0.19468978 10 9
-1.3628325 3.5081422 -0.73156172 8 2
-1.3032449 3.3582268 0.31515515 39 10
-1.3529693 3.488162 -0.59257382 8 3
-1.334015 3.4428587 0.453354 6 11
-1.3528769 3.4951591 -0.4601787 12 4
-1.3812854 3.5704033 0.60634005 6 12
-1.3423669 3.4734073 -0.32578817 19 5
-1.3406339 3.4725275 0.72354776 4 13
-1.3344774 3.4583771 -0.19427109 9 6
-1.3856912 3.594836 0.88945645 4 14
-1.3329693 3.4616618 -0.064748429 9 7
-1.329489 3.4544215 0.99179465 3 15
-0.89729255 2.3497775 -0.6739648 1 0
-1.3206611 3.462096 0.064678617 11 8
-1.2558736 3.2939823 -0.81387293 10 1
-1.3193741 3.4641671 0.19427109 10 9
-1.3376098 3.5157363 -0.73118013 10 2
-1.2810642 3.3688824 0.31532949 30 10
-1.3250771 3.4882896 -0.5910095 19 3
-1.3155808 3.4669356 0.45530388 6 11
-1.3199035 3.4801579 -0.45701009 16 4
-1.3178334 3.4783611 0.58913231 4 12
-1.3159695 3.4771039 -0.32526523 22 5
-1.3530852 3.5770581 0.74339187 7 13
-1.3088889 3.4638727 -0.19406174 9 6
-1.3509259 3.5788977 0.88315785 4 14
-1.3016109 3.4500742 -0.064364478 9 7
-1.3380419 3.5503902 1.0166413 7 15
-0.94649136 2.531507 -0.72417569 9 0
-1.2936621 3.4637377 0.064539 11 8
-0.96705872 2.590651 -0.6384111 1 1
-1.2909721 3.462065 0.19364306 10 9
-1.3082355 3.5121105 -0.72850877 8 2
-1.2554283 3.3721421 0.31480655 34 10
-1.3020689 3.5011582 -0.59163523 8 3
-1.2941103 3.483479 0.45627886 6 11
-1.2948841 3.4874265 -0.45676634 9 4
