# .PCD v0.7 - Point Cloud Data file format
VERSION 0.7
FIELDS x y z intensity ring
SIZE 4 4 4 4 2
TYPE F F F F U
COUNT 1 1 1 1 1
WIDTH 1251
HEIGHT 1
VIEWPOINT 0 0 0 1 0 0 0
POINTS 1251
DATA ascii
-10.795557 -9.805994 -1.27596 6 5
-12.088947 -10.973124 3.1735351 9 13
-10.812529 -9.8076429 -0.76504707 11 6
-12.296891 -11.150136 3.8322663 6 14
-10.901987 -9.8783884 -0.25679472 11 7
-11.13833 -10.085463 4.0261893 7 15
-3.2497902 -2.9271531 -1.1719327 14 0
-10.937426 -9.8481026 0.25689942 2 8
-3.8403749 -3.4554615 -1.1926905 1 1
-12.103846 -10.886883 0.85318083 1 9
-4.7994423 -4.313858 -1.2543784 1 2
-18.239227 -16.382374 2.1449027 14 10
-6.2982445 -5.6550603 -1.3406435 1 3
-15.290928 -13.719769 2.5224519 3 11
-8.8516798 -7.9365859 -1.4597511 1 4
-17.456192 -15.64606 3.712816 9 12
-10.970606 -9.8260984 -1.2885104 6 5
-15.619102 -13.979811 4.0745354 6 13
-10.984714 -9.8283739 -0.77247876 7 6
-15.611134 -13.957966 4.8346481 1 14
-11.057175 -9.8793135 -0.25881919 9 7
-11.124595 -9.93606 3.9966838 5 15
-3.2681952 -2.9036813 -1.171415 15 0
-11.234704 -9.9746361 0.26223987 6 8
-3.857976 -3.4240675 -1.1908909 2 1
-12.317024 -10.924039 0.86281061 1 9
-4.8147478 -4.2672257 -1.2505622 1 2
-21.301577 -18.872574 2.4898651 2 10
-6.3494015 -5.621429 -1.3431464 1 3
-15.279291 -13.517978 2.5049026 9 11
-8.8564281 -7.8327518 -1.4517077 3 4
-17.480629 -15.449248 3.6949825 6 12
-11.125331 -9.8290262 -1.2987949 6 5
-16.633743 -14.685266 4.3130469 13 13
-11.17887 -9.8624372 -0.78127122 7 6
-12.781227 -11.272132 3.9343941 4 14
-11.238182 -9.9043045 -0.26147196 9 7
-15.05008 -13.254438 5.3736014 7 15
-3.279669 -2.8731556 -1.1683092 12 0
-11.434721 -10.01387 0.26531148 11 8
-3.8759205 -3.3919168 -1.1890913 1 1
-12.526385 -10.958304 0.87223113 1 9
-4.8377705 -4.2291856 -1.2490358 1 2
-21.3908 -18.686699 2.4849844 2 10
-6.3547845 -5.5494943 -1.3362634 1 3
-15.489108 -13.516772 2.5241582 2 11
-8.8854618 -7.7485485 -1.4475641 3 4
-17.120806 -14.924912 3.5973673 4 12
-11.30936 -9.8518858 -1.3122169 6 5
-14.553177 -12.668735 3.7505417 0 13
-11.38737 -9.9093599 -0.7911104 9 6
-15.40947 -13.399975 4.7145238 5 14
-11.485163 -9.9803839 -0.26559073 9 7
-11.932869 -10.365772 4.2353148 4 15
-3.2976875 -2.8495023 -1.1677916 2 0
-11.62241 -10.035733 0.26803407 11 8
-3.8797407 -3.3489032 -1.1832426 1 1
-12.719039 -10.971033 0.88029093 3 9
-4.8582544 -4.1876187 -1.2467461 1 2
-21.771074 -18.759157 2.5142689 2 10
-6.3514581 -5.468904 -1.327503 1 3
-15.890059 -13.672439 2.5738807 7 11
-8.9169273 -7.6697679 -1.4441519 3 4
-17.071781 -14.67369 3.565455 12 12
-11.49856 -9.8798523 -1.326336 5 5
-16.9538 -14.556847 4.3435764 10 13
-11.592691 -9.9466734 -0.80053085 5 6
-15.330217 -13.148872 4.6627855 8 14
-11.668223 -10.000878 -0.26824349 11 7
-11.960926 -10.244515 4.2197857 3 15
-3.3189712 -2.8276639 -1.1683092 2 0
-11.83051 -10.075676 0.2712453 11 8
-3.8896694 -3.3103683 -1.1791934 1 1
-12.921202 -10.992918 0.88908333 6 9
-4.8746796 -4.1442795 -1.2436931 1 2
-21.798254 -18.518995 2.5024157 2 10
-6.3795028 -5.417872 -1.3256258 1 3
-15.90708 -13.499738 2.5616937 6 11
-8.8567085 -7.511034 -1.4258715 2 4
-17.397284 -14.748755 3.612385 1 12
-11.746639 -9.9513044 -1.3469048 5 5
-17.011557 -14.401345 4.3325095 10 13
-11.785145 -9.9733305 -0.80911398 9 6
-15.472233 -13.084311 4.6780825 8 14
-11.870638 -10.031467 -0.2712802 10 7
-19.680712 -16.625605 6.9032216 5 15
-3.3470149 -2.8124642 -1.171415 1 0
-12.033794 -10.104712 0.27428201 8 8
-3.9046488 -3.2775526 -1.1769439 1 1
-20.197285 -16.941528 1.3815647 4 9
-4.8824286 -4.0924902 -1.2383504 1 2
-15.999976 -13.406552 1.8262614 12 10
-6.4020243 -5.3605227 -1.3224971 1 3
-16.002466 -13.389627 2.5619376 9 11
-8.7812452 -7.3448672 -1.4056411 8 4
-17.502859 -14.629469 3.6130109 6 12
-11.959351 -9.9924803 -1.3634645 6 5
-16.887657 -14.100251 4.2764115 4 13
-11.990972 -10.00469 -0.81842977 5 6
-12.070749 -10.060539 -0.27428201 10 7
-14.200012 -11.826812 4.951726 6 15
-3.369544 -2.7914934 -1.1724503 1 0
-12.242446 -10.138637 0.27745837 11 8
-3.9349422 -3.2564237 -1.1791934 1 1
-20.20133 -16.712 1.3740283 14 9
-4.899581 -4.050406 -1.2356791 2 2
-16.004093 -13.220929 1.8161514 11 10
-6.4079018 -5.2916651 -1.3162397 1 3
-16.061079 -13.253863 2.5568192 8 11
-8.804738 -7.2606521 -1.4012538 7 4
-17.413025 -14.354191 3.5742152 17 12
-13.780397 -11.351603 -1.5620052 0 5
-17.19031 -14.150456 4.32793 6 13
-12.1868 -10.028172 -0.82711756 5 6
-16.325497 -13.424238 4.8796382 7 14
-12.296736 -10.10425 -0.27780741 11 7
-20.978409 -17.231865 7.2743683 3 15
-3.3705142 -2.7538261 -1.1662387 1 0
-12.453889 -10.168003 0.28063467 12 8
-3.9449384 -3.2197075 -1.1755942 1 1
-24.580057 -20.047001 1.6622947 3 9
-4.9109974 -4.002459 -1.2314813 1 2
-19.175291 -15.622272 2.1639028 4 10
-6.4263043 -5.2318363 -1.3124853 1 3
-16.182474 -13.165215 2.5614502 7 11
-8.8262358 -7.1780076 -1.3968666 2 4
-17.850067 -14.506356 3.6430464 10 12
-17.181059 -13.947738 4.3015981 23 13
-12.402309 -10.061127 -0.83695668 10 6
-16.651102 -13.503057 4.9493732 5 14
-12.450676 -10.089559 -0.27972716 11 7
-13.513476 -10.943001 4.6592607 3 15
-3.3836396 -2.7253811 -1.1641681 1 0
-12.680125 -10.209666 0.28416011 12 8
-3.9551733 -3.1823153 -1.1719949 1 1
-24.933823 -20.054476 1.6769488 9 9
-4.9320064 -3.9640188 -1.2299548 1 2
-16.820194 -13.509292 1.8874446 1 10
-6.4340401 -5.1657109 -1.3068537 1 3
-16.370806 -13.134266 2.5770495 6 11
-8.8420601 -7.0888939 -1.3915043 1 4
-19.295601 -15.464226 3.9164937 4 12
-13.021178 -10.428199 -1.45951 3 5
-17.287212 -13.834813 4.3038878 9 13
-12.606192 -10.085021 -0.84606314 12 6
-16.955019 -13.554406 5.0114598 4 14
-12.700482 -10.145928 -0.28374124 10 7
-13.777857 -11.002658 4.724483 7 15
-3.3960605 -2.6974807 -1.1620976 1 0
-12.881093 -10.224078 0.28705716 12 8
-3.9767425 -3.1553202 -1.1719949 1 1
-20.647339 -16.370749 1.3809367 14 9
-4.9349399 -3.9099832 -1.2238491 1 2
-19.0515 -15.089211 2.1262515 9 10
-6.4389687 -5.0961494 -1.3005962 1 3
-16.571093 -13.105851 2.5941112 8 11
-8.8916636 -7.0297761 -1.391748 2 4
-19.331793 -15.272805 3.9021015 9 12
-13.090293 -10.338093 -1.4593358 6 5
-17.488861 -13.801958 4.3306012 12 13
-12.817432 -10.108081 -0.85548359 16 6
-16.57247 -13.064681 4.8719897 10 14
-12.924764 -10.181748 -0.28719682 15 7
-14.019786 -11.036452 4.7809052 9 15
-3.4285004 -2.6844239 -1.1667564 1 0
-13.070064 -10.229836 0.28970996 2 8
-3.9956048 -3.1250789 -1.1710953 1 1
-20.76301 -16.233522 1.3812507 14 9
-4.952157 -3.8690491 -1.2215593 1 2
-19.550562 -15.263586 2.1700037 6 10
-6.4548206 -5.0376182 -1.2968419 1 3
-19.250551 -15.013145 2.9974985 2 11
-8.8606701 -6.9052978 -1.3793174 2 4
-19.497633 -15.189429 3.9146166 4 12
-11.322716 -8.8144951 -1.2553912 1 5
-17.166397 -13.354057 4.2275643 7 13
-11.701877 -9.0998287 -0.77687502 1 6
-17.029499 -13.233255 4.9790664 4 14
-20.117165 -15.621356 -0.44458261 3 7
-13.768012 -10.687268 4.6701312 6 15
-3.4803333 -2.6869981 -1.1781443 1 0
-21.081274 -16.264097 0.46475759 4 8
-4.0059824 -3.0894785 -1.1679459 5 1
-26.474468 -20.402817 1.7516847 6 9
-4.9697137 -3.8271959 -1.2192695 1 2
-20.967537 -16.141346 2.3150308 4 10
-6.4491234 -4.9611177 -1.2887073 1 3
-19.416275 -14.925569 3.0070045 13 11
-8.8649673 -6.81217 -1.3727365 2 4
-19.291416 -14.813527 3.8523557 9 12
-11.323912 -8.6891432 -1.2487675 4 5
-17.633877 -13.526062 4.3199158 11 13
-11.42114 -8.7542524 -0.75416124 3 6
-16.621769 -12.731297 4.8337483 11 14
-20.408796 -15.626294 -0.44866648 3 7
-13.940484 -10.666015 4.7032599 14 15
-3.4651861 -2.6368983 -1.1667564 1 0
-21.375767 -16.254513 0.46873674 4 8
-4.0227981 -3.0578992 -1.1665962 14 1
-26.81666 -20.369713 1.7648733 3 9
-4.9806747 -3.7805367 -1.2154534 1 2
-19.7036 -14.950431 2.1639028 14 10
-6.4647141 -4.9016509 -1.2849529 1 3
-19.72094 -14.941906 3.0379593 2 11
-8.8790789 -6.7249432 -1.3676178 1 4
-20.140965 -15.243552 4.0006557 9 12
-11.349335 -8.5834379 -1.2449325 4 5
-17.646441 -13.341057 4.3000717 7 13
-11.461258 -8.6586552 -0.75280046 13 6
-17.092846 -12.903787 4.9444242 6 14
-20.742451 -15.653282 -0.45358807 1 7
-14.141085 -10.663814 4.7457061 9 15
-3.48351 -2.6126432 -1.1667564 1 0
-23.607351 -17.692707 0.51495069 2 8
-4.045608 -3.0309088 -1.1670461 15 1
-26.907051 -20.1437 1.7615237 3 9
-5.0069456 -3.7456741 -1.2154534 1 2
-6.463963 -4.8303862 -1.2780697 1 3
-19.932932 -14.884629 3.0545335 2 11
-8.8876324 -6.6342955 -1.3617681 1 4
-18.3009 -13.651014 3.6161397 10 12
-11.437738 -8.5254259 -1.2480702 3 5
-15.483183 -11.536609 3.7532129 8 13
-11.700851 -8.712018 -0.76452374 1 6
-17.2216 -12.813227 4.9556718 9 14
-21.087097 -15.683513 -0.45871904 3 7
-16.175043 -12.021417 5.4000006 7 15
-3.4861298 -2.5767763 -1.16158 1 0
-23.84289 -17.610632 0.51739407 2 8
-4.0525594 -2.9921732 -1.1629969 14 1
-27.209347 -20.075125 1.7720956 10 9
-5.007689 -3.6919885 -1.2093475 1 2
-29.365223 -21.642 3.1914687 8 10
-6.4752584 -4.768743 -1.2736895 1 3
-20.073133 -14.77217 3.0601394 6 11
-8.8985529 -6.5462074 -1.3564059 1 4
-18.282749 -13.439845 3.5939257 12 12
-11.577263 -8.5043459 -1.2567859 0 5
-15.568093 -11.431721 3.7543578 4 13
-11.79037 -8.6513901 -0.76640785 1 6
-17.276062 -12.667331 4.9457741 2 14
-21.441225 -15.715609 -0.46402457 3 7
-15.979601 -11.703867 5.3073435 1 15
-3.5129561 -2.5598142 -1.1646857 1 0
-23.981609 -17.462055 0.51781291 2 8
-4.0649543 -2.9587862 -1.1607474 17 1
-24.100428 -17.529268 1.5618098 2 9
-5.0231748 -3.6508908 -1.2070577 1 2
-28.946089 -21.030561 3.1302855 4 10
-6.4851904 -4.7083082 -1.2693094 1 3
-20.149115 -14.617714 3.0564835 13 11
-8.8850536 -6.4435296 -1.3476313 1 4
-18.239447 -13.217724 3.5676448 8 12
-12.20298 -8.8399773 -1.3183178 0 5
-15.578751 -11.277141 3.7383301 13 13
-16.870153 -12.198499 4.8063045 4 14
-21.811903 -15.760196 -0.46971408 1 7
-16.0354 -11.577868 5.2995791 2 15
-3.546433 -2.5464942 -1.169862 1 0
-23.778255 -17.067537 0.51090175 7 8
-4.1187654 -2.9541867 -1.1701953 4 1
-28.243 -20.249844 1.8212916 7 9
-5.03195 -3.6051805 -1.2032416 1 2
-30.14521 -21.581854 3.2435882 4 10
-6.5170889 -4.6640558 -1.2693094 1 3
-20.33534 -14.54258 3.0696454 9 11
-8.9039783 -6.3628793 -1.3437315 1 4
-17.962509 -12.831468 3.4963107 11 12
-12.70386 -9.0682678 -1.3655562 5 5
-15.880868 -11.327713 3.7917566 11 13
-16.737473 -11.925505 4.7446675 8 14
-22.159231 -15.776868 -0.47481018 4 7
-15.503155 -11.033817 5.0987353 6 15
-3.5447619 -2.5089037 -1.1636505 1 0
-23.978458 -16.958853 0.51264697 2 8
-4.1276393 -2.9182091 -1.1670461 1 1
-23.918959 -16.897989 1.5348045 2 9
-5.0088801 -3.535996 -1.1917931 1 2
-27.8724 -19.669104 2.9845614 3 10
-6.4881434 -4.5751872 -1.2574203 1 3
-20.491547 -14.439128 3.0779324 2 11
-8.9178715 -6.2815485 -1.3393443 1 4
-18.117886 -12.752366 3.5091383 9 12
-12.752254 -8.972415 -1.3641616 6 5
-16.155146 -11.358238 3.8386953 12 13
-16.599777 -11.657864 4.6830311 10 14
-22.524731 -15.807164 -0.48032513 4 7
-16.247284 -11.393389 5.3171787 3 15
-3.5368378 -2.4664142 -1.1553683 1 0
-26.301386 -18.334461 0.5596289 3 8
-4.1559076 -2.8948898 -1.1692957 2 1
-24.020309 -16.725662 1.533967 2 9
-5.0489483 -3.5130322 -1.1956092 2 2
-26.984989 -18.762041 2.875442 6 10
-6.4834504 -4.5061154 -1.2505373 1 3
-20.553482 -14.274406 3.0725703 4 11
-8.9321499 -6.1987658 -1.3349569 1 4
-18.256205 -12.664782 3.51915 5 12
-12.776923 -8.8570585 -1.3601525 0 5
-16.450308 -11.394983 3.8898325 8 13
-12.366163 -8.5627356 -0.78828424 5 6
-17.145491 -11.863252 4.8135028 4 14
-22.928957 -15.853097 -0.4865731 4 7
-16.074953 -11.110087 5.2359095 2 15
-3.5694647 -2.4532256 -1.1605446 1 0
-4.1562366 -2.8532999 -1.1638968 2 1
-29.125196 -19.979788 1.8510182 7 9
-5.057157 -3.4665995 -1.1917931 1 2
-24.009045 -16.451647 2.5463421 2 10
-6.51475 -4.4607439 -1.2505373 1 3
-23.962038 -16.394865 3.5649223 3 11
-8.9380894 -6.1131692 -1.3295947 1 4
-19.086229 -13.044163 3.6615057 9 12
-12.764527 -8.7204351 -1.3524828 16 5
-16.144825 -11.021514 3.7997706 18 13
-12.329945 -8.4109192 -0.78221327 15 6
-17.00205 -11.593666 4.7509661 7 14
-23.332138 -15.898212 -0.49282104 4 7
-17.368925 -11.826082 5.6303501 1 15
-3.5545106 -2.4065847 -1.1501919 1 0
-25.240074 -17.082392 0.53198427 2 8
-4.1712127 -2.8209395 -1.162547 2 1
-5.0676217 -3.4233043 -1.1887401 2 2
-20.998907 -14.174611 2.2165449 2 10
-6.5122132 -4.3941979 -1.2442799 1 3
-24.125744 -16.266899 3.572722 1 11
-8.9476261 -6.0284348 -1.3247199 1 4
-18.481516 -12.447181 3.5291619 5 12
-13.005266 -8.7523603 -1.3714827 10 5
-16.200197 -10.894291 3.7948093 8 13
-23.162676 -15.57054 -1.4626855 2 6
-16.848013 -11.317128 4.6857305 8 14
-23.771307 -15.955604 -0.4997322 4 7
-17.259722 -11.580571 5.5692687 8 15
-3.586879 -2.3930564 -1.1553683 1 0
-26.749695 -17.833082 0.56116474 3 8
-4.1805868 -2.7859983 -1.1598476 2 1
-28.563377 -19.020607 1.798473 7 9
-5.0750527 -3.3769662 -1.184924 2 2
-28.493713 -18.952692 2.993974 3 10
-6.5427313 -4.3486271 -1.2442799 1 3
-28.458757 -18.900787 4.1947432 4 11
-8.9388371 -5.9344535 -1.3174077 1 4
-18.309528 -12.146402 3.4800415 11 12
-16.416359 -10.878115 3.8280101 12 13
-18.952705 -12.549284 -1.1912712 6 6
-16.692276 -11.048375 4.6213942 9 14
-24.187927 -15.997499 -0.50618958 6 7
-16.195848 -10.70355 5.2017455 1 15
-3.6131861 -2.3743219 -1.1584741 1 0
-27.487188 -18.055714 0.57404459 6 8
-4.2162271 -2.7674367 -1.1643466 2 1
-28.682163 -18.819178 1.7978449 10 9
-5.0929956 -3.339114 -1.1837791 2 2
-28.567003 -18.715094 2.9878731 7 10
-6.5490446 -4.2888403 -1.2398998 1 3
-28.600035 -18.71534 4.1966929 2 11
-8.9866953 -5.8762498 -1.3183827 1 4
-18.907669 -12.358698 3.5776565 9 12
-16.496832 -10.766465 3.8291552 1 13
-19.159798 -12.49965 -1.1989121 2 6
-16.734716 -10.909227 4.6119466 13 14
-24.577162 -16.009434 -0.51198381 4 7
-16.305565 -10.617306 5.2136512 7 15
-3.6000731 -2.3307753 -1.1491566 1 0
-26.658907 -17.246424 0.55421865 9 8
-4.2382388 -2.7407913 -1.1652465 2 1
-30.169945 -19.495419 1.8825245 3 9
-5.1161823 -3.303478 -1.1837791 2 2
-33.211807 -21.436377 3.4583397 5 10
-6.5257039 -4.208755 -1.229888 1 3
-22.626249 -14.58162 3.3050969 1 11
-8.9697456 -5.7783937 -1.3100955 1 4
-18.782541 -12.090607 3.5379224 8 12
-17.811556 -11.452384 4.1161318 2 13
-13.738447 -8.8267012 -0.85579765 8 6
-16.926645 -10.870887 4.6443396 11 14
-25.030573 -16.063175 -0.51913929 2 7
-16.310991 -10.459411 5.1919103 10 15
-3.6227732 -2.3097394 -1.1512272 2 0
-26.854939 -17.115082 0.55585915 3 8
-4.242476 -2.701715 -1.1611973 2 1
-30.628815 -19.497671 1.9028308 3 9
-5.1252975 -3.2601469 -1.1807261 2 2
-28.783649 -18.294863 2.9838638 3 10
-6.524189 -4.1451707 -1.2242563 1 3
-29.016241 -18.421375 4.2200918 2 11
-8.9729919 -5.6922355 -1.3047333 1 4
-16.633972 -10.5481 3.1196165 11 12
-13.83742 -8.7679482 -1.4331889 0 5
-17.915955 -11.34351 4.1218562 13 13
-19.311756 -12.222541 -1.1977608 6 6
-17.196474 -10.875361 4.6974282 3 14
-25.476809 -16.099556 -0.52605045 2 7
-15.895089 -10.040695 5.0376539 4 15
-3.6384108 -2.2850273 -1.1512272 2 0
-28.267834 -17.739254 0.58252645 3 8
-4.234354 -2.6562066 -1.1539989 2 1
-30.496799 -19.115774 1.8862926 7 9
-5.1196475 -3.2065706 -1.1742386 9 2
-6.5931611 -4.1246662 -1.2317652 1 3
-23.40082 -14.628138 3.3884554 1 11
-8.9441891 -5.5889511 -1.2949837 1 4
-16.608349 -10.369986 3.1011572 5 12
-13.950868 -8.7073183 -1.4387671 1 5
-18.224306 -11.365706 4.174901 2 13
-19.354235 -12.061019 -1.1951439 2 6
-37.328953 -23.253305 10.153391 5 14
-25.969482 -16.164587 -0.53393894 2 7
-15.859808 -9.8641815 5.0045252 10 15
-3.6707063 -2.2697299 -1.1564035 1 0
-29.311567 -18.117327 0.60147971 7 8
-4.2627435 -2.6327233 -1.1566983 2 1
-29.504559 -18.215271 1.8172091 10 9
-5.126317 -3.1623709 -1.170804 12 2
-29.4877 -18.176455 3.0305796 3 10
-17.482048 -10.763448 2.5207458 1 11
-8.9593191 -5.5118103 -1.2915714 1 4
-16.594416 -10.204961 3.0855138 10 12
-13.933228 -8.5617266 -1.4307486 4 5
-31.105415 -19.098785 7.0950422 3 13
-19.811691 -12.150138 5.3655324 1 14
-26.449987 -16.20857 -0.54147834 2 7
-15.877163 -9.7257299 4.988996 9 15
-3.7025704 -2.2547393 -1.16158 1 0
-30.4401 -18.522432 0.62196887 4 8
-4.2922196 -2.6107359 -1.1598476 2 1
-32.474457 -19.737024 1.9915926 4 9
-5.1465907 -3.1254873 -1.1704224 14 2
-29.607332 -17.973246 3.0302308 3 10
-29.362005 -17.79627 4.2157049 2 11
-8.9898367 -5.4465857 -1.2905964 1 4
-16.661875 -10.086815 3.084888 12 12
-13.878679 -8.398612 -1.4192441 5 5
-24.306345 -14.697264 5.5212493 1 13
-19.316769 -11.666421 5.2098665 1 14
-17.258234 -10.406721 5.4000006 5 15
-3.6751399 -2.2030122 -1.1481214 1 0
-31.817669 -19.065117 0.64744943 4 8
-4.3036532 -2.576704 -1.158048 1 1
-5.1643758 -3.0883679 -1.1696591 14 2
-24.351662 -14.533794 3.4820511 1 11
-9.0378723 -5.3897901 -1.2920588 1 4
-16.804802 -10.017676 3.0986543 5 12
-13.82058 -8.2321806 -1.407391 5 5
-24.168793 -14.384639 5.4670596 3 13
-20.101292 -11.949513 5.3988256 2 14
-16.466555 -9.7771244 5.1313462 1 15
-3.7033598 -2.1858008 -1.1522624 1 0
-4.3126984 -2.5424016 -1.1557984 1 1
-5.1959629 -3.0582135 -1.1719489 3 2
-31.459656 -18.508974 3.1933866 4 10
-6.5681486 -3.8612189 -1.2067356 1 3
-28.057253 -16.480848 3.9953647 2 11
-24.047283 -14.10846 4.4158325 3 12
-13.814422 -8.1016293 -1.4011157 5 5
-19.182892 -11.241042 4.3218241 9 13
-16.567875 -9.6970043 4.4319859 8 14
-19.811317 -11.586082 -0.40060252 4 7
-17.22661 -10.066417 5.3461661 8 15
-3.7452567 -2.1754186 -1.1605446 1 0
-32.630898 -18.945913 0.65861893 4 8
-4.3151722 -2.5034313 -1.1517494 1 1
-5.220057 -3.0247438 -1.1727122 1 2
-31.522581 -18.250965 3.1867626 4 10
-6.5703435 -3.8025687 -1.2023554 1 3
-25.467382 -14.727324 3.6122077 1 11
-8.9291334 -5.1593947 -1.2662226 1 4
-18.723722 -10.814511 3.4246635 1 12
-13.722239 -7.9193468 -1.3861248 1 5
-18.497269 -10.666495 4.1504774 7 13
-19.2847 -11.107119 5.1378818 1 14
-17.234446 -9.9142523 5.3275318 8 15
-3.7297902 -2.1326149 -1.1512272 1 0
-4.3287277 -2.4720681 -1.1508496 2 1
-5.2205791 -2.9765594 -1.1681327 2 2
-6.5692644 -3.7409678 -1.1973495 1 3
-8.9502411 -5.0906467 -1.2642727 1 4
-18.862312 -10.71964 3.43624 11 12
-13.678814 -7.7706475 -1.3763635 1 5
-18.808477 -10.676021 4.2039042 10 13
-18.794058 -10.659163 -1.1323409 2 6
-17.298195 -9.7908354 5.3259788 7 15
-3.7176485 -2.0913692 -1.1429449 1 0
-31.585234 -17.761068 0.63251013 4 8
-4.3441815 -2.4408329 -1.1503997 1 1
-5.2321587 -2.936151 -1.1662247 2 2
-25.414198 -14.250124 2.5491312 2 10
-6.560113 -3.6768491 -1.1910921 1 3
-25.811777 -14.455286 3.6324379 7 11
-8.919733 -4.9912028 -1.2550106 1 4
-18.957253 -10.603535 3.4403071 5 12
-13.635335 -7.6205297 -1.3666019 1 5
-18.875692 -10.540627 4.2023773 12 13
-18.69178 -10.433642 -1.1218736 2 6
-20.098059 -11.209425 5.3128943 2 14
-18.674707 -10.407021 -0.37316737 2 7
-23.190275 -12.918155 7.1128654 1 15
-3.7165866 -2.0575941 -1.1382862 2 0
-35.400581 -19.582495 0.70615929 5 8
-4.3658118 -2.4140356 -1.1517494 1 1
-31.790882 -17.563992 1.903459 3 9
-5.2508097 -2.8986044 -1.165843 2 2
-6.5614033 -3.6176105 -1.186712 1 3
-25.798302 -14.217939 3.6168387 5 11
-8.9256811 -4.9150505 -1.2511108 1 4
-32.500881 -17.882292 5.8753667 3 12
-13.604839 -7.4824138 -1.3584094 0 5
-18.955606 -10.416628 4.2042856 4 13
-19.875866 -10.913305 -1.1883403 12 6
-20.706896 -11.3649 5.4532633 2 14
-19.897064 -10.91139 -0.39609981 42 7
-21.575171 -11.826753 6.592639 8 15
-3.7593455 -2.0479603 -1.147086 2 0
-22.927608 -12.479778 0.45564744 4 8
-4.3650241 -2.3749499 -1.1472504 1 1
-30.011084 -16.315039 1.7902039 3 9
-5.2531667 -2.853425 -1.1620268 2 2
-6.5789304 -3.5690968 -1.1854606 1 3
-24.730551 -13.410831 3.4542651 1 11
-8.9467106 -4.8475633 -1.2494047 2 4
-32.821621 -17.768801 5.9113464 3 12
-13.538051 -7.3261061 -1.3467305 1 5
-21.970564 -11.879441 4.8549447 6 13
-18.675707 -10.089497 -1.1124532 2 6
-21.70285 -11.720009 5.6944108 7 14
-21.408627 -11.546641 6.5175815 3 15
-3.759577 -2.0150228 -1.1429449 2 0
-22.975004 -12.303607 0.45491445 4 8
-4.393115 -2.3516207 -1.1503997 1 1
-34.073524 -18.224152 2.0250876 4 9
-5.2690048 -2.8157516 -1.1612636 1 2
-6.5786753 -3.5112092 -1.1810803 1 3
-26.119747 -13.929082 3.6346316 5 11
-8.8901606 -4.7389297 -1.236974 1 4
-34.362762 -18.301798 6.1663346 3 12
-13.500925 -7.1846151 -1.338015 1 5
-21.588125 -11.483449 4.7530522 11 13
-19.079044 -10.140238 -1.1323409 2 6
-21.013084 -11.158747 5.4928551 2 14
-20.978418 -11.126262 6.3628078 9 15
-3.8077331 -2.0067418 -1.1532978 2 0
-23.017874 -12.120551 0.45407671 4 8
-4.3939047 -2.3127258 -1.1463506 1 1
-34.351944 -18.065781 2.0340893 4 9
-5.285058 -2.7770717 -1.1605004 1 2
-27.867655 -14.637053 2.753947 6 10
-6.5960302 -3.4615257 -1.1798289 1 3
-24.711447 -12.957295 3.4259913 12 11
-8.8773127 -4.652792 -1.2306367 1 4
-35.796913 -18.746002 6.4000478 4 12
-13.44483 -7.0347672 -1.3275563 1 5
-19.400961 -10.146887 4.2558041 13 13
-19.945934 -10.423049 -1.1794432 17 6
-20.736343 -10.826883 5.4006248 1 14
-20.062593 -10.470642 -0.39501777 1 7
-21.084702 -10.994723 6.3716078 1 15
-3.7873447 -1.9623342 -1.1429449 1 0
-22.991825 -11.902567 0.45191261 4 8
-4.4047513 -2.2793062 -1.1450008 1 1
-30.684078 -15.86437 1.8103008 7 9
-5.297339 -2.7365046 -1.1589739 1 2
-34.999073 -18.072105 3.4461379 4 10
-6.6095023 -3.4099581 -1.1779517 1 3
-28.019686 -14.443465 3.8705707 4 11
-8.8778152 -4.5743365 -1.2262495 1 4
-22.262878 -11.461223 3.9659271 4 12
-13.424518 -6.9051914 -1.3207581 0 5
-19.574337 -10.064165 4.2783194 13 13
-19.977352 -10.262561 -1.1770358 12 6
-20.884243 -10.719221 5.4195209 1 14
-20.934021 -10.730927 6.3032794 1 15
-3.807837 -1.9393535 -1.1450155 1 0
-23.024458 -11.71637 0.45093527 2 8
-4.4188199 -2.2476175 -1.1445509 1 1
-31.397678 -15.956521 1.8457847 7 9
-5.3198161 -2.7012317 -1.1597371 1 2
-31.47159 -15.973354 3.0877535 4 10
-6.6437182 -3.3690925 -1.1798289 1 3
-28.172955 -14.274421 3.877883 6 11
-8.9130764 -4.5140405 -1.226737 1 4
-22.619074 -11.445544 4.0150476 1 12
-13.401275 -6.7753448 -1.3137856 0 5
-19.714211 -9.9626846 4.2935843 6 13
-19.987892 -10.092235 -1.1734769 6 6
-19.938997 -10.058815 5.1558785 1 14
-20.010422 -10.090466 -0.39117825 12 7
-22.084982 -11.126918 6.6262856 1 15
-3.8275247 -1.9175174 -1.147086 1 0
-23.065895 -11.5455 0.45023715 2 8
-4.4353719 -2.2191329 -1.1450008 2 1
-5.3446393 -2.6694002 -1.1612636 1 2
-35.445061 -17.695431 3.4660094 5 10
-6.6093502 -3.296742 -1.1698171 1 3
-30.239122 -15.070087 4.1484327 2 11
-20.922499 -10.413347 3.7015526 4 12
-13.385261 -6.6561522 -1.3078591 0 5
-20.156073 -10.018724 4.3752503 11 13
-20.192123 -10.027851 -1.1815367 2 6
-22.707554 -11.267189 5.8523264 3 14
-22.158293 -10.9802 6.6262856 1 15
-3.8269522 -1.8839246 -1.1429449 2 0
-23.063393 -11.343596 0.44863155 2 8
-4.4560022 -2.1906946 -1.1463506 2 1
-31.527731 -15.486238 1.840865 3 9
-5.3455205 -2.623373 -1.1574475 2 2
-31.321211 -15.364446 3.0521939 3 10
-6.6463957 -3.2574749 -1.17232 1 3
-31.388332 -15.370188 4.2912636 2 11
-21.081644 -10.309545 3.7168832 7 12
-19.939741 -9.7381878 4.3134284 6 13
-20.365747 -9.9374437 -1.1876076 2 6
-20.044304 -9.7719345 5.1482301 2 14
-22.234411 -10.825238 6.6262856 1 15
-3.8434894 -1.8588427 -1.1439801 2 0
-23.060997 -11.143162 0.44706085 4 8
-4.4659238 -2.1569886 -1.1450008 2 1
-31.760992 -15.326526 1.8481922 3 9
-5.3530946 -2.5808747 -1.1551577 2 2
-31.603607 -15.230185 3.0692768 7 10
-6.6191397 -3.1869998 -1.1635597 1 3
-33.317726 -16.02758 4.5396333 5 11
-8.900382 -4.2796392 -1.2126001 1 4
-20.796989 -9.9910412 3.6543095 6 12
-20.495783 -9.8331347 4.4187551 15 13
-20.582315 -9.8658075 -1.1961907 4 6
-20.096294 -9.6285343 5.1446304 2 14
-21.458523 -10.271992 -0.41526255 1 7
-27.297306 -13.055252 8.1077662 2 15
-3.8511376 -1.829479 -1.1424273 2 0
-23.064056 -10.951622 0.44566464 4 8
-4.486155 -2.1282651 -1.1463506 3 1
-32.059479 -15.2024 1.8594967 3 9
-5.3616657 -2.5401757 -1.1532496 2 2
-35.962746 -17.022554 3.4810004 5 10
-6.6299648 -3.1368036 -1.1616825 1 3
-33.53194 -15.850474 4.5540137 2 11
-8.8546524 -4.1817942 -1.202363 1 4
-20.666231 -9.7556477 3.619581 15 12
-20.146576 -9.4931536 4.3290749 10 13
-21.501837 -10.127168 -1.2455959 15 6
-23.527351 -11.071127 6.0030437 6 14
-21.46999 -10.093861 -0.41411069 6 7
-19.762417 -9.286849 5.8508635 2 15
-3.8775063 -1.8097591 -1.1465684 2 0
-23.092831 -10.768366 0.44475713 4 8
-4.497005 -2.0960329 -1.1454507 3 1
-32.197422 -14.993388 1.8613808 7 9
-5.40241 -2.513447 -1.1582106 2 2
-31.908146 -14.838359 3.0786893 8 10
-6.6087084 -3.0704639 -1.1541736 1 3
-38.212116 -17.745588 5.1731105 3 11
-8.8685064 -4.1147423 -1.2004131 1 4
-32.065842 -14.864074 5.5978513 6 12
-0.78457224 -0.36352074 -0.075651184 6 5
-20.474409 -9.4778566 4.3855543 5 13
-21.553885 -9.9684258 -1.2445492 11 6
-21.047899 -9.7299538 5.353385 4 14
-21.507338 -9.9332314 -0.4135173 11 7
-27.325163 -12.614428 8.0642843 2 15
-3.8950036 -1.7857392 -1.1481214 2 0
-23.094688 -10.57845 0.44339585 18 8
-4.5076246 -2.0637517 -1.1445509 4 1
-32.20792 -14.732341 1.8561473 3 9
-5.4068933 -2.4709048 -1.1555393 2 2
-36.792816 -16.806246 3.5388715 10 10
-6.6438317 -3.0319715 -1.1566767 1 3
-36.464546 -16.633228 4.9210844 5 11
-8.825861 -4.0221777 -1.1909074 2 4
-32.382011 -14.743689 5.635396 3 12
-0.78340167 -0.35652134 -0.075302556 31 5
-20.540237 -9.3390846 4.3859358 15 13
-20.024647 -9.0962324 -1.1526471 6 6
-21.085253 -9.5735693 5.3461866 5 14
-21.599947 -9.7981768 -0.41400599 4 7
-4.5939107 -2.0829237 1.3515531 1 15
-3.8894525 -1.7512549 -1.1429449 2 0
-23.098682 -10.390651 0.44210437 9 8
-4.5268989 -2.0354199 -1.1459007 4 1
-41.644608 -18.70709 2.3925908 13 9
-5.4110489 -2.4284172 -1.152868 2 2
-41.840057 -18.768568 4.0119529 8 10
-6.6498947 -2.9802148 -1.1541736 1 3
-32.534081 -14.566838 4.3768158 4 11
-8.8222322 -3.9482236 -1.1867638 3 4
-0.79314804 -0.35429409 -0.075999804 29 5
-20.497561 -9.1518307 4.3634205 5 13
-20.069685 -8.9523964 -1.1517051 6 6
-20.644276 -9.2000637 5.2179646 1 14
-21.790354 -9.7062531 -0.41637954 13 7
-4.6083398 -2.0508025 1.3515531 1 15
-3.9033513 -1.7248385 -1.1434625 3 0
-23.145048 -10.217838 0.4416157 9 8
-4.5356507 -2.0014055 -1.1445509 3 1
-33.427753 -14.736433 1.9145541 3 9
-5.4242768 -2.3890002 -1.1521047 2 2
-42.33477 -18.636572 4.0468154 8 10
-6.6922359 -2.9432619 -1.1579281 1 3
-33.545498 -14.739412 4.498929 5 11
-8.8059587 -3.8673816 -1.180914 3 4
-0.78830308 -0.34554872 -0.075302556 31 5
-23.74202 -10.402256 5.0385027 12 13
-21.578951 -9.4455595 -1.2345006 2 6
-20.572304 -8.9963741 5.1837721 2 14
-22.066467 -9.6451921 -0.42035866 1 7
-3.9135251 -1.6967785 -1.1429449 2 0
-23.138748 -10.022623 0.44014969 18 8
-4.5495124 -1.9696928 -1.1445509 3 1
-39.949448 -17.279398 2.2811153 5 9
-5.4354162 -2.348737 -1.1509598 2 2
-6.716249 -2.8980331 -1.1585537 1 3
-33.577606 -14.481646 4.4899111 5 11
-8.8072214 -3.7948105 -1.1775017 3 4
-0.77599549 -0.33387533 -0.073908068 33 5
-26.867699 -11.548837 5.6845818 1 13
-22.734478 -9.7628031 -1.2966758 7 6
-21.764818 -9.3419123 5.4681101 4 14
-23.109167 -9.9093771 -0.43889311 5 7
-21.664499 -9.2854176 6.3157024 1 15
-3.9214284 -1.6685877 -1.1419097 2 0
-23.123623 -9.8296871 0.43857896 11 8
-4.5699883 -1.9417279 -1.1463506 3 1
-40.172775 -17.052332 2.2871861 5 9
-5.4440475 -2.3086205 -1.1494334 3 2
-41.171532 -17.450846 3.9122467 7 10
-6.7139916 -2.8430068 -1.1547993 1 3
-42.314995 -17.90938 5.64182 10 11
-8.8090801 -3.7247238 -1.1743331 3 4
-4.2544312 -1.7971426 0.73148763 0 12
-0.7782501 -0.32858557 -0.073908068 33 5
-24.449377 -10.312743 5.157949 7 13
-22.759911 -9.5907707 -1.2943729 2 6
-24.360188 -10.260097 6.1024723 1 14
-23.146589 -9.7394457 -0.43833464 10 7
-20.229572 -8.5078831 5.8803692 2 15
-3.9433913 -1.6463231 -1.1450155 2 0
-23.297039 -9.7167072 0.44060344 4 8
-4.5687094 -1.9045784 -1.1427513 3 1
-40.055599 -16.681738 2.2739975 5 9
-5.4723244 -2.2767882 -1.1521047 2 2
-39.703575 -16.510746 3.7619903 6 10
-6.7368355 -2.7987576 -1.1554251 2 3
-42.571583 -17.677269 5.6598563 10 11
-8.8012228 -3.6509864 -1.1699458 3 4
-4.2811642 -1.774192 0.73399061 0 12
-0.77862787 -0.32251829 -0.073733754 30 5
-21.072268 -8.7198048 4.4328747 11 13
-23.352552 -9.6538525 -1.3243091 2 6
-24.544727 -10.14167 6.1312656 1 14
-23.511791 -9.7052698 -0.44398922 3 7
-21.846045 -9.0132103 6.3322673 1 15
-3.9545062 -1.6194432 -1.1450155 4 0
-23.943787 -9.7956648 0.45156357 2 8
-4.570745 -1.8690106 -1.140052 4 1
-41.784191 -17.068836 2.3654807 6 9
-5.4895134 -2.2402282 -1.1524864 2 2
-40.527138 -16.530575 3.8292744 7 10
-6.7154846 -2.7364373 -1.148542 1 3
-43.122963 -17.563044 5.717135 5 11
-8.7688704 -3.5678022 -1.1623899 6 4
-4.2455616 -1.7256715 0.72585601 1 12
-0.7863428 -0.3194606 -0.074256696 32 5
-21.107485 -8.5665712 4.4279137 10 13
-23.854538 -9.6717787 -1.3490118 2 6
-24.08333 -9.7498627 -0.45351824 1 7
-4.6113162 -1.8659023 1.332918 1 15
-3.9582675 -1.5896086 -1.1429449 3 0
-24.620506 -9.8774204 0.46304727 16 8
-4.5869784 -1.8393055 -1.1409518 3 1
-47.331738 -18.960104 2.6721694 9 9
-5.5046349 -2.2028103 -1.1524864 2 2
-40.25024 -16.098951 3.7926693 6 10
-6.7376242 -2.6921287 -1.1491677 1 3
-43.768116 -17.47057 5.7863569 5 11
-8.7726717 -3.4999402 -1.1597089 27 4
-4.30125 -1.7142854 0.73336488 0 12
-0.79225594 -0.31543729 -0.074605316 32 5
-0.88652414 -0.35279074 0.18546635 0 13
-23.689678 -9.417696 -1.3360325 2 6
-24.729025 -9.8158932 -0.46440852 1 7
-21.023638 -8.3365841 6.0599895 1 15
-3.9710655 -1.5626441 -1.1434625 3 0
-25.152264 -9.8874683 0.47173855 19 8
-4.6069627 -1.8100883 -1.1427513 3 1
-45.458752 -17.842566 2.5593331 8 9
-5.5107398 -2.1607451 -1.1505783 3 2
-40.550861 -15.891722 3.8104489 7 10
-6.7488961 -2.6421466 -1.1479162 1 3
-8.7839489 -3.433553 -1.1580026 26 4
-4.2873521 -1.6741558 0.72898471 1 12
-0.77958959 -0.30410594 -0.073210821 38 5
-0.9328649 -0.36370897 0.1946252 0 13
-23.676687 -9.221633 -1.3316363 2 6
-25.341166 -9.8546391 -0.47460076 1 7
-21.326225 -8.2847519 6.1303883 1 15
-3.9692602 -1.5300192 -1.1398392 4 0
-25.877558 -9.9645662 0.48402503 2 8
-4.6303988 -1.7820822 -1.1454507 4 1
-5.5165267 -2.1187022 -1.1486702 2 2
-6.7487326 -2.5878952 -1.1447875 1 3
-4.3358359 -1.6582968 0.73524207 0 12
-0.76675302 -0.29310128 -0.071816333 42 5
-0.93538135 -0.35718751 0.1946252 0 13
-3.9816523 -1.5029533 -1.1403568 2 0
-26.55098 -10.016891 0.49533421 2 8
-4.6044326 -1.7352804 -1.1360028 1 1
-0.77064657 -0.28843957 -0.071990639 41 5
-0.86429513 -0.32314676 0.17936046 1 13
-5.0900178 -1.900043 1.2543271 0 14
-4.6874361 -1.7302176 -1.153549 0 1
-0.87507528 -0.32231194 -0.18126856 1 2
-0.78194535 -0.28661588 -0.0728622 44 5
-0.88306677 -0.32333127 0.18279503 2 13
-5.1028333 -1.8653523 1.2543271 0 14
-0.8283751 -0.29970405 -0.23604298 1 0
-0.78078985 -0.28202561 -0.1916583 1 1
-0.8107627 -0.29237217 -0.1675303 1 2
-0.78205186 -0.28047729 -0.072687887 52 5
-0.87606138 -0.31384802 0.18088694 1 13
-5.0239854 -1.79687 1.231832 0 14
-0.78669083 -0.27858174 -0.22361965 1 0
-0.85400862 -0.30208501 0.015811879 2 8
-0.78636611 -0.27800345 -0.19255811 1 1
-0.79426956 -0.2801742 -0.16371413 2 2
-0.84180808 -0.29677773 0.078091539 3 10
-0.83658582 -0.29460862 -0.14047816 1 3
-0.85385966 -0.30052394 0.11114486 3 11
-0.77343702 -0.27191532 -0.10066409 5 4
-0.82752365 -0.29060566 0.13891383 1 12
-0.76702327 -0.26920888 -0.071119085 100 5
-0.8744719 -0.30657852 0.1801237 1 13
-0.85202676 -0.29837564 -0.047311708 3 6
-5.0655293 -1.7729313 1.2390305 0 14
-0.80603093 -0.28179443 -0.014904355 9 7
-0.80317193 -0.27828029 -0.22776078 11 0
-0.82203013 -0.28449264 0.015183594 19 8
-0.8066569 -0.27901477 -0.19705713 18 1
-0.84005481 -0.29023832 0.046579007 10 9
-0.8184284 -0.28244689 -0.16829354 28 2
-0.8080222 -0.27869758 0.074779622 7 10
-0.79748362 -0.27475148 -0.13359505 24 3
-0.82960826 -0.28565699 0.10773251 3 11
-0.78841019 -0.27116379 -0.10237025 9 4
-0.81453693 -0.27983183 0.13641086 1 12
-0.7914508 -0.27174604 -0.073210821 73 5
-0.85425347 -0.29297638 0.17554428 1 13
-0.82002759 -0.28091818 -0.045427613 9 6
-5.0479813 -1.7283105 1.231832 0 14
-0.84577256 -0.28924292 -0.015602452 7 7
-0.78492135 -0.26598662 -0.22206675 56 0
-0.8201592 -0.27760857 0.015113784 3 8
-0.7734639 -0.26165265 -0.18850899 73 1
-0.84201086 -0.28451371 0.046579007 10 9
-0.81661171 -0.27561384 -0.1675303 78 2
-0.8268913 -0.27892253 0.076348431 7 10
-0.78435951 -0.26427105 -0.1310921 40 3
-0.82029378 -0.27605945 0.10627007 4 11
-0.81642276 -0.27428097 0.13641086 1 12
-0.78572708 -0.26381579 -0.072513573 48 5
-0.85808933 -0.28777915 0.17592591 2 13
-0.8105579 -0.27152348 -0.044799585 4 6
-5.0300612 -1.6840124 1.2246336 0 14
-0.87806529 -0.29362616 -0.01616093 5 7
-0.72743952 -0.24297443 0.20550233 8 15
-0.78492516 -0.25989333 -0.22154912 62 0
-0.80304527 -0.2657373 0.014764735 3 8
-0.78822362 -0.26052764 -0.1916583 91 1
-0.80541795 -0.26574311 -0.16485898 66 2
-0.82124925 -0.27064851 0.075651184 7 10
-0.8255409 -0.27190337 -0.13766235 26 3
-0.83723927 -0.27543226 0.10821999 3 11
-0.79018807 -0.25964791 -0.10212652 4 4
-0.8182708 -0.26871738 0.13641086 1 12
-0.78754961 -0.25832412 -0.072513573 48 5
-0.87873435 -0.28789371 0.17974208 2 13
-0.83136827 -0.27221504 -0.045846302 4 6
-5.071331 -1.6585457 1.231832 0 14
-0.74376827 -0.24281359 0.20964344 7 15
-0.79219007 -0.25632867 -0.22310203 68 0
-0.83532554 -0.26996395 0.015323212 3 8
-0.78812432 -0.25455734 -0.19120839 65 1
-0.84775436 -0.27349061 0.046683677 10 9
-0.79977912 -0.25770509 -0.16333251 60 2
-0.82307243 -0.26505235 0.075651184 3 10
-0.81801659 -0.26310891 -0.136098 100 3
-0.83914173 -0.26958051 0.10821999 3 11
-0.7957173 -0.25547689 -0.102614 27 4
-0.82012689 -0.26299822 0.13641086 1 12
-0.79118711 -0.25356555 -0.072687887 52 5
-0.88254339 -0.28250441 0.1801237 1 13
-0.81422448 -0.26032206 -0.044799585 4 6
-5.0565143 -1.6156851 1.2255334 0 14
-0.70495194 -0.22470786 0.19825539 9 15
-0.76632828 -0.24206364 -0.21533746 66 0
-0.81044668 -0.25584397 0.014834546 7 8
-0.78430665 -0.24729101 -0.18985869 58 1
-0.79402387 -0.24989787 -0.16180603 69 2
-0.82110149 -0.25810465 0.075302556 7 10
-0.81413478 -0.25575882 -0.13515939 96 3
-0.84095728 -0.2638624 0.10821999 3 11
-0.80126983 -0.25110292 -0.10310147 4 4
-0.82943845 -0.25977126 0.13766235 1 12
-0.77582425 -0.24268274 -0.071119085 56 5
-0.87699836 -0.27399442 0.17859723 1 13
-0.84648138 -0.26429805 -0.046474334 4 6
-0.81524158 -0.25391954 -0.014904355 9 7
-0.67879683 -0.21129176 0.19049083 20 15
-0.76057398 -0.23456447 -0.21326691 15 0
-0.83323503 -0.25665519 0.015218498 6 8
-0.77665925 -0.23908 -0.18760918 62 1
-0.8514446 -0.26177594 0.046683677 10 9
-0.79387236 -0.24377213 -0.16142441 78 2
-0.80379206 -0.24666464 0.073559448 4 10
-0.81212318 -0.24891114 -0.13453366 94 3
-0.8351863 -0.25566101 0.10724504 4 11
-0.81435007 -0.24912734 -0.10456391 4 4
-0.82367504 -0.25166568 0.13641086 1 12
-0.775594 -0.23667885 -0.070944771 61 5
-0.9577136 -0.29207167 0.1946252 0 13
-0.84830594 -0.25838205 -0.046474334 4 6
-0.82032865 -0.24954771 0.19795693 1 14
-0.8169511 -0.24836446 -0.014904355 9 7
-0.6747098 -0.20486389 0.1889379 31 15
-0.756643 -0.22757983 -0.21171398 2 0
-0.83309144 -0.25025639 0.015183594 3 8
-0.76711065 -0.23029035 -0.18490976 61 1
-0.8532514 -0.25582537 0.046683677 10 9
-0.78803194 -0.23597124 -0.15989795 64 2
-0.82076454 -0.24561673 0.074953936 3 10
-0.79869992 -0.23871009 -0.13203071 78 3
-0.82934207 -0.24755293 0.10627007 4 11
-0.80465585 -0.2400313 -0.10310147 4 4
-0.83677089 -0.24929309 0.13828808 1 12
-0.7772274 -0.23125857 -0.070944771 65 5
-0.81945521 -0.24335624 -0.044799585 4 6
-0.81866497 -0.2426552 -0.014904355 9 7
-0.67982829 -0.20124541 0.18997319 20 15
-0.7582134 -0.22229174 -0.21171398 61 0
-0.83865637 -0.24555823 0.015253403 6 8
-0.73316377 -0.21453093 -0.17636162 63 1
-0.85501653 -0.24986251 0.046683677 10 9
-0.74631357 -0.21781339 -0.15112074 85 2
-0.82437187 -0.24043877 0.07512825 7 10
-0.79276067 -0.23091856 -0.13077922 18 3
-0.8424437 -0.24523115 0.10773251 3 11
-0.78725028 -0.22886637 -0.10066409 5 4
-0.83279967 -0.2417931 0.13734947 1 12
-0.78261042 -0.22707316 -0.071293391 68 5
-0.80962294 -0.23429817 -0.044171553 5 6
-0.82033914 -0.23693393 -0.014904355 9 7
-0.68675059 -0.19822048 0.1915261 30 15
-0.7689963 -0.21978013 -0.21430218 78 0
-0.83261687 -0.23764861 0.015113784 3 8
-0.75147301 -0.21434641 -0.18041074 70 1
-0.8566975 -0.24403679 0.046683677 10 9
-0.74966717 -0.21326552 -0.15150236 92 2
-0.83557165 -0.23754604 0.075999804 7 10
-0.78291249 -0.22228014 -0.12890202 20 3
-0.82499629 -0.23407257 0.10529512 4 11
-0.79260963 -0.22458494 -0.10115156 14 4
-0.8306247 -0.23504308 0.13672373 3 12
-0.78222072 -0.22119889 -0.071119085 74 5
-0.78044266 -0.22010761 -0.0424968 6 6
-0.73151034 -0.20616947 0.17546181 2 14
-0.82193285 -0.23134457 -0.014904355 9 7
-0.66762739 -0.1877874 0.18583208 21 15
-0.74441975 -0.20728563 -0.20705524 84 0
-0.79375666 -0.2207253 0.014380784 8 8
-0.75854737 -0.21079159 -0.18176045 93 1
-0.8275463 -0.2296547 0.045008924 13 9
-0.77380478 -0.21444967 -0.15608177 63 2
-0.81412786 -0.2254719 0.073908068 8 10
-0.75965661 -0.21010047 -0.12483472 47 3
-0.83043724 -0.22936447 0.1057826 4 11
-0.80177414 -0.22129723 -0.10212652 28 4
-0.82839662 -0.22833413 0.136098 3 12
-0.77602482 -0.21375299 -0.070421837 81 5
-0.84425402 -0.23222944 0.17020163 1 13
-0.79347831 -0.21796444 -0.043124832 11 6
-0.73289669 -0.20118563 0.17546181 2 14
-0.79648894 -0.21834302 -0.014415688 11 7
-0.65960568 -0.18057144 0.18324389 33 15
-0.75330722 -0.20410456 -0.2091258 63 0
-0.79717094 -0.21583986 0.014415688 8 8
-0.77316874 -0.20905147 -0.18490976 60 1
-0.78667182 -0.21255514 0.042706143 16 9
-0.76766479 -0.20713185 -0.15455531 32 2
-0.7983681 -0.21511731 0.072339267 8 10
-0.77823609 -0.20954715 -0.12765054 100 3
-0.84731531 -0.22783017 0.10773251 7 11
-0.80329955 -0.21569438 -0.10212652 42 4
-0.82230014 -0.2206424 0.13484652 3 12
-0.7717247 -0.20678309 -0.069898903 74 5
-0.85344082 -0.22835964 0.1717281 1 13
-0.79494351 -0.21255854 -0.043124832 28 6
-0.72298676 -0.19304758 0.17276241 2 14
-0.74389249 -0.19835179 -0.013438353 28 7
-0.65148586 -0.17359048 0.1806557 81 15
-0.74907506 -0.1974947 -0.20757288 57 0
-0.77932042 -0.20517784 0.01406664 13 8
-0.75761235 -0.19932142 -0.18086064 74 1
-0.7881366 -0.20705777 0.042706143 33 9
-0.76719302 -0.20126928 -0.15417367 43 2
-0.80945021 -0.21220425 0.073210821 8 10
-0.75674826 -0.19810574 -0.12389611 100 3
-0.83352065 -0.217893 0.1057826 8 11
-0.79514587 -0.20771289 -0.10090782 80 4
-0.81617469 -0.21290208 0.13359505 6 12
-0.7750423 -0.20202787 -0.070073217 87 5
-0.83217615 -0.2166106 0.16714869 1 13
-0.77321172 -0.20097438 -0.041868769 43 6
-0.7129671 -0.18518248 0.170063 4 14
-0.78974539 -0.20483045 -0.014241164 47 7
-0.6620326 -0.17145994 0.18324389 90 15
-0.75792116 -0.19417836 -0.20964344 48 0
-0.80588269 -0.20631596 0.014520402 23 8
-0.74576926 -0.19064865 -0.17771132 67 1
-0.77985215 -0.19921681 0.042182785 34 9
-0.75903356 -0.19361621 -0.15226559 35 2
-0.81284267 -0.20704004 0.073385134 12 10
-0.78105128 -0.19879708 -0.12765054 100 3
-0.82344103 -0.20928051 0.10432017 9 11
-0.77733564 -0.19727384 -0.098470435 100 4
-0.82717878 -0.20976949 0.13515939 5 12
-0.78029668 -0.1975905 -0.070421837 100 5
-0.80131119 -0.2026141 0.16066119 4 13
-0.80167145 -0.20255654 -0.043334179 100 6
-0.7029053 -0.17734036 0.16736358 2 14
-0.79891258 -0.20126605 -0.014380784 67 7
-0.66880465 -0.16836448 0.18479681 33 15
-0.7685985 -0.19134836 -0.21223164 41 0
-0.82088786 -0.20406172 0.014764735 29 8
-0.75650603 -0.18791707 -0.17996083 64 1
-0.80254763 -0.19905651 0.043334179 47 9
-0.76989514 -0.19067244 -0.15417367 29 2
-0.82003522 -0.20293826 0.073908068 28 10
-0.77858472 -0.1923919 -0.1270248 90 3
-0.83259106 -0.20542881 0.10529512 13 11
-0.77095091 -0.19007732 -0.097495481 100 4
-0.8132782 -0.200212 0.13265644 10 12
-0.78355825 -0.19275053 -0.070596151 100 5
-0.77597952 -0.19059898 0.15531853 45 13
-0.80694556 -0.19790615 -0.043543518 100 6
-0.73816532 -0.18090099 0.17546181 2 14
-0.77889776 -0.19059506 -0.01399683 100 7
-0.67559361 -0.16506696 0.18634972 32 15
-0.7530151 -0.18189526 -0.20757288 50 0
-0.77949262 -0.18814728 0.01399683 100 8
-0.76158845 -0.18354425 -0.18086064 60 1
-0.80000043 -0.19265409 0.043124832 100 9
-0.74445128 -0.17900179 -0.14883102 45 2
-0.79430926 -0.19069681 0.071467713 100 10
-0.77603447 -0.18616617 -0.12639906 100 3
-0.81466532 -0.19513278 0.10285773 87 11
-0.77998173 -0.18653736 -0.098470435 39 4
-0.7781179 -0.18594806 0.12671193 71 12
-0.77713287 -0.18542574 -0.069898903 100 5
-0.77920109 -0.18563198 0.15570015 71 13
-0.8121599 -0.19333389 -0.043752864 42 6
-0.73941022 -0.1757434 0.17546181 2 14
-0.79577458 -0.18884668 -0.014276069 33 7
-0.66542321 -0.15778993 0.18324389 22 15
-0.75047392 -0.17588395 -0.2065376 37 0
-0.78468144 -0.18361187 0.01406664 53 8
-0.76282012 -0.17835619 -0.18086064 64 1
-0.80132598 -0.18706414 0.043124832 15 9
-0.75333083 -0.17558293 -0.1503575 36 2
-0.79170793 -0.18438184 0.071119085 46 10
-0.77154315 -0.17940173 -0.12546046 100 3
-0.80050594 -0.18598901 0.10090782 89 11
-0.77929962 -0.18077527 -0.098226704 37 4
-0.78324592 -0.18140283 0.12733766 58 12
-0.77837706 -0.18013185 -0.069898903 100 5
-0.76705647 -0.17723019 0.15302883 82 13
-0.80181295 -0.18496576 -0.043124832 54 6
-0.77856827 -0.17946048 0.18445987 1 14
-0.79899037 -0.18387412 -0.014310974 40 7
-0.69283992 -0.15931788 0.19049083 20 15
-0.73469907 -0.16691956 -0.20187886 37 0
-0.80346447 -0.18224777 0.014380784 50 8
-0.74501109 -0.16885225 -0.17636162 71 1
-0.8006326 -0.18116474 0.043020159 13 9
-0.76408345 -0.17261417 -0.15226559 16 2
-0.79877514 -0.18030486 0.071642019 100 10
-0.77467346 -0.17458011 -0.12577333 97 3
-0.81918269 -0.18446068 0.10310147 58 11
-0.79600608 -0.17894976 -0.10017661 46 4
-0.79988199 -0.17952801 0.12984063 42 12
-0.77375281 -0.17352147 -0.069375969 100 5
-0.76441342 -0.171147 0.15226559 98 13
-0.82254493 -0.18386059 -0.044171553 74 6
-0.82731891 -0.18477608 0.19570743 3 14
-0.81388581 -0.18147767 -0.014555307 49 7
-0.72030693 -0.1604798 0.19773777 18 15
-0.73581827 -0.16191475 -0.20187886 55 0
-0.79687381 -0.17505826 0.014241164 60 8
-0.75946718 -0.16670179 -0.17951094 34 1
-0.78819048 -0.17271817 0.042287458 13 9
-0.77099437 -0.16866793 -0.15341043 11 2
-0.80776966 -0.17656541 0.072339267 100 10
-0.78163368 -0.17056666 -0.12671193 100 3
-0.79329616 -0.17282158 0.099689126 88 11
-0.77199 -0.16803867 -0.097008012 43 4
-0.7856428 -0.17072347 0.12733766 69 12
-0.77880996 -0.16909614 -0.06972459 100 5
-0.76556069 -0.16593984 0.15226559 50 13
-0.77497542 -0.16769734 -0.041554753 50 6
-0.81331956 -0.17584588 0.1921082 6 14
-0.78382725 -0.16918325 -0.01399683 41 7
-0.78184199 -0.16846895 0.21430218 14 15
-0.7350412 -0.15637204 -0.20136122 52 0
-0.80000293 -0.17004581 0.014276069 56 8
-0.76633132 -0.16260932 -0.18086064 11 1
-0.80107093 -0.16983449 0.04291549 14 9
-0.76252103 -0.16138346 -0.15150236 14 2
-0.80508387 -0.17009829 0.071990639 100 10
-0.78084379 -0.16483429 -0.12639906 100 3
-0.7925117 -0.16700862 0.099445395 100 11
-0.77508682 -0.1630539 -0.097251743 42 4
-0.78871983 -0.16577831 0.12765054 47 12
-0.77802157 -0.16324595 -0.069550283 100 5
-0.81281787 -0.17025079 0.16142441 27 13
-0.79369313 -0.16610038 -0.0424968 98 6
-0.81261981 -0.16976523 0.1916583 11 14
-0.80652279 -0.16819751 -0.014380784 47 7
-0.80755657 -0.16826625 0.22103147 12 15
-0.73041177 -0.15019777 -0.1998083 43 0
-0.82859439 -0.1700861 0.014764735 102 8
-0.75596648 -0.15504003 -0.17816123 11 1
-0.82963043 -0.16984613 0.044380896 24 9
-0.75785869 -0.15487707 -0.1503575 12 2
-0.82183999 -0.16780296 0.073385134 100 10
-0.80133128 -0.16332416 -0.12952776 29 3
-0.82867271 -0.16859533 0.10383269 46 11
-0.7859053 -0.15975139 -0.098470435 100 4
-0.81502509 -0.16537437 0.13171785 29 12
-0.77130407 -0.15636292 -0.068853036 100 5
-0.84089738 -0.17016569 0.16676706 13 13
-0.81184632 -0.16384444 0.19120839 14 14
-0.83117259 -0.1674429 -0.014799641 81 7
-0.80681765 -0.1622435 0.22051384 12 15
-0.72954756 -0.14471899 -0.19929068 31 0
-0.82384837 -0.16327584 0.014660021 100 8
-0.76850051 -0.15202785 -0.18086064 12 1
-0.83468604 -0.16496958 0.044590238 22 9
-0.81090087 -0.15997455 -0.16066119 3 2
-0.81712687 -0.16090651 0.0728622 29 10
-0.81793028 -0.16091643 -0.13203071 10 3
-0.8375926 -0.16448088 0.10480764 31 11
-0.78115737 -0.15311535 -0.09773922 100 4
-0.83939451 -0.16437833 0.13547227 5 12
-0.76455539 -0.14944555 -0.068155795 42 5
-0.85362637 -0.1665469 0.16905677 2 13
-0.77826452 -0.15170223 -0.041554753 71 6
-0.85314065 -0.16598848 0.20065634 1 14
-0.81465417 -0.1582052 -0.014485498 34 7
-0.83255762 -0.16153146 0.22724313 5 15
-0.73810554 -0.1412017 -0.20136122 18 0
-0.8112188 -0.15489498 0.014415688 24 8
-0.77334595 -0.14752361 -0.18176045 16 1
-0.83581746 -0.15913837 0.044590238 69 9
-0.83321393 -0.15834151 -0.16485898 2 2
-0.8338626 -0.1583138 0.074256696 12 10
-0.80932951 -0.15336359 -0.13046636 4 3
-0.84262151 -0.15936737 0.10529512 8 11
-0.79388493 -0.15000598 -0.099201649 100 4
-0.84246272 -0.15888053 0.13578513 1 12
-0.78121841 -0.14718905 -0.069550283 49 5
-0.8875407 -0.16690063 0.17554428 2 13
-0.7969715 -0.14958124 -0.0424968 72 6
-0.93852657 -0.17597975 0.22045203 0 14
-0.73527342 -0.13534603 -0.20032595 9 0
-0.82798803 -0.15226296 0.014694927 18 8
-0.78202391 -0.14352839 -0.18356006 2 1
-0.84277481 -0.15452604 0.044904254 13 9
-0.82654774 -0.15125276 -0.16333251 2 2
-0.82710755 -0.15105686 0.073559448 12 10
-0.81618464 -0.14891458 -0.13140497 6 3
-0.82806295 -0.15078317 0.10334522 9 11
-0.7890535 -0.14339535 -0.098470435 100 4
-0.84158111 -0.15278952 0.13547227 3 12
-0.78026652 -0.14137651 -0.069375969 52 5
-0.88868421 -0.16070037 0.17554428 1 13
-0.80583298 -0.14557318 -0.04291549 11 6
-0.83250272 -0.14979079 -0.014764735 10 7
-0.75900483 -0.13437952 -0.2065376 10 0
-0.84281516 -0.1489145 0.014939261 21 8
-0.89428908 -0.15784834 -0.20965438 1 1
-0.81629533 -0.1437881 0.043438848 15 9
-0.81791556 -0.14377896 -0.16142441 3 2
-0.83596611 -0.14680184 0.074256696 16 10
-0.80358428 -0.14082602 -0.12921488 6 3
-0.84669417 -0.14807633 0.10553886 8 11
-0.79196674 -0.13836274 -0.09871418 48 4
-0.83484316 -0.14555332 0.13422079 6 12
-0.78121078 -0.13606213 -0.069375969 54 5
-0.98647034 -0.17145707 0.1946252 0 13
-0.79895806 -0.13857856 -0.0424968 12 6
-0.80591667 -0.1393507 -0.014276069 11 7
-0.7180239 -0.12196034 -0.19514956 6 0
-0.84775227 -0.14384322 0.015009069 24 8
-0.82907093 -0.1402269 0.04406688 14 9
-0.82468283 -0.13918865 -0.16256927 3 2
-0.83304119 -0.14030011 0.073908068 16 10
-0.81036818 -0.1363363 -0.13015349 6 3
-0.85551327 -0.14362426 0.10651381 8 11
-0.78899777 -0.13217464 -0.098226704 33 4
-0.831918 -0.13921528 0.13359505 6 12
-0.77428085 -0.1292925 -0.068678722 61 5
-0.83140534 -0.13838378 -0.044171553 15 6
-0.80292422 -0.13306724 -0.014206259 11 7
-0.83689296 -0.135997 0.014799641 29 8
-0.83397275 -0.13507412 0.044276223 28 9
-0.83726311 -0.13530715 -0.16485898 4 2
-0.83200985 -0.1343092 0.073733754 24 10
-0.81910121 -0.13193204 -0.13140497 6 3
-0.8545351 -0.13733338 0.10627007 8 11
-0.78595912 -0.12617174 -0.09773922 5 4
-0.83677065 -0.13402903 0.13422079 4 12
-0.76727349 -0.12275986 -0.067981474 72 5
-0.9887405 -0.15783978 0.1946252 0 13
-0.82051677 -0.13069133 -0.043543518 16 6
-0.82948601 -0.13167447 -0.014660021 20 7
-0.84372711 -0.131219 0.014904355 28 8
-0.8250044 -0.12786482 0.043752864 30 9
-0.84204507 -0.13020515 -0.16562222 13 2
-0.83489639 -0.12880118 0.073908068 28 10
-0.82193261 -0.12665458 -0.13171785 8 3
-0.85545015 -0.13151354 0.10627007 12 11
-0.77897227 -0.11947782 -0.096764266 5 4
-0.8435213 -0.12922761 0.13515939 5 12
-0.77598989 -0.11860459 -0.068678722 68 5
-0.82336187 -0.12540394 -0.043648191 32 6
-0.80863678 -0.12258368 -0.014276069 23 7
-0.83671045 -0.12415166 0.014764735 36 8
-0.83180434 -0.12297863 0.04406688 43 9
-0.798262 -0.11773464 -0.156845 1 2
-0.83575374 -0.12311542 0.073908068 32 10
-0.80911607 -0.11890268 -0.12952776 11 3
-0.82688594 -0.1212192 0.102614 14 11
-0.78369576 -0.11474793 -0.097251743 11 4
-0.85613084 -0.12504858 0.13703661 5 12
-0.77677923 -0.11331984 -0.068678722 69 5
-0.82224071 -0.11936599 -0.043543518 37 6
-0.83122259 -0.12022557 -0.014660021 31 7
-0.84743613 -0.11985363 0.014939261 42 8
-0.83657753 -0.11787116 0.044276223 42 9
-0.82626295 -0.11612375 -0.16218765 1 2
-0.84843141 -0.11893735 0.074953936 26 10
-0.82946956 -0.11613158 -0.13265644 10 3
-0.85521609 -0.11943172 0.10602634 8 11
