# .PCD v0.7 - Point Cloud Data file format
VERSION 0.7
FIELDS x y z intensity ring
SIZE 4 4 4 4 2
TYPE F F F F U
COUNT 1 1 1 1 1
WIDTH 1332
HEIGHT 1
VIEWPOINT 0 0 0 1 0 0 0
POINTS 1332
DATA ascii
6.2679787 4.2533212 -0.13221943 13 7
6.1271119 4.1546092 1.9835893 39 15
3.4966547 2.3576369 -1.130004 9 0
6.3251686 4.2615619 0.13312696 31 8
3.5462477 2.3883753 -0.98708516 4 1
6.1423941 4.1337438 0.38801882 54 9
4.0076904 2.6950893 -0.93878025 10 2
6.3776031 4.2871861 0.67231935 30 10
4.197834 2.8197665 -0.80094457 10 3
6.3473358 4.2604098 0.93863773 5 11
4.5315151 3.0404646 -0.67003769 2 4
6.3709931 4.271452 1.2148702 13 12
4.5900302 3.0750782 -0.48336574 7 5
6.303124 4.2211671 1.4745719 6 13
6.4088168 4.2887096 -0.4041383 61 6
6.3825626 4.26792 1.7726144 14 14
6.3823075 4.2661333 -0.13399959 38 7
6.2266498 4.1589475 2.0063653 38 15
3.5452156 2.3545425 -1.1403568 9 0
6.394752 4.2438407 0.13396467 73 8
3.5790753 2.374331 -0.99158418 8 1
6.2676549 4.1547685 0.39408979 46 9
3.3013277 2.1867602 -0.76972359 13 2
6.3891025 4.2304616 0.67040199 40 10
4.360743 2.8852208 -0.82816416 7 3
6.3984513 4.2302256 0.94180632 12 11
4.367147 2.8861716 -0.64273894 5 4
6.3907681 4.2203383 1.2129929 20 12
6.4090424 4.2291994 -0.67179644 25 5
6.3750491 4.2051668 1.4844941 13 13
6.4135857 4.2273784 -0.40256822 62 6
6.3877926 4.2071757 1.7658658 3 14
6.4002414 4.213778 -0.13375525 70 7
6.3346162 4.1673989 2.0317297 45 15
3.5777328 2.340312 -1.1455331 9 0
6.4024639 4.1848702 0.13351092 72 8
3.624928 2.3684747 -0.99968249 9 1
6.4135742 4.1873422 0.40141684 60 9
4.2258019 2.7568669 -0.98075831 15 2
6.4101362 4.1803122 0.66953039 72 10
4.2583113 2.7748983 -0.80501187 7 3
6.4095273 4.1735411 0.93912524 25 11
4.357245 2.8361187 -0.63835168 0 4
6.4084821 4.1680837 1.2108029 38 12
6.4150243 4.1691532 -0.66935611 62 5
6.3894329 4.1509352 1.4810596 31 13
6.4144626 4.1640129 -0.40078878 68 6
6.4227915 4.1646414 -0.13361563 89 7
6.3781481 4.1325278 2.0363884 58 15
3.6004798 2.3194623 -1.1476036 9 0
6.411346 4.1270819 0.13309206 84 8
3.6888993 2.3736906 -1.0127296 8 1
6.4191313 4.1273422 0.3999514 96 9
4.2135615 2.7071369 -0.97350752 25 2
6.4224 4.124692 0.66778725 79 10
4.3756657 2.8080506 -0.82347113 5 3
6.4151134 4.1136904 0.93571293 31 11
5.6370406 3.613363 -0.82213068 6 4
6.4141369 4.1083264 1.2064227 41 12
6.4339066 4.1178184 -0.66831023 39 5
6.4182558 4.1062274 1.4810596 105 13
6.414772 4.1008391 -0.39900938 70 6
6.4015689 4.0892558 1.7537185 25 14
6.4163184 4.0970969 -0.13288262 84 7
6.4003263 4.0837455 2.0343177 62 15
3.6231105 2.2984092 -1.1496743 9 0
6.4231129 4.071516 0.132743 87 8
3.7695792 2.3885584 -1.0302758 7 1
6.4157281 4.0621281 0.39796266 84 9
4.2024946 2.658761 -0.96663845 26 2
6.4224129 4.0616517 0.66482401 70 10
4.4769874 2.8291416 -0.83880174 7 3
6.4352841 4.0635047 0.9344942 28 11
4.9386258 3.1172473 -0.71707928 3 4
6.4125876 4.0444789 1.2007911 40 12
6.4169855 4.0441227 -0.66360378 61 5
6.4201889 4.0445762 1.4749537 49 13
6.4246492 4.0442543 -0.39785796 68 6
6.4217129 4.0392766 1.7514689 28 14
6.4142938 4.0330439 -0.13225435 80 7
6.4090509 4.0266304 2.0281062 62 15
3.6325128 2.2689672 -1.1476036 10 0
6.4361134 4.017046 0.13242885 90 8
3.8390682 2.3951936 -1.0446726 6 1
6.4269819 4.0066729 0.39691594 84 9
4.2659459 2.6573846 -0.97694212 16 2
6.4184775 3.9967055 0.66151208 65 10
4.5821681 2.8510396 -0.85475802 5 3
6.4432654 4.0059018 0.93156934 28 11
4.2099895 2.6164124 -0.60861558 6 4
6.4272418 3.9912751 1.1982881 40 12
6.4196687 3.9834681 -0.66098917 54 5
6.4282503 3.9872348 1.4703742 105 13
6.4408436 3.9919384 -0.39712527 70 6
6.433188 3.9840863 1.7469698 27 14
6.420188 3.9744847 -0.13180058 78 7
6.4090762 3.9645121 2.0193064 64 15
3.6663675 2.2546823 -1.1532978 10 0
6.4316297 3.9521241 0.13176566 84 8
3.9154756 2.40505 -1.0608691 7 1
6.4326682 3.9481242 0.3955552 77 9
4.4450574 2.7260723 -1.0135775 21 2
6.4258399 3.9393029 0.65942037 63 10
4.7838812 2.9304214 -0.8885479 9 3
6.4456782 3.9452765 0.92791325 26 11
5.0172262 3.0697482 -0.72219777 5 4
6.438096 3.9360034 1.1951594 41 12
6.4286189 3.9271276 -0.65907168 25 5
6.4341455 3.9289618 1.4654131 108 13
6.4412766 3.9302306 -0.39545053 70 6
6.4442086 3.9289296 1.7424709 29 14
6.4341178 3.9212408 -0.13152133 76 7
6.4167991 3.9076116 2.0130947 64 15
3.6836712 2.2300315 -1.1538154 11 0
6.4351082 3.8926399 0.13127699 81 8
3.9821982 2.4079063 -1.0743662 7 1
6.439559 3.890728 0.39429915 82 9
4.4354095 2.6777222 -1.00709 8 2
6.4395361 3.8861136 0.6580258 65 10
4.4929643 2.70926 -0.83098 9 3
6.4475603 3.884814 0.92425722 28 11
4.7222462 2.8441465 -0.67686242 4 4
6.4501848 3.8817937 1.1923436 43 12
6.431973 3.8677802 -0.65663135 55 5
6.441226 3.87181 1.4608337 111 13
6.4394493 3.867687 -0.3936711 66 6
6.4564404 3.8748226 1.7384217 26 14
6.451046 3.8700576 -0.13131191 78 7
6.4323225 3.8557687 2.0094712 62 15
3.7140853 2.2131624 -1.1584741 10 0
6.4449449 3.837389 0.13092795 84 8
4.0524974 2.4119422 -1.0887631 7 1
6.4442482 3.8324053 0.39293841 88 9
4.4134893 2.622622 -0.99793106 2 2
6.4476671 3.8298702 0.65610844 73 10
4.6306787 2.7484024 -0.85288078 12 3
6.4472032 3.823509 0.92035741 28 11
5.1074119 3.0277381 -0.7290225 6 4
6.4533319 3.8225772 1.1879635 43 12
6.508543 3.8522089 -0.66168642 44 5
6.4512005 3.8167534 1.4570175 118 13
6.4938045 3.838896 -0.39534587 41 6
6.4497771 3.8098311 1.7294236 25 14
6.4847965 3.8289902 -0.13145153 56 7
6.4374537 3.798007 2.0027418 60 15
3.7494423 2.1989067 -1.1646857 13 0
6.5302396 3.8266723 0.13211471 48 8
4.1331344 2.42102 -1.1058594 7 1
6.5242834 3.8185945 0.39618322 50 9
4.4181323 2.5838194 -0.99487817 3 2
6.5069299 3.8038652 0.65942037 45 10
4.7452717 2.7718043 -0.87040144 9 3
6.5080285 3.7984185 0.92523217 19 11
5.1198497 2.9870086 -0.72780377 3 4
6.4866872 3.7814107 1.1892149 31 12
6.7108836 3.9089639 -0.67946619 52 5
6.4946556 3.7815013 1.4608337 41 13
6.7172518 3.9079642 -0.40727845 70 6
6.4812717 3.7676485 1.7307733 24 14
6.7223067 3.9061961 -0.13570991 89 7
6.4688239 3.7558827 2.0042949 57 15
3.8165715 2.2026117 -1.1807325 9 0
6.7196312 3.874893 0.13539577 84 8
4.2242222 2.4349267 -1.1256551 6 1
6.7203927 3.870645 0.40644106 96 9
4.4513774 2.5617254 -0.99831271 2 2
6.7129359 3.8616712 0.67754871 75 10
4.8604136 2.793735 -0.88792211 9 3
6.7254639 3.8626275 0.95228714 31 11
5.5623612 3.193337 -0.78751975 15 4
6.7082667 3.8480814 1.224882 39 12
6.7414665 3.8639989 -0.67981476 35 5
6.7167983 3.8483026 1.5047197 107 13
6.7547703 3.8669274 -0.40790647 44 6
6.7222428 3.845196 1.7879109 27 14
6.733789 3.8502367 -0.13539577 62 7
6.6676579 3.809341 2.0576115 56 15
3.8133769 2.1654201 -1.1750386 7 0
6.7656507 3.8387418 0.13577972 45 8
4.3004465 2.4390249 -1.1414016 11 1
6.7820039 3.8433275 0.4085345 50 9
4.4708619 2.5315537 -0.9986943 1 2
6.7553368 3.8235445 0.6791175 47 10
4.9520159 2.8005764 -0.90106261 10 3
6.7730045 3.8272996 0.955212 22 11
5.0077209 2.8274682 -0.70611101 9 4
6.753891 3.8118351 1.2283236 37 12
7.8338461 4.4177523 -0.78684205 11 5
6.7475848 3.8020678 1.505483 105 13
6.7574162 3.8029475 1.7901604 28 14
6.7227197 3.7787876 2.0664113 69 15
3.8473282 2.1484375 -1.1807325 9 0
4.3433194 2.4224255 -1.1481502 9 1
4.5055785 2.5098314 -1.0025105 2 2
4.9512129 2.7535479 -0.89730817 10 3
5.4438248 3.0237765 -0.76460832 7 4
8.0282679 4.4538088 -0.80322731 36 5
7.9863582 4.4232702 -0.47845533 7 6
7.9651713 4.4060879 -0.1588867 10 7
3.8673127 2.1243157 -1.1822854 7 0
8.0305786 4.4075503 0.15989895 9 8
4.3755007 2.4004824 -1.1521993 8 1
8.0528708 4.4143009 0.48128149 5 9
4.5130887 2.4718714 -1.0002208 2 2
8.0739899 4.4203815 0.80531907 2 10
5.2094746 2.8497388 -0.94048411 15 3
8.0492325 4.3995266 1.1263165 5 11
5.4775186 2.9914041 -0.76631445 20 4
8.0780153 4.4097681 1.4576566 1 12
8.138382 4.4353452 1.8016186 5 13
8.1591101 4.4448004 -0.4869338 10 6
7.9846697 4.3461523 2.0987935 23 14
8.1282501 4.4206333 -0.16150458 8 7
7.9397902 4.3163371 2.4215112 6 15
3.8756158 2.092916 -1.180215 7 0
8.1984072 4.4254732 0.16262153 7 8
4.4268699 2.3876119 -1.1611973 8 1
8.2249107 4.4323626 0.48965529 6 9
4.5717201 2.4626474 -1.0093796 7 2
8.2773476 4.45503 0.82240158 2 10
5.1775389 2.7843225 -0.93109804 10 3
8.2615929 4.4409738 1.1516654 5 11
5.5419893 2.976573 -0.77240795 5 4
8.2346859 4.4191031 1.4801831 5 12
8.3608112 4.4849086 -0.83007127 15 5
8.3231506 4.4609661 1.8355827 8 13
8.3368435 4.46456 -0.49562153 20 6
8.1539783 4.3648005 2.1352355 35 14
8.2858734 4.4316835 -0.16401772 7 7
8.1851549 4.374136 2.4867337 3 15
3.8833077 2.0621836 -1.1781443 7 0
8.3711805 4.4416742 0.16541392 5 8
4.4468737 2.3584745 -1.1620972 8 1
8.3897762 4.4459081 0.49761033 4 9
4.6725078 2.4739656 -1.0276973 7 2
8.4156666 4.4539857 0.83303457 1 10
5.3155971 2.8109016 -0.95237315 11 3
8.417778 4.4475837 1.1689708 6 11
5.7135925 3.0175359 -0.79336947 7 4
8.4225712 4.4444771 1.5083412 3 12
7.1307907 3.7596407 -0.70526421 4 5
8.3923006 4.4228878 1.8439783 21 13
8.5074196 4.479764 -0.50389063 11 6
8.3315945 4.3834658 2.1734772 33 14
8.4564295 4.4472609 -0.1667752 5 7
8.3266497 4.3752995 2.52038 6 15
3.8976097 2.0350227 -1.1781443 7 0
8.5385027 4.4543419 0.16810159 6 8
4.4753265 2.3336794 -1.1652465 9 1
8.572937 4.4665971 0.50661212 4 9
4.7628055 2.4793591 -1.0437253 7 2
8.5702744 4.4595065 0.84523642 2 10
5.3981872 2.8065267 -0.9636364 10 3
8.626544 4.4811311 1.1935885 5 11
5.8807459 3.0534999 -0.81359977 8 4
6.28262 3.2593842 1.1210095 6 12
6.5253763 3.3824346 -0.64303505 0 5
8.5816021 4.4463806 1.8787055 7 13
8.5246992 4.4093518 2.2157679 32 14
8.6364832 4.465261 -0.16970721 2 7
8.695117 4.4917307 2.6223547 9 15
3.9289081 2.0165861 -1.1833206 7 0
6.3967957 3.280452 0.12548281 4 8
4.4811034 2.2970474 -1.162547 9 1
4.8918524 2.5032868 -1.0681487 7 2
8.7519732 4.4766831 0.86005282 2 10
5.6023412 2.8631618 -0.99648768 10 3
8.7601566 4.4731612 1.2077253 5 11
6.0103097 3.0663707 -0.82846785 10 4
6.3872852 3.2544844 -0.62717271 1 5
8.7041779 4.4311738 1.8985497 11 13
6.3796825 3.2464046 -0.37514415 2 6
8.6907692 4.4186196 2.2508602 32 14
6.3808184 3.2413766 -0.12492433 1 7
8.9381313 4.5384979 2.6860242 9 15
3.9518623 1.9927691 -1.1859089 6 0
6.3677568 3.2096121 0.12447057 35 8
4.5026469 2.2675519 -1.1638968 10 1
6.3996997 3.2201159 0.37545818 7 9
4.9933963 2.5114188 -1.0864664 7 2
6.474792 3.2536488 0.63397086 0 10
5.3667083 2.6944792 -0.95112169 7 3
6.5148716 3.2695181 0.8950085 0 11
6.0209231 3.0189972 -0.82700545 5 4
6.317471 3.1649365 1.1191323 35 12
6.4276652 3.2187347 -0.62891585 1 5
6.4081097 3.2033484 -0.37545818 3 6
8.8943167 4.4364815 2.6632483 0 15
3.9708712 1.9677045 -1.1874619 7 0
6.428195 3.1825957 0.12520356 41 8
4.5829906 2.268043 -1.1805431 6 1
6.4077034 3.1682744 0.37462083 1 9
5.0922084 2.5156219 -1.104021 7 2
6.4509015 3.1854312 0.62943876 0 10
5.7751188 2.8492291 -1.0199529 10 3
6.4579754 3.1833224 0.8840403 2 11
5.9118614 2.9128451 -0.80921251 8 4
6.3252349 3.1137755 1.1166294 31 12
8.6781836 4.2683139 -0.8461079 1 5
6.4554152 3.1736591 1.3982484 9 13
6.4553714 3.1680474 1.6601387 3 14
6.437499 3.1550953 1.9209551 6 15
3.9914596 1.9433173 -1.1895324 7 0
4.6057243 2.239399 -1.1823426 7 1
5.2085538 2.5280161 -1.1253915 7 2
9.3034544 4.5135045 0.90467656 2 10
5.6615524 2.7442212 -0.99648768 3 3
9.3779278 4.5415454 1.2793844 6 11
6.1732664 2.9882646 -0.84211725 21 4
6.1854935 2.9888554 -0.601026 4 5
9.3042107 4.4938235 2.0084558 31 13
9.5011349 4.5848517 -0.55287707 4 6
9.2753983 4.4719305 2.3772829 11 14
9.4574814 4.5576835 -0.18325028 6 7
9.3122139 4.4836726 2.7693639 3 15
3.9927297 1.9095699 -1.1859089 7 0
9.5429115 4.5599174 0.18461154 6 8
4.6247621 2.2088723 -1.1832426 6 1
9.5841389 4.5734553 0.55654061 3 9
5.3412657 2.54651 -1.1501967 7 2
9.5595617 4.555584 0.92646551 2 10
5.6645203 2.6969864 -0.99367183 10 3
9.5563984 4.5458927 1.2993711 6 11
6.715672 3.1931438 -0.91304523 23 4
9.6761484 4.5966458 1.6966884 6 12
6.2314086 2.9575598 -0.60346633 4 5
9.5020885 4.507863 2.0443277 48 13
9.7422667 4.61764 -0.56501901 17 6
9.4560995 4.4779553 2.4155245 5 14
9.6842737 4.5839443 -0.18701999 4 7
9.5039597 4.4945292 2.8169866 5 15
4.0251975 1.8906832 -1.1916029 7 0
9.7736435 4.5866332 0.18845108 8 8
4.6471272 2.1798418 -1.1850421 6 1
9.8003016 4.5928841 0.56721711 4 9
5.4140315 2.5349662 -1.1620268 9 2
9.7788057 4.5765667 0.94459391 3 10
5.7082624 2.6690886 -0.998052 3 3
9.9512033 4.6487846 1.3486063 7 11
6.3906569 2.9840884 -0.86600363 12 4
9.9514637 4.642561 1.7392386 7 12
7.4672518 3.4804523 -0.72077799 1 5
9.7166271 4.5268121 2.0836341 43 13
9.9299889 4.6219954 -0.5740208 9 6
9.7292099 4.5244102 2.4771609 15 14
9.9300194 4.6156802 -0.19113876 5 7
9.7260876 4.5167613 2.873409 5 15
4.0382991 1.8625361 -1.1916029 7 0
10.01973 4.6170444 0.19256985 12 8
4.6516118 2.1424541 -1.1823426 6 1
10.080695 4.6387401 0.58155721 8 9
5.4440837 2.5028481 -1.1646981 7 2
10.128148 4.6520052 0.97509843 3 10
5.7177815 2.6250517 -0.99648768 7 3
10.102501 4.6338215 1.364693 6 11
6.1483707 2.8175414 -0.83041775 14 4
10.048285 4.6025882 1.7505019 6 12
7.44064 3.4050219 -0.71589726 3 5
9.9469604 4.5477781 2.125994 45 13
10.200797 4.6595287 -0.58773285 3 6
9.9644213 4.5494552 2.5288997 8 14
10.155643 4.6324782 -0.19483867 4 7
10.167754 4.6337099 2.9940188 12 15
4.0532837 1.8343875 -1.1921207 9 0
10.260232 4.6391468 0.196549 15 8
4.6810308 2.1155336 -1.1859419 6 1
10.233772 4.6207314 0.58846557 9 9
5.4797502 2.4718997 -1.1685143 7 2
10.328291 4.6547246 0.99113512 2 10
5.7580323 2.5938048 -1.0002421 1 3
10.244015 4.610292 1.3793174 6 11
6.6372938 2.9843149 -0.8935461 8 4
10.257538 4.6099219 1.7811631 9 12
7.7101903 3.4618595 -0.7394293 1 5
10.197786 4.5745139 2.1725514 45 13
10.439833 4.6787143 -0.59956074 3 6
10.283053 4.606297 2.6013339 8 14
10.398438 4.653626 -0.19885273 3 7
10.140689 4.5340228 2.9764192 6 15
4.0698376 1.8069036 -1.1931559 6 0
10.518003 4.6653357 0.20084229 13 8
4.7103009 2.0883014 -1.1895411 6 1
10.624499 4.7059174 0.60898125 3 9
5.5098658 2.4381857 -1.1711857 10 2
10.580006 4.6773715 1.0120524 3 10
5.8216166 2.572495 -1.0080638 5 3
10.492846 4.6322727 1.4083222 11 11
6.4859319 2.860641 -0.87039089 7 4
10.50536 4.6312261 1.8183944 17 12
6.4802794 2.8540957 -0.61950302 0 5
10.447696 4.5970969 2.2187271 42 13
10.723535 4.7140026 -0.61390084 12 6
10.57088 4.6446953 2.6656699 13 14
10.669506 4.6835876 -0.20339034 4 7
10.431177 4.5746207 3.0519943 18 15
4.0242128 1.7522829 -1.1760738 10 0
10.767495 4.6840796 0.20496106 8 8
4.7322726 2.0576501 -1.1913408 6 1
10.903375 4.736402 0.6230073 4 9
5.5415788 2.4049509 -1.1742386 9 2
10.763099 4.666532 1.0263461 7 10
5.9830627 2.5928226 -1.0327804 5 3
10.793514 4.673007 1.4441519 15 11
6.8596978 2.9670389 -0.91767621 22 4
10.772132 4.6570544 1.8587546 8 12
6.5938201 2.8479409 -0.62839293 8 5
10.694833 4.6147776 2.2641397 41 13
11.010099 4.7462559 -0.62834555 15 6
10.718386 4.6182852 2.6944637 9 14
10.965404 4.7201815 -0.20838173 6 7
10.651762 4.5807648 3.106864 34 15
4.0538106 1.732444 -1.1812501 10 0
11.078672 4.7300234 0.21026659 16 8
4.7461681 2.025393 -1.1913408 6 1
11.065809 4.7176828 0.63043898 11 9
5.5758829 2.3748677 -1.1780548 10 2
11.021127 4.6918159 1.0479606 10 10
6.113276 2.599973 -1.0521784 5 3
11.038831 4.690259 1.4726692 8 11
6.8353734 2.9028552 -0.91182649 10 4
10.961787 4.6507506 1.8859742 6 12
6.9927773 2.9639375 -0.66447538 5 5
10.960207 4.6433101 2.31375 40 13
11.122265 4.7073817 -0.63295114 58 6
10.984704 4.6446404 2.753401 8 14
11.130931 4.7041793 -0.21092978 52 7
10.909712 4.6062002 3.1731215 34 15
4.0177016 1.6839385 -1.167274 16 0
11.126179 4.6587486 0.21054582 52 8
4.7583942 1.9914566 -1.1908909 7 1
11.135327 4.6557279 0.63253242 63 9
5.6539202 2.3616102 -1.1910298 2 2
11.125317 4.644701 1.0547588 40 10
6.2826004 2.6203439 -1.0781465 3 3
6.9929123 2.9123032 -0.93010694 9 4
7.9681535 3.3119273 -0.75494307 3 5
11.124708 4.6216583 2.341608 109 13
11.138255 4.6227283 -0.63200903 73 6
11.139485 4.6164036 -0.21047603 58 7
11.13259 4.6089997 3.2285089 60 15
4.0829654 1.6778778 -1.182803 9 0
11.143632 4.5748835 0.21026659 59 8
4.7739849 1.9589283 -1.1913408 6 1
11.149078 4.5703001 0.6314857 82 9
5.6757197 2.3243129 -1.1921747 4 2
11.148252 4.5631447 1.0538872 48 10
6.4689555 2.6452036 -1.1069304 3 3
11.147347 4.5536861 1.4785191 103 11
6.9855056 2.8521569 -0.92645079 10 4
11.135401 4.5420036 1.9047463 51 12
7.8895979 3.2148705 -0.74535584 7 5
11.151248 4.5416594 2.3404634 119 13
11.155454 4.5388398 -0.6311717 73 6
11.144164 4.5297065 2.7772458 65 14
11.152914 4.5310016 -0.21012698 68 7
11.146596 4.5238962 3.2233324 73 15
4.0300698 1.6233473 -1.1641681 4 0
11.160459 4.4910035 0.20998736 68 8
4.8020077 1.9313692 -1.19494 7 1
11.160327 4.4841623 0.63033432 79 9
5.6954536 2.2860923 -1.1929379 7 2
11.146552 4.4718509 1.0507497 54 10
6.6449552 2.663173 -1.1338371 11 3
11.16965 4.4720674 1.4773003 109 11
7.2337813 2.894769 -0.95667446 11 4
11.153996 4.4590254 1.9025562 57 12
8.1338863 3.2483857 -0.76627332 9 5
11.162623 4.455698 2.3362653 120 13
11.155332 4.4482732 -0.62939227 76 6
11.164654 4.4474688 2.7745464 69 14
11.147119 4.4382353 -0.20942889 60 7
11.149187 4.434545 3.2150505 79 15
4.0215387 1.5873704 -1.1584741 5 0
11.161774 4.401248 0.20942889 71 8
4.824439 1.9013702 -1.1971895 7 1
11.167199 4.3966327 0.6289736 76 9
5.720408 2.2498703 -1.1948459 9 2
11.158956 4.3866405 1.0490065 51 10
6.8196726 2.6780953 -1.160431 8 3
11.182119 4.3867302 1.4748629 115 11
7.2759905 2.852896 -0.95959932 15 4
11.166461 4.3738432 1.8994274 59 12
8.0079336 3.1334367 -0.75232834 10 5
11.15689 4.3633575 2.3286331 121 13
11.160071 4.360105 -0.62792683 41 6
11.173644 4.360919 2.7691474 75 14
11.15734 4.3523059 -0.20904493 64 7
11.151072 4.3453832 3.206768 75 15
4.0235124 1.5557743 -1.1558858 15 0
11.158652 4.3102412 0.2088006 63 8
4.7776022 1.844484 -1.1823426 7 1
11.18458 4.3135281 0.62824088 81 9
5.7469683 2.2141144 -1.1971357 6 2
11.174436 4.3028965 1.047612 54 10
6.8658586 2.6410577 -1.1651241 7 3
11.182824 4.2971649 1.4709631 112 11
7.5329285 2.8931301 -0.99079782 9 4
11.178282 4.2887039 1.8962989 60 12
7.912406 3.0325372 -0.74134672 8 5
11.166913 4.2776361 2.3244352 123 13
11.279774 4.3163548 -0.63295114 24 6
11.189255 4.2772398 2.7655482 67 14
11.286454 4.3121381 -0.21089488 30 7
11.170307 4.2632952 3.2036622 79 15
4.0451155 1.5317519 -1.1589917 45 0
11.310046 4.2782216 0.21106941 134 8
4.7703118 1.8035043 -1.1773938 8 1
11.309711 4.2713284 0.63357919 78 9
5.7696328 2.1767108 -1.1986622 6 2
11.282503 4.2543039 1.0549332 9 10
6.9192524 2.6062906 -1.1710685 7 3
11.298016 4.2511477 1.4821751 22 11
7.5566597 2.8418674 -0.99128538 12 4
11.25418 4.2279272 1.9041206 11 12
8.2822065 3.1081297 -0.77394295 7 5
11.255327 4.2216353 2.336647 41 13
9.5104151 3.5633695 -0.53225672 1 6
11.231618 4.2038012 2.7686975 39 14
11.197989 4.1845312 3.2031446 41 15
4.0575228 1.5041437 -1.1595093 46 0
4.7974081 1.7755665 -1.1809931 8 1
5.7883706 2.1377413 -1.1994255 6 2
13.257684 4.8936462 1.2363913 2 10
6.9465446 2.561342 -1.1726329 7 3
7.5986686 2.7972755 -0.99421012 11 4
8.6814852 3.1890054 -0.80915391 7 5
2.99084 1.0968605 -0.16695172 35 6
13.613924 4.9846849 -0.25305989 6 7
4.0533962 1.4705096 -1.1553683 43 0
13.746941 4.9817557 0.25522399 11 8
4.7895317 1.7347311 -1.1760441 9 1
13.676452 4.9481125 0.76222098 4 9
5.7422252 2.0752559 -1.186832 5 2
13.625076 4.9214587 1.2674187 2 10
6.966116 2.5134506 -1.1729457 8 3
13.630885 4.9127951 1.7790488 11 11
7.7230835 2.7804849 -1.0078596 3 4
13.590894 4.8903427 2.2876978 4 12
8.4672918 3.0434098 -0.78719068 5 5
13.564466 4.870141 2.8014579 6 13
3.0191031 1.0833756 -0.16810311 72 6
13.516243 4.84484 3.3148787 18 14
13.999417 5.0125184 -0.25955218 3 7
13.507114 4.8335891 3.8439806 28 15
4.0565329 1.4388833 -1.1532978 43 0
14.150799 5.0166245 0.26206535 8 8
4.7779417 1.6919569 -1.1701953 5 1
14.099393 4.9873238 0.78378338 3 9
5.5400071 1.9585546 -1.1421827 7 2
14.046954 4.9605017 1.303327 4 10
7.0863819 2.4996793 -1.1901536 5 3
14.069234 4.9600859 1.8316964 4 11
7.8246937 2.7555087 -1.0185841 8 4
14.020591 4.9319282 2.3540261 6 12
3.0374551 1.0678693 -0.28168735 3 5
13.968606 4.9054241 2.8777814 6 13
3.0418556 1.0670326 -0.16894048 88 6
13.948799 4.8902669 3.4125075 26 14
14.436067 5.0554461 -0.26698691 3 7
13.918823 4.8688493 3.9511318 31 15
4.0683036 1.4111633 -1.1538154 41 0
14.600133 5.0586066 0.2697095 2 8
4.7564907 1.6470838 -1.1620972 4 1
14.568001 5.0389323 0.80785793 13 9
5.255125 1.8156414 -1.0807421 13 2
14.495563 5.0053811 1.3416755 2 10
7.1204667 2.4559429 -1.1929693 5 3
14.474103 4.9866643 1.8797129 4 11
8.1234035 2.7971108 -1.0549011 4 4
14.47871 4.9797726 2.4250474 6 12
3.0412498 1.0448133 -0.28133872 36 5
14.403588 4.9455037 2.960211 4 13
3.0246711 1.0373458 -0.16757976 79 6
14.394551 4.9311628 3.5128357 24 14
14.934523 5.1132293 -0.27553859 5 7
14.371068 4.914712 4.0696707 30 15
15.08966 5.1105061 0.27808666 2 8
4.7531066 1.6088387 -1.1584979 36 1
15.024754 5.0797491 0.83119977 3 9
5.273252 1.7807962 -1.081887 11 2
14.966231 5.0512333 1.3819414 2 10
7.1374378 2.4061763 -1.1929693 5 3
14.943143 5.0318313 1.9360166 5 11
8.3741465 2.8182139 -1.0848809 3 4
14.966249 5.0308886 2.5007617 5 12
3.065469 1.0292618 -0.28290752 12 5
14.871435 4.9903526 3.0491278 8 13
3.0394142 1.0187432 -0.16799843 77 6
14.855495 4.9734688 3.6167631 21 14
15.457217 5.1719108 -0.28450912 1 7
14.853924 4.9642949 4.1964922 33 15
4.1022806 1.3590833 -1.1579564 4 0
15.666028 5.1840787 0.28803453 2 8
4.7605224 1.5743928 -1.1575981 36 1
15.587067 5.1488967 0.86029857 4 9
5.3526735 1.7660838 -1.0956253 15 2
15.549856 5.1275768 1.4324918 7 10
7.1615672 2.3587608 -1.1942208 5 3
15.479497 5.0923977 2.0008512 6 11
8.7255135 2.8688052 -1.127779 1 4
15.483336 5.0846696 2.5811689 5 12
3.0744724 1.0084581 -0.28308186 9 5
15.390963 5.0454087 3.1483483 26 13
15.341791 5.0174398 3.7265389 20 14
15.842683 5.1781921 -0.29093161 56 7
15.341825 5.0085602 4.3243484 29 15
4.1006408 1.3268425 -1.1548507 4 0
15.85406 5.1237788 0.29082692 52 8
4.7955055 1.5489063 -1.1634469 35 1
15.864032 5.1178298 0.8735919 73 9
5.3798223 1.7334893 -1.0986782 16 2
15.845094 5.1025624 1.4563725 48 10
7.2023067 2.3165693 -1.1982881 6 3
15.892663 5.1056385 2.0495987 56 11
3.0883658 0.99156636 -0.39826906 60 4
3.0662587 0.98210782 -0.28168735 8 5
15.88017 5.0832863 3.2410817 43 13
3.0780725 0.98411518 -0.16935916 9 6
15.844256 5.0595989 3.8399146 35 14
15.849872 5.0583439 -0.29040805 8 7
15.840252 5.0491743 4.4547935 50 15
4.1116462 1.2987641 -1.1553683 5 0
15.86084 5.0039468 0.29030332 60 8
4.7876163 1.5095296 -1.1589478 40 1
15.88985 5.0039535 0.87306851 82 9
5.6371298 1.7730576 -1.1486702 7 2
15.867024 4.9876356 1.4551523 53 10
7.2183042 2.2662313 -1.1982881 6 3
15.893826 4.983871 2.0452116 64 11
3.1084726 0.97413659 -0.39997521 83 4
15.873301 4.9683089 2.6343565 53 12
3.0768435 0.96186638 -0.28203598 9 5
15.896531 4.9664431 3.2372658 73 13
3.0963078 0.96617186 -0.1699872 10 6
15.892219 4.9529128 3.8430641 55 14
15.869583 4.9367442 4.4532409 71 15
4.1187668 1.2694588 -1.1548507 4 0
15.882007 4.8889852 0.290059 68 8
4.794313 1.4749229 -1.158048 34 1
15.897668 4.8846951 0.87160313 84 9
5.7769976 1.7728225 -1.1746202 6 2
15.886216 4.8720751 1.4537578 57 10
7.2377267 2.2169397 -1.1989139 6 3
15.888371 4.8605952 2.0400932 54 11
3.1227911 0.95473319 -0.40095019 69 4
15.903821 4.8562174 2.6337309 56 12
3.1063521 0.94733828 -0.28412771 45 5
15.897012 4.8450408 3.2303963 70 13
3.1163526 0.94860178 -0.17071991 67 6
15.91149 4.8373165 3.8394647 55 14
3.1187379 0.94754392 -0.056894846 83 7
15.875929 4.8174262 4.4454761 72 15
4.1127276 1.2362266 -1.1507095 4 0
15.908091 4.7756891 0.28991938 66 8
15.900773 4.7644095 0.86992842 84 9
5.7779484 1.7290713 -1.1723305 6 2
15.9103 4.7581878 1.4528861 60 10
3.1552181 0.94241041 -0.52155256 1 3
15.910498 4.7461572 2.0386305 63 11
15.914616 4.7383132 2.6299765 57 12
3.1260962 0.93014795 -0.28534791 8 5
15.911631 4.7283568 3.2265804 68 13
3.1209841 0.92625564 -0.17061524 65 6
15.917892 4.721148 3.8331659 55 14
3.1291111 0.92688531 -0.056964654 85 7
15.890649 4.700994 4.4402995 72 15
4.1509209 1.2161751 -1.1589917 4 0
4.835012 1.4138582 -1.1629969 4 1
5.7650838 1.6825544 -1.1673695 41 2
16.230053 4.7306271 1.479033 10 10
3.1444907 0.9159413 -0.51873678 71 3
16.197853 4.7120419 2.0712914 42 11
3.1358166 0.91104037 -0.40095019 8 4
16.176044 4.6965132 2.6678338 46 12
3.1344271 0.90885735 -0.28552222 8 5
16.159233 4.6794028 3.2700846 61 13
16.072151 4.6450667 3.8624094 38 14
3.1355057 0.90501738 -0.056964654 85 7
15.931561 4.5953979 4.4428878 45 15
4.1479568 1.1847091 -1.1558858 6 0
19.068451 5.4389935 0.34611613 52 8
4.838902 1.3793119 -1.1616472 5 1
19.347727 5.5077 1.0542556 9 9
5.7766905 1.6422628 -1.1673695 48 2
19.253597 5.4700084 1.7511332 2 10
3.160311 0.89666075 -0.5203011 64 3
3.1534054 0.89291787 -0.40241259 8 4
19.181343 5.4241652 3.1571608 15 12
3.1445305 0.88803577 -0.28587085 8 5
19.07023 5.3819628 3.8516705 17 13
3.1584487 0.89018106 -0.17197597 9 6
19.10743 5.3780527 4.5827031 14 14
19.151072 5.3795171 5.3301196 10 15
4.146821 1.1531342 -1.1532978 5 0
19.649311 5.4566274 0.3559593 10 8
4.8502913 1.3460175 -1.1620972 4 1
20.13442 5.579989 1.094973 3 9
5.7936897 1.6034673 -1.1685143 11 2
20.08824 5.5558672 1.8234724 3 10
3.1664932 0.87457722 -0.5203011 69 3
19.274122 5.3162236 2.4549363 21 11
3.1825268 0.87721258 -0.40533748 70 4
19.993893 5.5034885 3.2844982 16 12
3.1506541 0.86605966 -0.28587085 8 5
19.927065 5.4738708 4.0169115 14 13
3.1742175 0.87074959 -0.17249933 8 6
19.766619 5.4149504 4.7316203 12 14
3.1573296 0.86433965 -0.057139181 8 7
20.019268 5.4728956 5.5609865 1 15
4.1659589 1.1271832 -1.1564035 6 0
3.1736915 0.85751671 0.057383511 11 8
4.8558073 1.3111073 -1.1611973 4 1
20.604845 5.5557594 1.1184195 75 9
3.1981061 0.86111975 -0.64378959 53 2
20.603682 5.5438757 1.8667017 45 10
3.1801524 0.8545 -0.52155256 69 3
19.283926 5.1743326 2.451524 21 11
3.1906402 0.85492873 -0.40558121 69 4
20.606182 5.5175614 3.3786721 55 12
3.1623976 0.84558684 -0.28639376 47 5
20.392506 5.4450932 4.1027751 45 13
3.1802189 0.84856814 -0.17249933 11 6
20.263403 5.3992562 4.8413968 16 14
3.1866231 0.84789443 -0.057558037 9 7
20.600277 5.477468 5.7116189 57 15
4.1720495 1.0968521 -1.1558858 4 0
3.1950734 0.83940423 0.057662752 66 8
4.8594103 1.274843 -1.1598476 5 1
20.605433 5.3980494 1.1163261 70 9
3.2078388 0.83976614 -0.64455283 10 2
20.619698 5.3902402 1.86461 49 10
3.1957424 0.83421618 -0.52311689 66 3
19.699905 5.1387782 2.4997842 23 11
3.1984518 0.83313489 -0.40582496 71 4
20.553373 5.3460965 3.3636541 50 12
3.1913633 0.82950461 -0.2884855 63 5
20.540239 5.3312006 4.1249094 50 13
3.1900766 0.82679147 -0.17270868 38 6
20.623192 5.341207 4.9183297 52 14
3.2098892 0.83013314 -0.05787218 21 7
20.627722 5.3270173 5.7085133 64 15
4.1889639 1.0700918 -1.1584741 6 0
3.2145617 0.81997907 0.057907082 70 8
4.8870749 1.2457024 -1.1643466 5 1
20.627131 5.2501235 1.1154886 73 9
3.2270851 0.82017505 -0.64722413 88 2
20.63365 5.2402811 1.8625182 45 10
3.2187214 0.81625557 -0.52593273 37 3
20.650236 5.2291613 2.6155601 67 11
20.626587 5.2116618 3.3695989 66 12
3.2126722 0.81054556 -0.28988001 7 5
20.638783 5.1994286 4.1371207 68 13
3.2248228 0.81181556 -0.17427875 7 6
20.632536 5.1863685 4.9115815 52 14
20.649418 5.1791191 5.7043719 70 15
4.1890135 1.0382299 -1.1564035 5 0
3.2337954 0.80088234 0.05815142 78 8
4.9034305 1.2125707 -1.1661462 3 1
3.2155771 0.79339463 -0.64378959 78 2
3.2244802 0.7932021 -0.52593273 66 3
3.2291884 0.79256755 -0.40826234 9 4
3.2201877 0.788571 -0.29005429 8 5
20.735603 5.0701375 4.1493325 15 13
3.2402511 0.79108703 -0.17480211 8 6
20.69096 5.0477424 4.9169803 34 14
20.657793 5.0243745 5.6966071 67 15
4.1903496 1.0083343 -1.1548507 4 0
3.2354183 0.77735382 0.058081608 56 8
3.2345881 0.77655566 -0.7679829 61 1
25.099531 6.0166092 1.3526752 15 9
3.2439499 0.77641016 -0.64836901 72 2
22.917706 5.4809175 2.0615819 3 10
3.2278831 0.77077651 -0.52561986 64 3
25.116123 5.9881372 3.1703095 67 11
3.2596126 0.77654928 -0.41143093 74 4
25.077026 5.964942 4.0826273 45 12
3.2411222 0.76975375 -0.2914488 8 5
24.238564 5.7520943 4.842351 9 13
3.2533345 0.77085489 -0.17522079 8 6
25.113953 5.9413185 5.9580536 34 14
3.2421384 0.76640952 -0.05815142 6 7
24.331568 5.7427754 6.6987548 14 15
3.2509685 0.75831974 -0.89447862 3 0
3.2570126 0.75793177 -0.77203202 9 1
3.2800121 0.76207715 0.17647687 3 9
3.2684162 0.75817901 -0.6521852 72 2
3.289881 0.76255476 0.29545796 8 10
3.2370343 0.7491135 -0.52624559 66 3
25.116699 5.8032632 3.1651909 58 11
3.2649543 0.75377399 -0.41143093 69 4
25.123835 5.7910576 4.0835657 64 12
25.13147 5.7789621 5.0125523 69 13
3.2566903 0.74767661 -0.17511612 8 6
25.139622 5.762362 5.9544544 60 14
3.2669022 0.74822074 -0.058500469 8 7
25.113066 5.7424374 6.9027042 59 15
3.2637208 0.73730803 -0.89654922 7 0
3.2752173 0.73870373 0.058605183 8 8
3.2660267 0.73603189 -0.77293181 9 1
3.2949955 0.74135023 0.17700022 65 9
3.2970688 0.74000329 0.29563227 28 10
3.2576058 0.72995192 -0.52874857 61 3
25.143038 5.6247525 3.1634848 63 11
3.2643251 0.72966284 -0.41069973 68 4
25.138586 5.6099377 4.0794983 66 12
3.2690566 0.72832465 -0.2930176 70 5
25.15012 5.5986905 5.0083547 67 13
3.269629 0.7266556 -0.17553481 61 6
25.16592 5.5837588 5.9513049 60 14
3.2798553 0.72712648 -0.058640085 9 7
25.148769 5.5661397 6.9016685 63 15
4.2275324 0.92407107 -1.1595093 5 0
3.2920172 0.71837682 0.058814611 9 8
3.2691817 0.71279764 -0.77248192 12 1
26.472933 5.7623472 1.4198747 15 9
3.2863569 0.71413958 -0.65371162 8 2
21.014242 4.5626349 1.8813437 28 10
3.2954416 0.71430713 -0.53406733 33 3
39.197605 8.4819965 4.924253 23 11
3.2848613 0.7102133 -0.41264963 71 4
39.191689 8.459219 6.3503013 28 12
3.2837999 0.70758295 -0.29388916 78 5
39.205082 8.440629 7.795311 27 13
3.2921968 0.70758879 -0.17647687 72 6
25.362434 5.4418764 5.988647 14 14
3.280941 0.70337266 -0.058570277 29 7
25.200239 5.3932748 6.9052925 68 15
4.2130899 0.89014 -1.1538154 4 0
3.2930386 0.6945529 0.058744799 57 8
3.2912402 0.6935721 -0.77653104 58 1
26.54965 5.585216 1.4218634 7 9
3.3104758 0.69521403 -0.6575278 92 2
21.010483 4.408462 1.8782063 33 10
3.304215 0.69209313 -0.53469306 79 3
39.220898 8.2008085 4.9198661 23 11
3.3248372 0.69399005 -0.41703692 19 4
39.211113 8.1773376 6.3440437 37 12
39.22987 8.1526966 7.7884417 42 13
39.22649 8.1305714 9.2486382 36 14
3.2878485 0.680282 -0.058605183 11 7
25.203224 5.2101607 6.8959746 75 15
4.2326012 0.8626737 -1.1574388 5 0
3.3036857 0.67274332 0.058849517 61 8
3.3018479 0.67116886 -0.77788073 21 1
26.622213 5.4018402 1.4236429 7 9
3.3114007 0.67130548 -0.65676457 90 2
22.525625 4.5583344 2.0106831 10 10
3.3052104 0.66764873 -0.53406733 69 3
39.29665 7.9307408 4.9223032 8 11
3.3276551 0.67036939 -0.41679317 74 4
39.264751 7.895761 6.3434186 20 12
3.3089857 0.66480577 -0.29528365 11 5
39.262737 7.873971 7.7838626 41 13
3.3175375 0.66411489 -0.17731424 9 6
39.263191 7.8526797 9.2441387 36 14
3.3140881 0.66161984 -0.058989134 8 7
25.220915 5.0259137 6.8907986 75 15
4.2423124 0.83384681 -1.1584741 5 0
4.9510741 0.97046518 -1.1647966 4 1
24.805025 4.8530684 1.3246232 40 9
3.3353882 0.65135533 -0.66058075 70 2
24.760767 4.8309503 2.2071321 2 10
3.3175464 0.6460681 -0.53531879 69 3
42.000568 8.1640911 5.2535439 3 11
3.3361516 0.64787859 -0.41728067 90 4
42.344193 8.2078791 6.8314939 20 12
41.539242 8.0292864 8.2238684 4 13
3.324054 0.64131624 -0.1774189 9 6
41.182209 7.9304352 9.6823435 4 14
3.3304086 0.64073372 -0.059198562 8 7
25.359734 4.869741 6.9192686 17 15
4.2537251 0.80528754 -1.160027 6 0
4.9615579 0.93659943 -1.1656964 4 1
45.0956 8.4964514 2.4049423 13 9
45.109528 8.4746218 4.0156136 48 10
3.3491576 0.62798822 -0.53969896 62 3
45.13166 8.446166 5.6376762 35 11
3.3425446 0.62493682 -0.4175244 74 4
45.121006 8.4197226 7.2698236 36 12
3.3180535 0.61796093 -0.29528365 75 5
45.051147 8.3822813 8.9073458 11 13
3.3284502 0.61809427 -0.1774189 59 6
44.298508 8.2102528 10.401287 5 14
3.3387332 0.61819565 -0.059268374 8 7
24.809908 4.5848155 6.7603536 19 15
4.2497396 0.77384084 -1.1574388 5 0
4.962224 0.90089411 -1.1643466 5 1
36.827003 6.6727004 1.9614471 19 9
3.3538167 0.60646886 -0.66248888 8 2
45.153866 8.1570339 4.0143933 40 10
45.169987 8.1273661 5.6352386 41 11
3.354641 0.60299098 -0.41849938 69 4
45.157295 8.1006765 7.2663817 17 12
3.3536658 0.6003992 -0.29807264 72 5
45.180073 8.080349 8.9214659 50 13
3.3641434 0.60045731 -0.17909366 67 6
45.168209 8.0456905 10.592046 34 14
3.3449364 0.59522223 -0.05930328 48 7
25.373898 4.5060782 6.9052925 14 15
4.2379117 0.74116004 -1.1527801 4 0
36.459255 6.3631549 0.64601833 8 8
4.9703116 0.8665663 -1.1647966 4 1
45.19606 7.8635883 2.4042094 48 9
3.3773124 0.5863986 -0.66630507 11 2
45.174381 7.8354511 4.0112557 40 10
3.3829029 0.58554494 -0.54376626 8 3
45.225624 7.8118439 5.6352386 35 11
3.3841994 0.58394456 -0.42166796 41 4
45.183548 7.7802157 7.2616887 41 12
3.3577757 0.57697153 -0.29807264 67 5
45.212158 7.7607713 8.9168863 50 13
3.3879395 0.58032858 -0.18014038 84 6
45.21175 7.7281909 10.589346 40 14
36.109779 6.1658754 -0.63942122 20 7
45.193386 7.7007017 12.28407 42 15
4.2601299 0.71443129 -1.1574388 3 0
45.222198 7.5675936 0.80033243 13 8
4.9993052 0.83570147 -1.1701953 4 1
45.230156 7.5445824 2.4031627 48 9
3.3910065 0.56441951 -0.66821313 32 2
45.208324 7.5166149 4.0095129 40 10
3.3791134 0.56062192 -0.5425148 64 3
45.247726 7.4907098 5.6313396 35 11
3.3941669 0.56068337 -0.42239916 76 4
45.234818 7.4642425 7.2613759 41 12
3.383347 0.55707645 -0.29999006 27 5
45.221981 7.4297214 8.9081087 50 13
45.249214 7.4098678 10.585747 40 14
36.194424 5.914094 -0.64015424 20 7
45.223164 7.3812914 12.277859 42 15
4.2803936 0.68637532 -1.16158 6 0
38.515121 6.1691337 0.68085325 29 8
4.9859138 0.79683053 -1.1656964 4 1
45.255371 7.2163267 2.4016974 48 9
6.0006309 0.95577717 -1.1811076 5 2
45.24128 7.1897926 4.0077696 40 10
3.4044995 0.53983015 -0.54595637 66 3
45.267548 7.1696701 5.6274395 35 11
3.4097631 0.53883475 -0.42386162 77 4
45.257797 7.1357646 7.2566824 41 12
3.3871536 0.53344429 -0.29999006 76 5
45.261116 7.1119814 8.9058199 45 13
3.4017243 0.53330404 -0.1804544 24 6
45.284443 7.0913544 10.582148 40 14
36.027378 5.6288533 -0.63648927 9 7
45.259556 7.0551124 12.273717 42 15
4.2908096 0.6573534 -1.1631329 4 0
38.560257 5.8936696 0.68088824 14 8
4.98943 0.76170647 -1.1652465 5 1
45.529736 6.9345136 2.41363 7 9
6.0092578 0.91310811 -1.1814893 4 2
3.4120915 0.51664054 -0.5465821 69 3
45.333397 6.8479314 5.6293893 15 11
3.4055903 0.51383233 -0.42288667 68 4
45.324093 6.8222566 7.2594986 17 12
3.4164979 0.51303899 -0.30225611 76 5
45.298012 6.7940784 8.9035301 45 13
45.303185 6.7625432 10.574949 40 14
36.376316 5.4234948 -0.64196932 13 7
45.301975 6.7381163 12.272163 42 15
4.2838249 0.62570667 -1.160027 4 0
36.66124 5.3417678 0.64668149 8 8
5.0004106 0.72769934 -1.1665962 4 1
6.019372 0.87169605 -1.1822525 4 2
36.077347 5.2181168 3.189203 4 10
3.4307084 0.49314958 -0.42556778 66 4
3.4318302 0.49086753 -0.30330199 72 5
21.57415 3.074306 -1.1420753 2 6
36.43309 5.1722364 -0.64231837 20 7
4.2823482 0.59498709 -1.1584741 6 0
39.143883 5.4247036 0.68978894 10 8
5.028533 0.69597816 -1.1719949 4 1
6.0116973 0.82777709 -1.1795813 4 2
36.164215 4.9731793 3.1937349 4 10
3.4522421 0.47351289 -0.55190086 6 3
3.4312248 0.46636018 -0.30295336 69 5
21.745508 2.9439793 -1.1500304 2 6
37.089474 4.9949322 -0.65324354 14 7
4.2999034 0.56609321 -1.1620976 4 0
39.24028 5.1591344 0.69083607 10 8
5.0256557 0.65896356 -1.1701953 4 1
6.0406899 0.78883797 -1.1841607 5 2
37.3843 4.8686476 3.298322 4 10
3.4516246 0.44828659 -0.55127513 15 3
3.4550555 0.44689283 -0.42776144 9 4
3.4541581 0.44493809 -0.30469647 55 5
21.91658 2.807584 -1.1579854 2 6
37.952595 4.8416533 -0.66783381 10 7
4.280746 0.53319502 -1.1558858 4 0
5.0262661 0.62338221 -1.1692957 4 1
111.58166 13.799414 5.8922968 30 9
6.0617676 0.74751383 -1.1872137 4 2
111.69844 13.754485 9.846159 28 10
3.4664338 0.42562488 -0.55315232 11 3
3.4837062 0.42589435 -0.43093005 74 4
22.030821 2.6660159 -1.1630096 2 6
39.136967 4.7152925 -0.68807858 7 7
4.315063 0.50690514 -1.1641681 4 0
5.0382371 0.58918482 -1.1710953 4 1
6.0570889 0.70404321 -1.1853056 4 2
7.4664965 0.86390334 -1.1904664 2 3
3.4806788 0.40088171 -0.43019882 62 4
13.598917 1.5566156 -1.1975199 3 5
22.16399 2.5252707 -1.1690807 2 6
57.349606 6.503756 -1.0074576 31 7
4.3280973 0.47782791 -1.1667564 6 0
5.0422282 0.55399698 -1.1710953 4 1
111.76345 12.24008 5.8922968 30 9
6.0560007 0.66110331 -1.1841607 4 2
7.4684186 0.81132966 -1.1898407 2 3
3.4893134 0.37721229 -0.43093005 63 4
13.653034 1.4663198 -1.2013547 4 5
22.363789 2.3900013 -1.1787106 2 6
4.3178763 0.44620833 -1.1631329 4 0
5.0576043 0.51997542 -1.1737946 4 1
6.0702338 0.61980546 -1.1860688 4 2
7.4738998 0.75917411 -1.1898407 2 3
13.670867 1.3717636 -1.202052 3 5
22.542892 2.2500803 -1.1872936 2 6
4.3247323 0.41642541 -1.1641681 4 0
5.0572309 0.48428252 -1.1728948 5 1
6.0880942 0.57870972 -1.1887401 5 2
7.4711514 0.70623076 -1.1885892 2 3
9.7219725 0.9121533 -1.1989506 3 4
13.723754 1.2803679 -1.2058868 3 5
22.665443 2.1026199 -1.1929458 2 6
4.3256774 0.38529417 -1.1636505 5 0
5.0683317 0.44876891 -1.1746944 4 1
6.0880747 0.53584838 -1.1879768 6 2
7.4858527 0.65361297 -1.1901536 2 3
9.718215 0.84340072 -1.197732 3 4
13.768088 1.1876087 -1.2090244 3 5
22.80727 1.951272 -1.1996449 2 6
4.3494406 0.35682547 -1.1693444 4 0
5.0655141 0.41290179 -1.1733446 5 1
6.0897965 0.49211133 -1.1875952 6 2
7.4803886 0.60054201 -1.1885892 2 3
9.7319164 0.77446705 -1.198707 4 4
13.823903 1.0928246 -1.213208 3 5
22.903961 1.7985666 -1.2040411 2 6
4.3480296 0.32540411 -1.1683092 4 0
5.072226 0.37693211 -1.1742445 4 1
6.0989575 0.45002085 -1.1887401 4 2
7.5120759 0.54901755 -1.1929693 2 3
9.741046 0.70678931 -1.1991944 3 4
13.868954 0.99900204 -1.2165198 2 5
23.031794 1.6428658 -1.2101121 2 6
4.3385801 0.29501405 -1.1652035 4 0
5.088284 0.34331605 -1.1773938 4 1
6.084321 0.40625393 -1.1853056 4 2
7.5235233 0.49839392 -1.1942208 2 3
9.7852478 0.64307582 -1.2040691 3 4
13.839802 0.89983392 -1.2133822 2 5
23.185947 1.4953098 -1.2176485 2 6
4.3347483 0.26436713 -1.1636505 3 0
5.0944476 0.30802244 -1.1782937 4 1
6.1144452 0.36540714 -1.1906482 4 2
7.5189319 0.44539046 -1.1929693 1 3
9.7518473 0.57253569 -1.1994381 3 4
13.766186 0.79857665 -1.2064098 3 5
23.25165 1.3366143 -1.2205793 2 6
4.3326306 0.23388807 -1.1626152 3 0
5.0886893 0.27203041 -1.176494 4 1
6.1227283 0.32302457 -1.1917931 5 2
7.5218577 0.39289117 -1.1929693 1 3
9.7595711 0.50465065 -1.1999257 2 4
13.801271 0.70397353 -1.2090244 3 5
23.423986 1.182512 -1.2291625 2 6
4.3650336 0.20508559 -1.1708974 5 0
5.0904646 0.23649804 -1.176494 4 1
6.1071835 0.27946138 -1.1883584 4 2
7.5500712 0.34152597 -1.1970366 2 3
9.7370758 0.43534639 -1.1967571 2 4
13.823763 0.60840029 -1.2105932 2 5
23.535429 1.0234762 -1.2346054 2 6
4.3702197 0.1747634 -1.1719327 5 0
5.099781 0.20126396 -1.1782937 4 1
6.1089854 0.23681839 -1.1883584 4 2
7.5305586 0.2879779 -1.1935952 1 3
9.7696333 0.36848044 -1.2004131 3 4
13.827674 0.5118708 -1.2105932 2 5
23.701675 0.864959 -1.2429792 2 6
4.3558865 0.14373951 -1.1677916 3 0
5.1010613 0.16565588 -1.1782937 4 1
6.1144147 0.19429149 -1.1891217 4 2
7.5165896 0.23490761 -1.1910921 1 3
9.7739515 0.30033219 -1.2006569 3 4
13.834894 0.41544259 -1.2109419 2 5
23.854868 0.70382774 -1.2507248 2 6
4.3529215 0.11322573 -1.1667564 3 0
5.1059895 0.13013902 -1.1791934 4 1
6.1273985 0.15189201 -1.1914115 4 2
7.5042233 0.18209079 -1.1889021 2 3
9.7698565 0.23194848 -1.1999257 3 4
13.849408 0.31912869 -1.2119877 2 5
23.927092 0.53881246 -1.2542837 2 6
4.3651943 0.083054341 -1.169862 3 0
5.0950832 0.094273008 -1.176494 4 1
6.1126051 0.1088314 -1.1883584 4 2
7.5033364 0.12966286 -1.1885892 1 3
9.7831469 0.16393593 -1.2013881 3 4
13.859266 0.22256176 -1.212685 2 5
24.497421 0.3805674 -1.2840104 2 6
4.3676004 0.05260079 -1.1703798 4 0
5.1073089 0.058835011 -1.1791934 4 1
84.013458 0.93848723 4.4032335 37 9
6.1191058 0.066218451 -1.1895033 4 2
7.5198603 0.077439256 -1.1910921 2 3
9.7721434 0.095516287 -1.1999257 3 4
13.870444 0.12589082 -1.2135565 3 5
24.6992 0.21124201 -1.2944777 2 6
4.3813834 0.02217635 -1.1740032 3 0
5.0998006 0.023142464 -1.1773938 4 1
6.1115656 0.023467274 -1.1879768 5 2
81.884666 0.30017 7.1640277 32 10
7.5320702 0.024978152 -1.1929693 1 3
83.921387 0.24901083 10.304297 25 11
9.7646313 0.027269369 -1.1989506 3 4
13.900871 0.029109772 -1.2161711 2 5
24.923767 0.039143477 -1.306201 2 6
4.3794999 -0.0084080463 -1.1734856 4 0
5.0998378 -0.01246128 -1.1773938 4 1
6.1155076 -0.019212496 -1.1887401 4 2
7.5202088 -0.027563129 -1.1910921 1 3
9.792367 -0.042727534 -1.202363 3 4
13.900736 -0.067932352 -1.2161711 3 5
25.33486 -0.13707612 -1.3277633 7 6
4.3909183 -0.0398518 -1.1765914 2 0
5.0957208 -0.048916914 -1.176494 4 1
6.1112976 -0.061866224 -1.1879768 6 2
7.5198193 -0.08137545 -1.1910921 2 3
81.721313 -0.89860892 10.034722 22 11
9.7898455 -0.11106704 -1.2021192 2 4
85.624756 -1.0013162 13.562557 36 12
13.91586 -0.16516452 -1.2175657 2 5
25.353201 -0.31861448 -1.3288101 2 6
4.3383794 -0.069667466 -1.1626152 3 0
5.0835643 -0.084296413 -1.1737946 4 1
6.1126614 -0.10562971 -1.1883584 4 2
78.589783 -1.3717897 6.8767619 27 10
7.5111675 -0.13373062 -1.1898407 2 3
84.71772 -1.5379162 10.403743 26 11
9.7987556 -0.17959166 -1.203338 3 4
13.928267 -0.26500455 -1.2187859 4 5
25.941435 -0.50715971 -1.3597929 2 6
4.3609633 -0.10048716 -1.1688268 3 0
5.0906448 -0.1199677 -1.1755942 4 1
61.252407 -1.4648862 3.2110207 14 9
6.1137381 -0.14834885 -1.1887401 3 2
77.681992 -1.898507 6.7983222 26 10
7.5396719 -0.18689905 -1.1945337 2 3
9.7813864 -0.2475931 -1.2013881 3 4
13.945994 -0.362753 -1.220529 3 5
4.3447075 -0.13046585 -1.1646857 3 0
85.889297 -2.6091509 1.4998947 37 8
5.0935783 -0.1556229 -1.176494 4 1
61.392403 -1.8971578 3.2189758 14 9
6.1184397 -0.19121081 -1.1898849 4 2
7.5283117 -0.23921722 -1.1929693 1 3
9.7853727 -0.31606573 -1.2021192 2 4
13.967098 -0.45845565 -1.2226207 3 5
26.91193 -0.90216517 -1.4111868 5 6
4.3378997 -0.16057982 -1.1631329 4 0
84.754486 -3.1522436 1.4804178 35 8
5.1040521 -0.19161734 -1.1791934 4 1
61.306217 -2.3122854 3.2152073 14 9
6.1130733 -0.23270361 -1.1891217 4 2
7.5501966 -0.29136902 -1.1967238 1 3
66.311378 -2.5821984 8.1481848 14 11
9.7888784 -0.38460612 -1.2028506 3 4
13.953603 -0.55555606 -1.2217492 3 5
27.046854 -1.091042 -1.4186186 15 6
48.349934 -1.9841968 -0.84466159 19 7
4.3289862 -0.1897646 -1.1610622 3 0
5.0948424 -0.22600938 -1.1773938 4 1
61.288578 -2.7402236 3.2152073 14 9
6.1230679 -0.27590516 -1.1914115 4 2
62.853401 -2.8431635 5.5045824 14 10
7.528245 -0.34317222 -1.1935952 1 3
51.002796 -2.3427839 6.2689595 7 11
9.8216467 -0.4545874 -1.2072377 3 4
53.49279 -2.485229 8.4815645 8 12
13.983218 -0.65453994 -1.2247125 3 5
27.216137 -1.2882413 -1.4279343 7 6
43.696957 -2.0989153 -0.76361257 5 7
4.3429523 -0.22152436 -1.1652035 3 0
5.0853105 -0.26206008 -1.1755942 4 1
60.274105 -3.1271868 3.1630809 13 9
6.1190314 -0.31854308 -1.1910298 4 2
51.876381 -2.7187262 4.5448232 10 10
7.529542 -0.39724213 -1.1942208 2 3
51.034752 -2.7014139 6.275053 15 11
9.8182344 -0.52314383 -1.2072377 3 4
52.984447 -2.8417118 8.4039736 8 12
13.998202 -0.75321501 -1.2264556 3 5
27.65494 -1.5074198 -1.4514855 2 6
43.603371 -2.3996384 -0.76225132 10 7
4.3567286 -0.25273326 -1.1693444 4 0
75.438133 -4.4025784 1.319018 23 8
5.0833569 -0.29755554 -1.1755942 4 1
6.1107159 -0.36197311 -1.1898849 4 2
51.251514 -3.0449009 4.4918327 10 10
7.5265851 -0.44979814 -1.1942208 1 3
50.489017 -3.0349741 6.2104621 7 11
9.8083992 -0.59131634 -1.2065066 3 4
52.308693 -3.1718466 8.3001013 32 12
14.036356 -0.85358238 -1.2302905 4 5
28.138128 -1.7308606 -1.4774442 2 6
42.034771 -2.6077781 -0.73513025 4 7
4.3510027 -0.2828919 -1.1683092 4 0
5.0889339 -0.33354637 -1.1773938 4 1
6.1237826 -0.40459421 -1.1929379 3 2
51.286659 -3.4064562 4.4968877 31 10
7.5075808 -0.49996909 -1.1917179 1 3
50.863316 -3.4050884 6.2592096 7 11
9.825819 -0.6612432 -1.2091877 3 4
52.725399 -3.5574787 8.3698702 8 12
14.053908 -0.9531709 -1.2323822 3 5
28.424583 -1.9427778 -1.493145 2 6
40.551254 -2.8000615 -0.70951015 33 7
4.3528299 -0.31277835 -1.1693444 4 0
5.0904331 -0.36845902 -1.1782937 4 1
60.889374 -4.4287 3.1995068 14 9
6.1071024 -0.4463343 -1.1902666 4 2
51.371578 -3.7634785 4.5064745 21 10
7.5314884 -0.55439955 -1.1960981 1 3
50.925415 -3.7665381 6.2699347 15 11
9.8191109 -0.72796267 -1.208944 3 4
52.677612 -3.9238672 8.3664293 16 12
14.082674 -1.053938 -1.2355198 4 5
28.709074 -2.1636851 -1.5088458 2 6
40.577114 -3.0794981 -0.7103129 28 7
4.3486142 -0.34300703 -1.1688268 3 0
70.067734 -5.5513659 1.2268693 19 8
5.0799656 -0.40337059 -1.176494 4 1
59.765938 -4.7666607 3.1421463 13 9
6.1057944 -0.48911551 -1.1906482 4 2
52.988457 -4.2540421 4.6508045 11 10
7.5274339 -0.60696536 -1.1960981 1 3
51.163017 -4.1434422 6.3025956 15 11
9.8058748 -0.79585236 -1.2079691 2 4
52.849754 -4.3078976 8.3983412 8 12
14.138517 -1.1574292 -1.2410978 3 5
28.963976 -2.3863616 -1.5230812 2 6
40.600464 -3.3665032 -0.71111578 12 7
4.3480382 -0.37352282 -1.1693444 3 0
70.883957 -6.1142879 1.2418784 19 8
5.0770264 -0.43882537 -1.176494 4 1
52.508305 -4.5569453 2.7621875 10 9
6.1100545 -0.53241146 -1.1921747 4 2
50.710632 -4.4276867 4.4534841 10 10
7.5131741 -0.65863883 -1.1945337 2 3
52.117611 -4.5871987 6.4239774 16 11
9.8198538 -0.86603433 -1.2104064 3 4
51.326893 -4.5446873 8.1611872 31 12
14.145969 -1.257517 -1.2424922 3 5
40.974304 -3.6856942 -0.71809673 4 7
4.360714 -0.4052988 -1.1734856 4 0
70.305939 -6.5592155 1.2325238 19 8
5.0777192 -0.47462144 -1.1773938 4 1
51.665878 -4.8474736 2.7195859 28 9
6.1179161 -0.57615876 -1.1944643 4 2
51.521503 -4.8611436 4.5275664 21 10
7.5142922 -0.71163297 -1.1954722 1 3
9.805665 -0.93381548 -1.2094315 4 4
51.437466 -4.9166236 8.1840267 7 12
14.184443 -1.3608094 -1.2466757 4 5
54.591942 -5.2469897 10.6605 8 13
29.452675 -2.8411582 -1.5507145 2 6
4.3327127 -0.43398973 -1.1667564 3 0
65.744637 -6.6085453 1.1533598 16 8
5.0780711 -0.5113349 -1.1782937 4 1
56.540096 -5.7132249 2.9782302 12 9
6.0941043 -0.61794198 -1.1906482 3 2
7.5227647 -0.76678765 -1.1976624 2 3
53.500999 -5.4721713 6.6033688 8 11
9.8382263 -1.0080054 -1.2143062 3 4
51.516899 -5.2964931 8.202486 7 12
14.269472 -1.4720894 -1.2550427 4 5
54.033535 -5.5838227 10.558989 15 13
4.3391809 -0.46525666 -1.1693444 4 0
57.29068 -6.1630635 1.0057821 10 8
5.0821276 -0.54760885 -1.1800933 5 1
51.393623 -5.5559087 2.7091188 28 9
6.1052561 -0.66216499 -1.1937011 4 2
51.54073 -5.5991144 4.535759 10 10
7.5368657 -0.82142758 -1.2007911 2 3
52.437336 -5.7335606 6.4768686 16 11
9.8131895 -1.0747191 -1.2121125 3 4
52.719639 -5.7923636 8.400219 16 12
14.349946 -1.5817137 -1.263061 3 5
54.081051 -5.9706035 10.576161 15 13
30.453741 -3.3728843 -1.6057719 3 6
60.302948 -6.7001228 14.007703 11 14
4.3281503 -0.49466091 -1.167274 3 0
57.107193 -6.5469317 1.0033388 10 8
5.0820532 -0.58351976 -1.1809931 4 1
52.228592 -6.0153422 2.7552791 10 9
6.1043854 -0.70522177 -1.1944643 3 2
51.983307 -6.0146737 4.5782909 10 10
7.5093627 -0.87151933 -1.1973495 1 3
52.543907 -6.1167145 6.4951491 8 11
9.862627 -1.1498678 -1.2191811 3 4
52.827026 -6.1777096 8.4239969 16 12
14.433537 -1.6929971 -1.2714279 4 5
53.64418 -6.3017426 10.499075 15 13
30.328291 -3.5734885 -1.6004337 6 6
60.335987 -7.1305566 14.026598 11 14
40.761238 -4.8244109 -0.71645617 21 7
4.3303447 -0.52556306 -1.1688268 2 0
56.182705 -6.8386555 0.98791093 10 8
5.0662489 -0.6175698 -1.1782937 4 1
52.224968 -6.3846645 2.7573724 10 9
6.1071076 -0.74877656 -1.1959908 4 2
53.158215 -6.5270081 4.685667 22 10
7.5050559 -0.92416441 -1.1976624 2 3
53.386486 -6.5928721 6.6048317 8 11
9.85042 -1.218206 -1.2186935 2 4
53.041382 -6.5784516 8.4652958 25 12
14.547904 -1.8094587 -1.2825838 3 5
53.819027 -6.7035141 10.542198 15 13
31.18453 -3.8952935 -1.6470127 3 6
60.32341 -7.5564485 14.035597 22 14
40.841644 -5.1232934 -0.71848071 12 7
4.339983 -0.55750453 -1.1724503 3 0
56.30019 -7.2521739 0.99084294 10 8
5.0656796 -0.65342218 -1.1791934 4 1
51.69582 -6.6865916 2.7318325 29 9
6.0958905 -0.79063606 -1.1948459 5 2
52.840668 -6.8628035 4.6617861 22 10
7.5062571 -0.97755706 -1.1989139 2 3
53.370655 -6.9695296 6.6087317 8 11
