# .PCD v0.7 - Point Cloud Data file format
VERSION 0.7
FIELDS x y z intensity ring
SIZE 4 4 4 4 2
TYPE F F F F U
COUNT 1 1 1 1 1
WIDTH 1320
HEIGHT 1
VIEWPOINT 0 0 0 1 0 0 0
POINTS 1320
DATA ascii
19.812517 -12.346601 2.8663671 17 11
11.079314 -6.9070024 -1.6030694 5 4
20.615799 -12.862178 3.8486011 21 12
11.089369 -6.9213352 -1.1436577 7 5
21.649836 -13.523066 4.9617972 21 13
11.064204 -6.9163675 -0.68382168 9 6
22.931786 -14.340502 6.2441912 17 14
11.065598 -6.9252996 -0.22785862 10 7
23.754574 -14.878115 7.5104113 18 15
3.7954021 -2.3910174 -1.2019557 3 0
11.075931 -6.9802861 0.22852181 17 8
4.5393782 -2.8630264 -1.2390305 3 1
11.085811 -6.9946251 0.68696183 11 9
5.6872044 -3.591135 -1.3074232 3 2
20.671127 -13.062694 2.1393249 3 10
7.5571108 -4.7774067 -1.4160448 1 3
19.681044 -12.451458 2.8595424 15 11
11.084495 -7.0181627 -1.6108691 6 4
20.602867 -13.049771 3.8626802 6 12
11.109772 -7.0423179 -1.1508044 7 5
22.604294 -14.339587 5.2033615 14 13
11.084324 -7.0343251 -0.68800855 9 6
22.50211 -14.291293 6.154211 4 14
11.097989 -7.0538697 -0.22953404 10 7
23.706549 -15.073668 7.5274935 16 15
3.7830765 -2.4212394 -1.2035086 4 0
11.118763 -7.1216874 0.23047648 11 8
4.5319009 -2.9038467 -1.2426296 3 1
11.121666 -7.1317616 0.69240475 9 9
5.6689897 -3.6380293 -1.3093314 4 2
20.754845 -13.324374 2.1578019 2 10
7.5484781 -4.8497586 -1.4210509 1 3
19.565866 -12.580362 2.8561301 17 11
11.077399 -7.1252222 -1.6172063 5 4
20.267471 -13.04648 3.8176272 17 12
11.101398 -7.1516213 -1.1553365 6 5
21.303028 -13.728863 4.9263067 13 13
11.092886 -7.1543584 -0.69177675 7 6
23.058216 -14.882801 6.3359718 10 14
11.077467 -7.1526299 -0.23016234 10 7
23.569458 -15.230265 7.5192113 16 15
3.7547421 -2.440222 -1.1998851 3 0
11.112358 -7.2274847 0.23138401 11 8
4.5311189 -2.948168 -1.2480285 3 1
11.121818 -7.2419262 0.69554496 11 9
5.6483879 -3.680733 -1.3104763 4 2
20.930038 -13.644119 2.1858661 16 10
7.5276723 -4.9109731 -1.4235538 1 3
21.149729 -13.808384 3.1013315 12 11
11.107162 -7.254487 -1.6289058 4 4
21.204367 -13.859897 4.0122313 4 12
11.121231 -7.2747574 -1.1626576 7 5
22.84123 -14.946881 5.3060169 3 13
11.126212 -7.2863369 -0.69701034 7 6
22.205635 -14.553109 6.1294661 13 14
11.11924 -7.2900929 -0.2320821 9 7
24.115097 -15.822591 7.7283368 6 15
3.7327776 -2.4631834 -1.1983322 4 0
11.135053 -7.3533731 0.23291981 9 8
4.5136786 -2.9818773 -1.2489282 3 1
11.157625 -7.3766713 0.70098788 9 9
5.6569376 -3.7428255 -1.3184903 6 2
20.825968 -13.784408 2.1849945 8 10
7.5129662 -4.9764962 -1.4273082 1 3
20.981667 -13.908537 3.0908506 4 11
11.110841 -7.3680568 -1.6369492 4 4
21.50211 -14.269746 4.0873203 1 12
11.111664 -7.3797765 -1.1670153 7 5
21.241722 -14.112965 4.9572182 10 13
11.108337 -7.385951 -0.69910377 9 6
22.111605 -14.713177 6.1317158 16 14
11.118014 -7.4007845 -0.23312925 11 7
26.626329 -17.737419 8.5726051 19 15
3.7347503 -2.5020854 -1.2045439 3 0
11.12829 -7.4609976 0.23386225 11 8
4.4959879 -3.0154867 -1.2498281 3 1
11.152287 -7.4855533 0.7039187 11 9
5.6518569 -3.796458 -1.3234513 4 2
20.739151 -13.93613 2.1860402 2 10
7.5042686 -5.0464621 -1.432314 1 3
21.491753 -14.463647 3.1807899 6 11
11.126645 -7.4908981 -1.6469425 4 4
21.342989 -14.379772 4.076057 12 12
11.152384 -7.5195456 -1.1767769 7 5
21.150814 -14.266404 4.959126 18 13
11.142585 -7.5214286 -0.70454675 5 6
22.153685 -14.965363 6.1722069 11 14
11.143948 -7.5308452 -0.23476978 7 7
23.847025 -16.127445 7.7138429 6 15
3.7235811 -2.5324435 -1.2066144 3 0
11.153629 -7.5913863 0.23550276 9 8
4.4925451 -3.0588653 -1.254777 3 1
11.155874 -7.6014652 0.70747751 6 9
5.659277 -3.8590503 -1.3314652 5 2
22.590111 -15.409927 2.3924251 2 10
7.4786429 -5.1054111 -1.4341913 1 3
20.913279 -14.287474 3.1098623 11 11
11.119968 -7.5997553 -1.6537671 4 4
21.11816 -14.443671 4.052279 15 12
11.152229 -7.6332316 -1.1823548 7 5
21.62739 -14.808581 5.0949821 3 13
11.129345 -7.6261282 -0.70705879 9 6
24.068871 -16.504992 6.7377338 7 14
11.15871 -7.6548405 -0.23620087 11 7
25.761312 -17.685406 8.372797 15 15
3.7074003 -2.5594745 -1.207132 3 0
11.177685 -7.7224913 0.23714329 12 8
4.4823036 -3.0979102 -1.2579263 3 1
11.171525 -7.7268796 0.71187371 9 9
5.6257415 -3.8939955 -1.3299388 5 2
21.944702 -15.195233 2.3352509 4 10
7.4785399 -5.1822491 -1.4410745 1 3
20.798344 -14.422947 3.1076686 13 11
11.128621 -7.7201991 -1.6630292 4 4
21.102814 -14.650457 4.068861 10 12
11.172298 -7.7620587 -1.1901989 7 5
20.174131 -14.021385 4.775568 12 13
11.131582 -7.7424154 -0.71061772 5 6
22.088123 -15.374525 6.2131481 14 14
11.147665 -7.7622643 -0.23710839 9 7
24.939823 -17.378853 8.1450357 4 15
3.6926062 -2.5875123 -1.2081673 3 0
11.18899 -7.846262 0.23853949 8 8
4.4765201 -3.1403184 -1.2624253 3 1
11.181061 -7.8494382 0.71595591 8 9
5.6112709 -3.9422045 -1.3329917 6 2
21.366997 -15.016975 2.2848749 21 10
7.477725 -5.2593336 -1.4479576 1 3
20.713379 -14.579219 3.1101058 12 11
11.136131 -7.8411312 -1.6722913 4 4
20.985487 -14.787183 4.0660448 8 12
11.160172 -7.8697176 -1.1947309 7 5
21.638304 -15.264145 5.147264 7 13
11.178421 -7.8913536 -0.71710736 7 6
20.469807 -14.461272 5.786191 10 14
11.176488 -7.8987603 -0.23888855 10 7
24.540295 -17.356215 8.0539312 9 15
3.6996412 -2.6311421 -1.2164496 3 0
11.187705 -7.9624486 0.23969135 11 8
4.4576626 -3.1737542 -1.2633251 3 1
11.205693 -7.9840941 0.72108489 8 9
5.6139846 -4.0029373 -1.3402424 4 2
19.92346 -14.211266 2.141068 7 10
7.4569039 -5.322886 -1.4510862 1 3
21.245901 -15.176944 3.2058952 31 11
11.158643 -7.9740839 -1.6839907 4 4
21.170963 -15.140161 4.1223617 19 12
11.195691 -8.012373 -1.2044923 5 5
20.314816 -14.543979 4.8564711 15 13
11.158775 -7.9947915 -0.71941012 5 6
20.15613 -14.451666 5.725904 15 14
11.168195 -8.0103922 -0.23990077 9 7
23.834707 -17.108055 7.8613696 2 15
3.670217 -2.6489918 -1.2128261 3 0
11.182096 -8.0766563 0.24077339 8 8
4.4353967 -3.2047968 -1.2633251 3 1
11.203092 -8.100749 0.72453904 9 9
5.6033974 -4.0546932 -1.3444403 5 2
20.067465 -14.52642 2.1673892 16 10
7.4579554 -5.4026279 -1.4585952 1 3
22.979668 -16.658966 3.4849761 5 11
11.170195 -8.1007385 -1.6942277 4 4
20.786573 -15.085705 4.0679226 15 12
11.197324 -8.1293612 -1.2105932 8 5
20.006306 -14.535431 4.8068604 16 13
11.196383 -8.1406212 -0.72548109 9 6
20.747566 -15.090592 5.9229612 13 14
11.205772 -8.1564207 -0.24192525 9 7
21.180355 -15.427999 7.0212436 22 15
3.6828048 -2.6973803 -1.2231789 2 0
11.212354 -8.2152214 0.24262336 11 8
4.4160585 -3.2379882 -1.264225 4 1
11.234657 -8.2406073 0.73019135 9 9
5.5851645 -4.0997105 -1.34673 5 2
19.845131 -14.577698 2.1543155 10 10
7.4623961 -5.4836798 -1.4667298 1 3
22.905722 -16.844397 3.4910696 3 11
11.161335 -8.2138195 -1.70154 4 4
20.782036 -15.299456 4.0873203 5 12
11.183607 -8.2392435 -1.2152996 6 5
20.411591 -15.04872 4.9293599 9 13
11.17929 -8.2450962 -0.72799325 7 6
20.433176 -15.081157 5.8631244 12 14
11.191987 -8.26653 -0.24286768 10 7
24.74477 -18.283447 8.2439041 5 15
3.6721125 -2.7281461 -1.225767 2 0
11.21571 -8.3386364 0.24394974 9 8
4.4001708 -3.2726238 -1.2660246 3 1
11.216908 -8.34865 0.73280811 6 9
5.5658536 -4.145638 -1.3490196 5 2
19.663965 -14.65173 2.1454258 4 10
7.4175959 -5.53092 -1.4654782 1 3
22.318232 -16.653681 3.4191666 5 11
11.170388 -8.3382874 -1.7115332 3 4
20.731691 -15.486725 4.0985832 5 12
11.219967 -8.3874998 -1.225584 7 5
19.703369 -14.734642 4.7824368 12 13
11.226995 -8.4019213 -0.73490155 7 6
20.149574 -15.090268 5.8118353 13 14
11.221881 -8.4072657 -0.24475256 9 7
20.189692 -15.136821 6.7613888 15 15
3.6329226 -2.7385979 -1.2190377 3 0
11.262585 -8.4962158 0.24625346 11 8
4.3865495 -3.3103061 -1.268724 3 1
11.218917 -8.4724941 0.73678571 9 9
5.5461745 -4.1914959 -1.3513094 4 2
18.253197 -13.799777 2.0019674 7 10
7.4134603 -5.6087899 -1.4723614 1 3
22.179264 -16.792309 3.4157543 7 11
11.20685 -8.4879799 -1.7261575 4 4
22.159567 -16.795656 4.4039435 1 12
11.207172 -8.5005436 -1.2306391 6 5
19.654764 -14.91337 4.7957935 11 13
11.215785 -8.5163298 -0.7380417 7 6
22.409945 -17.028572 6.4979362 11 14
11.215449 -8.5253372 -0.24590442 9 7
20.780039 -15.807231 6.9958787 10 15
3.6137154 -2.7638936 -1.2190377 3 0
11.236342 -8.6001587 0.24698645 11 8
4.375711 -3.3503265 -1.2723231 3 1
11.238764 -8.6113462 0.74201924 8 9
5.5417047 -4.249227 -1.3574153 5 2
17.440275 -13.377557 1.9230043 9 10
7.3866582 -5.6700306 -1.4748644 1 3
21.718307 -16.683117 3.3626192 14 11
11.191467 -8.6030407 -1.7332259 3 4
22.090315 -16.987278 4.4136424 13 12
11.234399 -8.6454058 -1.2402261 7 5
18.149178 -13.976748 4.4527187 8 13
11.247825 -8.6651182 -0.74411267 7 6
19.336555 -14.907287 5.6368232 1 14
11.241237 -8.672554 -0.24782418 7 7
20.904697 -16.133686 7.0755954 16 15
3.6152098 -2.8062661 -1.2262847 2 0
11.253421 -8.7384882 0.2486968 9 8
4.3516245 -3.3815522 -1.2723231 3 1
19.985586 -15.541553 1.3268213 4 9
5.527401 -4.2998662 -1.3612314 5 2
17.337812 -13.497118 1.9223071 3 10
7.3832955 -5.7518792 -1.4823732 1 3
20.292328 -15.814219 3.1588538 13 11
11.223489 -8.7529879 -1.7476066 3 4
19.478142 -15.201574 3.9133649 11 12
11.235016 -8.7714434 -1.2470243 7 5
20.15053 -15.74332 4.9705744 12 13
11.226439 -8.7773685 -0.74683416 7 6
19.167543 -14.991494 5.6179276 9 14
11.240256 -8.797658 -0.24915056 10 7
20.784151 -16.279289 7.0740423 5 15
3.610708 -2.8433881 -1.231461 4 0
11.258139 -8.872015 0.25019771 9 8
4.3386235 -3.420295 -1.2754724 4 1
17.665648 -13.936477 1.1792339 9 9
5.5165224 -4.3551235 -1.3661925 6 2
17.401085 -13.742548 1.9399126 6 10
7.3739557 -5.8277802 -1.4886307 1 3
21.268541 -16.821005 3.3294709 9 11
11.225937 -8.8816271 -1.7575998 3 4
21.183558 -16.771828 4.2794218 5 12
11.2844 -8.9374924 -1.2594005 7 5
21.664881 -17.171371 5.3735633 11 13
11.250954 -8.9237919 -0.75259113 5 6
19.456274 -15.437449 5.7340026 3 14
11.266262 -8.9455481 -0.25110522 7 7
19.263359 -15.306306 6.592639 4 15
3.5786946 -2.8588803 -1.22732 3 0
11.295904 -9.0270891 0.2523967 9 8
4.3329029 -3.465106 -1.2808713 4 1
17.5501 -14.040178 1.1778731 1 9
5.4852176 -4.3913455 -1.3658109 6 2
17.287617 -13.849994 1.9379952 13 10
7.4343104 -5.9581361 -1.508967 5 3
18.997934 -15.236554 2.9901865 6 11
11.236421 -9.0181808 -1.7690556 3 4
21.175192 -17.000963 4.3010097 16 12
11.257453 -9.044755 -1.2634096 6 5
18.022326 -14.490321 4.4950786 8 13
11.256873 -9.0539923 -0.757092 7 6
19.070217 -15.349295 5.65167 3 14
11.26583 -9.0741587 -0.25250143 10 7
24.365095 -19.632086 8.3841839 15 15
3.55615 -2.8807409 -1.2262847 2 0
11.280764 -9.1447659 0.25347877 9 8
4.3182979 -3.5018835 -1.2835708 4 1
16.915064 -13.726901 1.1416566 12 9
5.4772873 -4.4480968 -1.3715351 6 2
17.271809 -14.031412 1.946885 16 10
7.4047956 -6.0198612 -1.51147 9 3
18.33983 -14.920324 2.9029281 5 11
11.256376 -9.1608648 -1.7819737 3 4
20.189056 -16.442333 4.1239257 7 12
11.289789 -9.2011662 -1.2742169 7 5
18.038921 -14.706944 4.5240817 5 13
11.293981 -9.2144289 -0.76389569 5 6
18.745224 -15.304582 5.586884 5 14
11.295182 -9.2252636 -0.2545608 9 7
19.207548 -15.698814 6.6469908 9 15
3.5404301 -2.9091771 -1.2278377 2 0
11.309321 -9.2995014 0.25557303 9 8
4.2982607 -3.5356591 -1.2849205 4 1
17.108721 -14.083291 1.161335 15 9
5.4612536 -4.4987092 -1.3753513 6 2
17.350254 -14.29736 1.9669307 14 10
7.3686848 -6.0764346 -1.5127214 9 3
18.089767 -14.927968 2.8797729 1 11
11.276345 -9.308732 -1.7953793 3 4
20.023518 -16.541361 4.1136012 21 12
11.283631 -9.3279982 -1.2808408 6 5
17.822338 -14.738683 4.49546 15 13
11.286308 -9.3401651 -0.76776856 5 6
18.19066 -15.064672 5.4528136 5 14
11.289019 -9.3523712 -0.25588718 9 7
19.081123 -15.818963 6.6412973 9 15
3.537842 -2.9486644 -1.2340492 3 0
11.307084 -9.4307413 0.25700414 9 8
4.2749681 -3.5668287 -1.2853703 4 1
16.390602 -13.685241 1.1190475 12 9
5.4387536 -4.5442786 -1.377641 6 2
17.184284 -14.363195 1.9594353 11 10
7.350328 -6.1480079 -1.5177274 6 3
17.84202 -14.934124 2.8568614 22 11
11.271963 -9.4382029 -1.8051288 2 4
23.347616 -19.563215 4.8244395 13 12
11.331212 -9.501277 -1.2937398 6 5
19.800766 -16.608927 5.0236197 33 13
11.308023 -9.4919214 -0.77373481 5 6
17.794073 -14.946885 5.3650823 15 14
11.326026 -9.5171461 -0.2582258 7 7
23.262548 -19.561144 8.1440001 14 15
3.5245469 -2.9795275 -1.2366375 2 0
11.346311 -9.5985641 0.25941256 8 8
4.2588887 -3.6041393 -1.2880697 4 1
16.654362 -14.103948 1.1437501 7 9
5.4203758 -4.5935612 -1.3810756 5 2
16.963531 -14.381032 1.9456648 16 10
7.3237982 -6.2132297 -1.5211689 6 3
17.474012 -14.834777 2.814451 13 11
11.304149 -9.6001902 -1.8209718 1 4
19.87039 -16.887121 4.1301832 7 12
11.316207 -9.6240368 -1.2996664 6 5
11.290146 -9.6120672 -0.77708435 5 6
17.764944 -15.1352 5.3880277 11 14
11.309532 -9.6387901 -0.25937766 9 7
23.138647 -19.734352 8.1486588 14 15
3.5007267 -3.0015459 -1.2356021 2 0
11.320003 -9.7127008 0.260355 9 8
4.2484112 -3.6464763 -1.2925688 4 1
16.776697 -14.409871 1.1590322 16 9
5.3971081 -4.6389685 -1.3833653 5 2
16.849123 -14.487416 1.944096 14 10
7.3056979 -6.2861104 -1.5264877 3 3
17.263218 -14.864443 2.7971454 18 11
11.300023 -9.7332869 -1.8312089 1 4
18.361994 -15.827291 3.8395278 3 12
14.01567 -12.089467 -1.6193538 9 5
21.09347 -18.200974 5.4155412 8 13
14.20835 -12.268647 -0.98381138 8 6
20.678667 -17.868248 6.3094273 15 14
14.311532 -12.370829 -0.33019951 11 7
19.216116 -16.622057 6.8079762 21 15
3.4782295 -3.0246446 -1.2350845 3 0
15.014123 -13.065386 0.34740758 3 8
4.2360792 -3.6875627 -1.2966179 3 1
16.151611 -14.070102 1.1226064 1 9
5.3631105 -4.6752434 -1.3829837 6 2
16.684504 -14.549693 1.9367748 14 10
7.2943783 -6.3655343 -1.5333707 4 3
17.19491 -15.015937 2.8029952 22 11
11.157047 -9.7466373 -1.8190219 1 4
18.597572 -16.258026 3.9124265 14 12
13.821459 -12.091252 -1.6066289 10 5
20.945208 -18.329687 5.4101987 3 13
14.05474 -12.308328 -0.97910112 12 6
20.503588 -17.968506 6.2941303 15 14
14.184221 -12.434849 -0.3292571 13 7
21.250345 -18.642614 7.5745983 6 15
3.4671707 -3.0577977 -1.238708 2 0
14.394791 -12.704117 0.33512112 1 8
4.2189975 -3.7247844 -1.2993174 4 1
15.990125 -14.126979 1.1182102 3 9
5.3406372 -4.721674 -1.385655 6 2
16.451187 -14.549664 1.9214355 6 10
7.3104105 -6.4699807 -1.5461985 4 3
16.859322 -14.93161 2.7652156 12 11
11.748439 -10.408772 -1.927242 1 4
17.933767 -15.899966 3.7960391 6 12
13.648778 -12.109434 -1.5963445 11 5
41.996147 -37.272816 10.914657 16 13
13.865432 -12.314634 -0.97187883 14 6
20.472326 -18.195356 6.3233738 14 14
14.080626 -12.518953 -0.32887316 15 7
19.358864 -17.22389 6.9430804 3 15
3.4500589 -3.0857923 -1.240261 3 0
14.392171 -12.881652 0.3371456 1 8
4.1914387 -3.7528472 -1.2988673 4 1
16.0711 -14.399533 1.1308755 12 9
5.3250842 -4.7745705 -1.3902344 6 2
16.491598 -14.791871 1.9381694 6 10
7.3488574 -6.5960679 -1.564032 5 3
16.187565 -14.539578 2.6716199 9 11
11.718308 -10.529012 -1.9343103 2 4
16.658949 -14.978738 3.5482469 5 12
13.495776 -12.143125 -1.5883262 11 5
20.990759 -18.89353 5.4895749 1 13
13.698984 -12.33895 -0.96622658 14 6
13.597939 -12.256537 4.2263803 1 14
13.055767 -11.771981 -0.3068482 3 7
19.644053 -17.724867 7.089572 11 15
3.4384482 -3.1188879 -1.2438843 3 0
15.123667 -13.72774 0.35651776 21 8
4.1737933 -3.7898774 -1.3015668 4 1
15.905142 -14.452279 1.1262698 21 9
5.3046951 -4.8235173 -1.393669 6 2
16.116737 -14.659964 1.906096 16 10
7.3435335 -6.6844435 -1.5727924 6 3
16.159042 -14.719071 2.6838069 37 11
17.270664 -15.748187 3.7018657 12 12
13.323839 -12.15781 -1.5780419 10 5
40.938042 -37.368465 10.774221 16 13
13.516656 -12.34673 -0.95942283 12 6
12.562718 -11.483405 3.929445 8 14
13.079521 -11.959999 -0.30936137 8 7
19.699409 -18.0259 7.1547937 15 15
3.4180121 -3.1441245 -1.2444019 3 0
13.459098 -12.389285 0.31930923 9 8
4.1558347 -3.8268437 -1.3042662 4 1
15.903733 -14.654998 1.1333876 5 9
5.2651181 -4.8551097 -1.3921425 6 2
15.955423 -14.718084 1.8991235 15 10
7.3678112 -6.8012018 -1.5881228 7 3
16.146297 -14.915034 2.6989188 7 11
10.588969 -9.784915 -1.7702743 1 4
17.251671 -15.952865 3.7215765 13 12
13.155284 -12.1734 -1.5681061 9 5
13.545754 -12.539116 3.5879726 5 13
13.358336 -12.374285 -0.95429391 14 6
12.483672 -11.572154 3.9298949 9 14
13.362278 -12.390944 -0.31808758 26 7
20.071547 -18.625536 7.3370028 7 15
3.4002173 -3.1718636 -1.2459549 2 0
13.25826 -12.376511 0.31658667 10 8
4.1318655 -3.8584235 -1.305166 4 1
15.55296 -14.533849 1.1155934 5 9
5.2396989 -4.8997936 -1.3944323 6 2
15.727153 -14.712062 1.8841329 13 10
7.3547611 -6.8848715 -1.5956318 6 3
13.184885 -12.351151 2.218266 14 11
16.871866 -15.821586 3.6633828 15 12
12.971182 -12.172234 -1.556253 8 5
12.433014 -11.671293 3.3147342 10 13
12.590354 -11.827266 -0.90530741 2 6
12.503391 -11.753791 3.961838 7 14
12.740817 -11.981172 -0.3052775 7 7
12.9967 -12.23035 4.7819409 30 15
3.3920245 -3.2087996 -1.2511313 3 0
13.219454 -12.514134 0.31773853 18 8
4.1189785 -3.9005749 -1.3096651 4 1
15.233658 -14.436002 1.0998925 12 9
5.2281575 -4.9578691 -1.4005381 6 2
15.718016 -14.910625 1.8954631 15 10
7.3437662 -6.9714103 -1.6037663 7 3
13.222109 -12.560476 2.2392275 8 11
16.58493 -15.771549 3.6248999 12 12
12.81661 -12.196565 -1.5478859 9 5
12.231785 -11.644102 3.2826781 17 13
13.020851 -12.403923 -0.94246602 14 6
12.233432 -11.66196 3.9020009 5 14
13.186523 -12.574923 -0.31805265 11 7
12.722322 -12.140735 4.71206 13 15
3.3681464 -3.2310646 -1.2506137 2 0
13.213995 -12.685053 0.31972811 18 8
4.0972695 -3.9346344 -1.3114647 4 1
15.362919 -14.763424 1.1166401 12 9
5.2146444 -5.0146594 -1.4062624 5 2
15.504413 -14.915018 1.8822154 15 10
7.3176875 -7.0444283 -1.6087722 6 3
12.97112 -12.495476 2.2114413 23 11
11.573845 -11.153333 -1.9735522 1 4
16.045 -15.472842 3.5304134 17 12
12.669502 -12.226253 -1.5403906 10 5
11.706676 -11.301056 3.1628499 18 13
12.850622 -12.414038 -0.93639499 12 6
12.23018 -11.822928 3.9271953 6 14
12.450105 -12.039735 -0.30231059 12 7
12.606715 -12.199701 4.7006717 14 15
3.3496621 -3.2585413 -1.2521666 2 0
15.029402 -14.630774 0.36611658 14 8
4.0697007 -3.9631424 -1.3114647 4 1
14.994855 -14.612442 1.0972759 19 9
5.1865363 -5.0577955 -1.4081705 6 2
15.489758 -15.110543 1.8931969 7 10
7.3036685 -7.1298399 -1.616594 6 3
12.91623 -12.61763 2.2170475 9 11
11.417613 -11.157555 -1.9601468 2 4
15.933764 -15.581718 3.5297878 12 12
12.50552 -12.237761 -1.5308034 8 5
17.093315 -16.73317 4.6496339 16 13
12.702295 -12.44335 -0.93189418 14 6
12.123686 -11.884832 3.9195473 7 14
12.812634 -12.564592 -0.31323579 13 7
12.49504 -12.261705 4.6908364 16 15
3.3199544 -3.275063 -1.2495784 2 0
13.167944 -12.998961 0.32297423 9 8
4.0641193 -4.0133662 -1.3186631 4 1
14.916628 -14.740637 1.0990553 14 9
5.1524963 -5.0952616 -1.4085521 6 2
15.281907 -15.117429 1.8806466 13 10
7.283196 -7.2098393 -1.6231642 6 3
12.634622 -12.5161 2.183655 16 11
11.363411 -11.260745 -1.9642901 3 4
16.757353 -16.61755 3.7378454 10 12
12.337753 -12.243367 -1.5206933 8 5
20.315842 -20.167461 5.5643721 17 13
12.534349 -12.451492 -0.92592788 12 6
12.045947 -11.974676 3.9213469 21 14
12.711843 -12.641046 -0.31292164 26 7
16.00507 -15.927045 6.0501542 9 15
3.3093021 -3.3104572 -1.2542372 3 0
12.814008 -12.827433 0.31648195 4 8
4.0470181 -4.0526719 -1.3222623 4 1
13.216335 -13.244043 0.9805665 1 9
5.1251178 -5.1394491 -1.4108418 4 2
12.973233 -13.014053 1.6076748 3 10
7.2563844 -7.2843008 -1.6284831 9 3
12.618359 -12.675749 2.1960857 11 11
11.264916 -11.320103 -1.9608778 6 4
15.802409 -15.890913 3.5494983 12 12
12.188782 -12.265608 -1.5128495 9 5
11.878371 -11.957414 3.2761905 1 13
12.393646 -12.48483 -0.92195034 12 6
11.941782 -12.042245 -0.29602769 11 7
15.888052 -16.032906 6.0480838 12 15
3.2901785 -3.3376071 -1.2557901 3 0
11.600063 -11.775498 0.2885232 2 8
4.024096 -4.086381 -1.3240619 5 1
13.217413 -13.431366 0.98757958 3 9
5.0973716 -5.1835022 -1.4131315 5 2
12.872286 -13.094359 1.6064546 2 10
7.1942801 -7.3235083 -1.6259799 6 3
12.397449 -12.628956 2.1729305 13 11
11.227326 -11.440975 -1.9681902 3 4
15.920678 -16.23497 3.6014347 7 12
12.053403 -12.295646 -1.5063998 10 5
13.006351 -13.277012 3.6127775 14 13
12.233531 -12.496834 -0.91650736 16 6
17.691427 -18.07851 5.8397293 6 14
12.360743 -12.640016 -0.30859345 12 7
11.681927 -11.954207 4.4786048 5 15
3.2748778 -3.3688066 -1.2588959 2 0
12.339087 -12.697428 0.30904719 4 8
3.9954693 -4.1143746 -1.3240619 4 1
15.320948 -15.782409 1.1527519 9 9
5.072907 -5.2293525 -1.4161844 6 2
13.842829 -14.279703 1.7399772 10 10
7.1456394 -7.3737273 -1.6262929 4 3
14.957108 -15.445321 2.6399338 12 11
11.174788 -11.547607 -1.9730648 1 4
15.827654 -16.36142 3.6055019 15 12
11.892494 -12.30214 -1.496987 11 5
12.060781 -12.489304 -0.90991306 16 6
11.007086 -11.406137 3.6595039 6 14
12.109791 -12.557587 -0.30450958 32 7
10.511587 -10.904094 4.0582829 1 15
3.2585561 -3.3979912 -1.261484 4 0
11.974814 -12.495948 0.30210117 11 8
3.9754603 -4.1499186 -1.3267614 4 1
13.167701 -13.755159 0.99794209 1 9
5.0498471 -5.2788267 -1.4200007 6 2
13.883012 -14.517592 1.7574084 8 10
7.1062698 -7.4362864 -1.6291087 4 3
11.776584 -12.332106 2.0937154 6 11
10.824527 -11.3391 -1.9248046 1 4
15.81531 -16.578718 3.6289673 6 12
11.756827 -12.332948 -1.4907117 10 5
11.542153 -12.111985 3.2521486 9 13
11.929219 -12.526914 -0.90656352 16 6
10.8842 -11.437527 3.6451068 6 14
12.04333 -12.660009 -0.30499828 13 7
19.229265 -20.228035 7.4783177 4 15
3.2440464 -3.4304826 -1.2651075 3 0
11.88591 -12.577789 0.30206624 2 8
3.9597738 -4.1917377 -1.3312603 4 1
14.04478 -14.877924 1.0722592 1 9
5.006135 -5.3068113 -1.4180925 6 2
13.625491 -14.448912 1.7375368 12 10
7.0704384 -7.5029678 -1.6328632 3 3
14.221494 -15.102039 2.5470695 8 11
10.655298 -11.318996 -1.9087178 4 4
16.047033 -17.058498 3.7093747 12 12
11.600845 -12.340691 -1.4818219 9 5
11.554114 -12.295279 3.2796254 9 13
11.769013 -12.532725 -0.90101594 12 6
10.88543 -11.599916 3.6725507 6 14
11.834259 -12.615436 -0.30192664 22 7
17.619711 -18.795929 6.9032216 8 15
3.2266059 -3.4601111 -1.2676958 4 0
11.587867 -12.435165 0.29669091 16 8
3.9383836 -4.2278352 -1.3339597 4 1
12.816506 -13.76809 0.98580015 19 9
4.982337 -5.3560061 -1.4219086 6 2
13.593484 -14.618093 1.7464267 9 10
7.0340233 -7.5695095 -1.6366177 3 3
14.341296 -15.44388 2.5877738 9 11
10.381542 -11.183605 -1.8736194 7 4
15.704545 -16.929705 3.6574383 9 12
10.6191 -11.455546 -1.3666019 9 5
11.429298 -12.333881 3.2685583 20 13
11.620165 -12.548637 -0.89630568 14 6
10.891537 -11.770028 3.7022443 4 14
11.373831 -12.295527 -0.29236272 32 7
11.601446 -12.550372 4.5795441 6 15
3.2036788 -3.4839742 -1.2682134 3 0
11.503478 -12.518705 0.29676074 13 8
3.9219546 -4.2695785 -1.3384588 4 1
14.554209 -15.85533 1.1279447 10 9
4.9580951 -5.4051261 -1.4257249 6 2
13.368564 -14.579007 1.7305644 10 10
6.9783368 -7.6155181 -1.6359918 3 3
11.311966 -12.353499 2.0566673 5 11
15.595304 -17.049131 3.6596284 4 12
10.548277 -11.539698 -1.3678223 0 5
13.153276 -14.394582 3.79023 8 13
11.353159 -12.433294 -0.8823843 12 6
10.835373 -11.87457 3.7112427 12 14
11.492557 -12.599195 -0.29766825 33 7
11.180387 -12.265564 4.4470291 15 15
3.1831708 -3.5105486 -1.2697662 3 0
11.618552 -12.82247 0.30203137 12 8
3.8868196 -4.2910771 -1.3366592 4 1
14.338619 -15.841053 1.1197803 5 9
4.9294586 -5.449801 -1.4283962 6 2
13.345299 -14.759174 1.7408488 9 10
6.9607582 -7.7036228 -1.6444392 3 3
12.026314 -13.319129 2.2033978 4 11
10.228373 -11.331885 -1.8743507 153 4
14.889781 -16.507784 3.5210273 13 12
11.173115 -12.395942 -1.4600329 10 5
10.765786 -11.948227 3.1262147 4 13
11.32221 -12.57459 -0.8867805 16 6
10.787402 -11.989038 3.7233896 8 14
10.961678 -12.187002 -0.28611475 21 7
10.881403 -12.10625 4.361619 21 15
3.1624486 -3.5370064 -1.2713192 3 0
11.484784 -12.854058 0.30087951 11 8
3.8697488 -4.3326421 -1.3411582 4 1
12.952269 -14.51179 1.0193999 13 9
4.9082799 -5.503129 -1.4333572 6 2
6.9094362 -7.754981 -1.6450651 3 3
11.913237 -13.380525 2.1997418 9 11
11.295271 -12.699829 2.6919246 12 12
11.0413 -12.423008 -1.4541063 11 5
10.700365 -12.043641 3.1315575 16 13
11.173152 -12.584623 -0.88196564 16 6
10.636189 -11.988254 3.6999948 3 14
11.339406 -12.785358 -0.29829654 16 7
10.833778 -12.223848 4.3766303 33 15
3.1300132 -3.550303 -1.2682134 3 0
11.061648 -12.555809 0.29208347 15 8
3.8394074 -4.3595519 -1.3411582 4 1
13.055165 -14.834253 1.0356239 13 9
4.8671484 -5.5343118 -1.4325941 6 2
12.777478 -14.534064 1.6930873 5 10
6.8785954 -7.829741 -1.6506966 3 3
10.703716 -12.192366 1.9920764 7 11
10.890815 -12.422967 -1.4453908 13 5
10.654835 -12.162352 3.1430058 9 13
11.0324 -12.60221 -0.87777877 16 6
9.884429 -11.294868 3.4651458 9 14
11.185369 -12.790451 -0.29658622 13 7
10.741822 -12.291911 4.374042 25 15
3.1216276 -3.5910215 -1.2749426 4 0
10.930019 -12.577982 0.29086182 27 8
3.8318772 -4.412735 -1.3492564 5 1
12.457678 -14.35114 0.99595332 11 9
4.8499489 -5.5910416 -1.4387 6 2
11.29107 -13.025577 1.5081429 2 10
6.8367839 -7.8898168 -1.6535125 3 3
11.202638 -12.93724 2.1012714 1 11
9.4159822 -10.881614 -1.7668619 6 4
13.531853 -15.643654 3.276051 3 12
10.730856 -12.414285 -1.4356294 12 5
11.967236 -13.854396 3.558588 9 13
10.892847 -12.615032 -0.87348717 16 6
9.8155203 -11.375403 3.4687452 10 14
11.02137 -12.781904 -0.29459664 10 7
10.753762 -12.47595 4.4133825 26 15
3.0971122 -3.6121867 -1.2749426 2 0
10.821127 -12.629685 0.29030332 12 8
3.8030205 -4.4401956 -1.3497064 4 1
12.770173 -14.920284 1.0292389 3 9
4.8146262 -5.62924 -1.4398447 6 2
11.206032 -13.106674 1.5086659 11 10
6.7789702 -7.9343495 -1.6528869 4 3
11.996266 -14.050787 2.268476 21 11
9.32623 -10.927335 -1.7639371 14 4
13.337709 -15.638544 3.2554016 3 12
9.3683634 -10.992232 -1.263584 13 5
11.881567 -13.945992 3.5612595 10 13
10.732007 -12.605608 -0.86762559 16 6
9.8065805 -11.526768 3.4939396 15 14
10.840835 -12.746949 -0.29208347 35 7
10.454977 -12.301946 4.3259015 34 15
3.0780556 -3.6410973 -1.2775309 3 0
10.741725 -12.715615 0.29054767 22 8
3.7731862 -4.4681258 -1.3501562 5 1
12.594855 -14.925121 1.0234821 3 9
4.7941937 -5.6852279 -1.445569 6 2
12.490859 -14.817617 1.6955278 13 10
6.7246857 -7.9829926 -1.6531997 3 3
12.5473 -14.905675 2.3922954 9 11
10.288824 -12.227031 -1.9620966 4 4
13.254906 -15.763026 3.261972 10 12
10.46676 -12.456126 -1.4234276 11 5
10.60199 -12.621531 3.2040651 1 13
10.615494 -12.646568 -0.86532277 14 6
10.040214 -11.969703 3.6068652 15 14
10.763144 -12.836113 -0.29239765 31 7
10.821707 -12.915107 4.5148396 28 15
3.0599818 -3.6714013 -1.2806368 3 0
10.674448 -12.816417 0.29114106 15 8
3.7468889 -4.5003486 -1.3519558 5 1
12.535062 -15.066423 1.0271456 14 9
4.7606626 -5.7261071 -1.4474771 6 2
12.392203 -14.910589 1.6962252 13 10
6.6915083 -8.0570974 -1.6588312 3 3
10.209164 -12.301364 1.9628278 21 11
10.195609 -12.289395 -1.9606342 4 4
13.177315 -15.894718 3.2701066 5 12
10.328701 -12.467523 -1.4164551 10 5
10.532399 -12.717919 3.209789 26 13
10.479831 -12.663439 -0.86144996 16 6
9.9936628 -12.084557 3.620362 4 14
10.608289 -12.832335 -0.29061747 13 7
10.340022 -12.51672 4.3502307 28 15
3.037956 -3.6971519 -1.2821896 2 0
10.733185 -13.071445 0.29522491 11 8
3.7277434 -4.5414605 -1.3564548 5 1
11.753185 -14.328944 0.97125077 4 9
4.7230601 -5.7622399 -1.4482403 6 2
12.03652 -14.690052 1.6615371 7 10
6.6551194 -8.1280718 -1.6638372 3 3
10.094124 -12.337001 1.9572219 35 11
10.075632 -12.318786 -1.9540532 6 4
10.53833 -12.893676 2.6374853 4 12
10.193519 -12.480688 -1.4098313 9 5
11.185852 -13.700558 3.4379969 26 13
10.336878 -12.669747 -0.85694903 18 6
10.485599 -12.865781 -0.28970996 21 7
10.076716 -12.372901 4.2756906 50 15
3.0120711 -3.7182705 -1.2821896 2 0
10.356063 -12.793237 0.28730151 15 8
3.6934958 -4.5643444 -1.3555551 5 1
11.998219 -14.837734 1.0000356 9 9
4.696291 -5.8118696 -1.4524381 6 2
9.8378916 -12.179178 1.3697397 3 10
6.6354346 -8.2204475 -1.6732231 3 3
10.070062 -12.484424 1.9694086 15 11
9.9520044 -12.342467 -1.9467411 6 4
10.2448 -12.714672 2.586175 16 12
9.9861851 -12.402568 -1.3930974 11 5
11.907307 -14.793832 3.691391 6 13
10.193096 -12.673125 -0.8523435 14 6
9.9338369 -12.359617 3.6608534 24 14
10.0035 -12.450742 -0.27878475 26 7
9.8304443 -12.244101 4.2073627 39 15
2.994478 -3.7497749 -1.2858131 3 0
10.266497 -12.865224 0.28730151 9 8
3.6761241 -4.6082988 -1.3609538 6 1
12.646297 -15.864444 1.0632575 16 9
4.6629415 -5.8537273 -1.4547279 6 2
11.508796 -14.452997 1.6163905 6 10
6.606173 -8.3021231 -1.6804192 2 3
9.9110041 -12.464303 1.9552718 10 11
9.0478888 -11.382909 -1.785386 8 4
10.171758 -12.805991 2.5902421 14 12
9.9303217 -12.510995 -1.3974551 11 5
13.579237 -17.114319 4.246645 13 13
10.068389 -12.698591 -0.84930795 12 6
9.8920851 -12.485182 3.6775 32 14
9.997036 -12.622168 -0.28105354 33 7
9.8082685 -12.392718 4.2347975 49 15
2.9617136 -3.7609642 -1.2827072 2 0
10.230629 -13.000809 0.28876752 19 8
3.6446714 -4.6332145 -1.3609538 5 1
12.383732 -15.753881 1.0501734 13 9
4.6351161 -5.9007702 -1.458544 6 2
11.583646 -14.75195 1.6409683 12 10
6.5714598 -8.3748703 -1.6860509 2 3
9.8283834 -12.534601 1.9557593 20 11
8.962081 -11.437984 -1.7841673 11 4
10.230522 -13.061547 2.6277864 7 12
9.0012932 -11.500427 -1.2777032 0 5
11.007751 -14.074081 3.4731057 12 13
9.9029884 -12.66613 -0.84260899 16 6
9.7720804 -12.507691 3.6644528 35 14
9.6650181 -12.379564 -0.27414241 20 7
9.7141781 -12.447009 4.2306561 27 15
2.9524899 -3.8049552 -1.2904718 2 0
10.072208 -12.985011 0.28684777 20 8
3.6138117 -4.6622567 -1.3618537 5 1
11.700749 -15.106279 1.0013963 16 9
4.6058273 -5.9485087 -1.4623603 8 2
11.294903 -14.598093 1.6148217 10 10
6.52707 -8.4419966 -1.6901182 3 3
11.284765 -14.600779 2.265795 6 11
9.5530138 -12.369077 -1.9189547 6 4
13.228886 -17.140894 3.4293568 8 12
9.6680374 -12.531566 -1.3847303 10 5
10.345846 -13.419812 3.293745 22 13
9.7560291 -12.66389 -0.83779413 16 6
9.6084251 -12.476794 3.635659 35 14
9.845439 -12.793797 -0.28178653 37 7
9.6166182 -12.505484 4.2270327 45 15
2.9305487 -3.8316128 -1.2925425 2 0
9.8284588 -12.859741 0.28251958 13 8
3.5859072 -4.6935663 -1.3636533 5 1
11.918602 -15.611459 1.0293437 19 9
4.5595708 -5.9766316 -1.4612154 34 2
11.694118 -15.33406 1.6871608 5 10
6.4919219 -8.5187807 -1.6963756 3 3
10.191403 -13.382974 2.0654416 8 11
9.4255495 -12.381764 -1.9106677 7 4
10.046049 -13.206441 2.6280994 9 12
9.5588274 -12.575048 -1.3819414 9 5
10.324363 -13.587067 3.3170238 34 13
9.6673822 -12.731689 -0.83779413 12 6
9.6543608 -12.723761 3.6873975 19 14
9.6543713 -12.728389 -0.27885455 21 7
9.6037617 -12.670848 4.2601619 24 15
2.8874478 -3.8303812 -1.2852954 2 0
9.8190546 -13.035058 0.28485817 15 8
3.564775 -4.7340536 -1.3681523 6 1
10.792189 -14.34254 0.94068658 3 9
4.5212755 -6.0130253 -1.4623603 54 2
10.133494 -13.48184 1.4755466 6 10
6.4500861 -8.5875864 -1.7010686 3 3
8.7980118 -11.726375 -1.8000103 12 4
9.9109468 -13.219353 2.6168361 23 12
9.4086838 -12.55856 -1.3728772 10 5
10.236317 -13.66824 3.3193133 42 13
9.5363789 -12.742903 -0.83413053 13 6
9.5431232 -12.761198 3.6788495 30 14
9.6407061 -12.896379 -0.28105354 10 7
9.3011818 -12.451261 4.1643987 36 15
2.8744614 -3.8690546 -1.2915071 2 0
9.4953775 -12.790198 0.27805173 1 8
3.536284 -4.7650843 -1.3699518 5 1
9.9874973 -13.467809 0.87872082 9 9
4.4908752 -6.0602169 -1.4661764 52 2
9.9857588 -13.480209 1.4677026 13 10
6.3805757 -8.6197052 -1.6985657 3 3
9.8040504 -13.25425 2.02425 16 11
8.7489796 -11.832203 -1.8068351 9 4
9.7972889 -13.259626 2.6112044 28 12
9.2780027 -12.56141 -1.3662534 10 5
9.7780638 -13.248114 3.2006302 33 13
9.4045076 -12.751303 -0.83036238 15 6
9.4872637 -12.868211 3.6909969 27 14
9.4662256 -12.849065 -0.2785753 15 7
9.1544743 -12.434993 4.1374817 53 15
2.8565102 -3.9014969 -1.2956481 3 0
9.3655796 -12.796441 0.27679518 16 8
3.5052326 -4.7928019 -1.3708518 6 1
9.939208 -13.595134 0.88259363 30 9
4.4529953 -6.0954003 -1.4673213 46 2
9.8596888 -13.506147 1.4629964 36 10
6.3392215 -8.6868715 -1.7032586 3 3
9.5861177 -13.145847 1.9976823 30 11
8.5013256 -11.66678 -1.7724679 11 4
10.015016 -13.749129 2.6941147 22 12
9.1678047 -12.59527 -1.3629415 8 5
9.7199821 -13.363686 3.212079 34 13
9.2705145 -12.750406 -0.82617551 15 6
9.3903227 -12.924671 3.6882973 7 14
9.4221106 -12.977946 -0.27993661 12 7
9.0889101 -12.523596 4.1462812 41 15
2.8310182 -3.9224172 -1.2961658 2 0
9.0911989 -12.605256 0.2712802 16 8
3.4702482 -4.8133883 -1.3699518 5 1
9.8125334 -13.620437 0.87976754 19 9
4.4172153 -6.1358991 -1.4696109 13 2
9.5929604 -13.330369 1.4368495 26 10
6.2945681 -8.7533684 -1.7076389 2 3
9.1442776 -12.725609 1.9240733 20 11
8.5294209 -11.874316 -1.7951355 9 4
9.3186579 -12.982624 2.5311098 47 12
9.0436525 -12.608778 -1.3575379 7 5
9.6299372 -13.431133 3.2124603 8 13
9.1417246 -12.759611 -0.82261664 13 6
9.0938158 -12.706792 -0.27274621 13 7
9.0922832 -12.714025 4.18821 21 15
2.8125231 -3.9546797 -1.3003069 2 0
8.9659071 -12.616257 0.27016324 26 8
3.4501033 -4.8565621 -1.3753507 6 1
9.6744299 -13.62835 0.87589461 35 9
4.4356093 -6.253057 -1.4902184 7 2
9.6806002 -13.652183 1.4642165 27 10
6.2470093 -8.8164406 -1.7113932 2 3
9.0689793 -12.808577 1.9269981 14 11
8.5242977 -12.043755 -1.8117099 9 4
9.2426252 -13.068331 2.5351772 21 12
8.9232082 -12.626048 -1.3526571 10 5
24.644133 -34.883553 8.3021002 9 13
9.0339937 -12.797016 -0.82094187 13 6
8.8281479 -12.514696 3.5357807 24 14
8.9391975 -12.676817 -0.27075663 11 7
9.0533752 -12.848255 4.211504 42 15
2.7770853 -3.9631441 -1.2966834 2 0
9.0645695 -12.945546 0.27585274 17 8
3.4205842 -4.8869157 -1.3771503 5 1
9.5916433 -13.713562 0.87704605 26 9
4.3884726 -6.2790437 -1.4890735 12 2
9.5405531 -13.655735 1.4574182 8 10
6.2067919 -8.8906116 -1.7173377 2 3
9.3620892 -13.420239 2.0091381 26 11
8.5967054 -12.327673 -1.8453459 9 4
9.0913095 -13.046638 2.5185952 35 12
8.7984133 -12.635714 -1.3470792 15 5
11.009441 -15.816936 3.7459626 11 13
8.7893343 -12.63678 -0.80670649 13 6
8.758359 -12.601625 3.5429792 33 14
8.974844 -12.917919 -0.27456126 10 7
8.9116774 -12.83656 4.1871748 53 15
2.7548382 -3.9903839 -1.2992717 3 0
8.9217377 -12.932796 0.27424711 15 8
3.3930221 -4.9203024 -1.3798498 5 1
9.5693321 -13.887088 0.88384968 19 9
4.3534379 -6.322463 -1.4921263 16 2
9.4077072 -13.667847 1.451666 18 10
6.1557665 -8.9500017 -1.7204664 2 3
8.8656473 -12.899597 1.9218796 17 11
8.5846233 -12.495376 -1.8614326 7 4
9.0547886 -13.189588 2.5339255 10 12
8.6603947 -12.62454 -1.3394095 10 5
8.657999 -12.635225 -0.80272895 13 6
8.6602612 -12.647991 3.5389299 32 14
8.7613297 -12.800392 -0.27075663 9 7
8.8076668 -12.877732 4.1804452 44 15
2.7290854 -4.0127134 -1.3003069 3 0
8.7963905 -12.943494 0.27316508 17 8
3.3629699 -4.9503179 -1.3816494 6 1
10.799194 -15.908442 1.0076766 13 9
4.3213158 -6.370574 -1.4963243 14 2
9.331068 -13.761226 1.4546293 10 10
6.0986753 -9.0009356 -1.7220308 2 3
8.5550184 -12.635707 1.8736194 24 11
8.448225 -12.482667 -1.850708 7 4
8.9746609 -13.27048 2.5373673 35 12
8.5541773 -12.653485 -1.3362719 10 5
9.0236759 -13.358024 3.1334655 21 13
8.6332731 -12.78972 -0.80869526 16 6
8.5706997 -12.7018 3.5375803 27 14
8.7242956 -12.939172 -0.27239716 31 7
8.8794661 -13.17923 4.2580914 39 15
2.6988549 -4.0284586 -1.2992717 2 0
8.6491089 -12.915008 0.2713151 27 8
3.3239932 -4.9671965 -1.3798498 6 1
10.590716 -15.832174 0.99825615 27 9
4.278944 -6.4014726 -1.4967059 12 2
9.3089142 -13.93704 1.4663082 16 10
6.0603013 -9.0767393 -1.728601 2 3
8.3586721 -12.538039 -1.8502206 6 4
8.76472 -13.152086 2.5032647 28 12
8.4291887 -12.658171 -1.3305196 13 5
8.6593895 -13.013709 3.0384426 35 13
8.5438032 -12.844862 -0.80848593 15 6
8.4731855 -12.748343 3.5339811 33 14
8.6337519 -12.999763 -0.27239716 15 7
9.1165161 -13.731856 4.4164886 13 15
2.6798861 -4.0596337 -1.3034128 2 0
8.5201979 -12.916652 0.27009344 13 8
3.3008332 -5.0059762 -1.3843488 6 1
10.472237 -15.894051 0.99752343 48 9
4.234149 -6.4311891 -1.4967059 17 2
9.2839346 -14.106596 1.4774642 28 10
6.0239215 -9.1600876 -1.7364228 2 3
8.290596 -12.616426 1.8536329 0 11
8.2197323 -12.513345 -1.8382773 5 4
8.7268867 -13.295526 2.518908 10 12
8.3166008 -12.675273 -1.326336 10 5
8.6179714 -13.144591 3.055234 22 13
8.4156141 -12.845722 -0.80482239 13 6
8.5623741 -13.074715 3.6082149 27 14
8.5045509 -12.996318 -0.27110568 21 7
9.3820076 -14.348138 4.5935206 38 15
2.6525326 -4.0798631 -1.3039304 2 0
8.4538736 -13.007881 0.27079153 16 8
3.2700498 -5.0354357 -1.3861483 5 1
10.331182 -15.914705 0.99438322 13 9
4.1892071 -6.4582143 -1.4963243 11 2
9.192812 -14.18277 1.4786843 12 10
5.991508 -9.2472982 -1.745183 2 3
8.1980534 -12.662566 1.8521705 6 11
8.105216 -12.528756 -1.8321838 7 4
8.5997133 -13.298222 2.5082705 43 12
8.1835747 -12.664413 -1.3191893 12 5
9.9413147 -15.396377 3.5624039 9 13
8.2987385 -12.857399 -0.80199623 11 6
8.4212446 -13.057201 3.5870695 34 14
8.3952007 -13.026798 -0.27051231 12 7
9.0351257 -14.025146 4.4703231 17 15
2.6257422 -4.0994511 -1.3044481 2 0
8.3305187 -13.016054 0.2697444 22 8
3.244101 -5.0707097 -1.3897476 5 1
10.20369 -15.961201 0.99281323 19 9
4.1429615 -6.4856477 -1.4959426 9 2
9.1003485 -14.25173 1.4793816 21 10
5.9873681 -9.3838215 -1.7630166 2 3
8.081707 -12.675971 1.8458333 1 11
7.9855542 -12.53481 -1.8248718 8 4
8.501359 -13.349604 2.506706 16 12
8.0874729 -12.709471 -1.3179691 8 5
8.7032766 -13.687753 3.1529279 23 13
8.1916332 -12.888052 -0.80032152 15 6
8.3392868 -13.130479 3.5911186 32 14
8.2986946 -13.076647 -0.27033779 11 7
8.6855221 -13.691476 4.3445368 5 15
2.6107645 -4.1410131 -1.311695 2 0
8.3258076 -13.210928 0.27257168 5 8
3.2035794 -5.0871973 -1.3879479 6 1
10.08496 -16.027046 0.99239457 1 9
4.1038551 -6.5243835 -1.4982322 8 2
8.9249773 -14.20009 1.4673541 12 10
5.96314 -9.4950113 -1.7758442 4 3
8.7666693 -13.964437 2.0244937 6 11
7.8725343 -12.549894 -1.8190219 7 4
8.5367575 -13.619313 2.5458148 29 12
7.9721007 -12.723413 -1.3136113 9 5
8.7523212 -13.979478 3.2059727 34 13
8.0737782 -12.905702 -0.79780936 11 6
8.7072124 -13.923635 3.7913249 21 14
8.0334129 -12.856148 -0.26461339 27 7
8.6528101 -13.858151 4.3776655 24 15
2.5777164 -4.1525736 -1.3096244 2 0
8.6980019 -14.022976 0.28803453 11 8
3.1741483 -5.1193757 -1.3906474 5 1
8.1530809 -13.159827 0.81131208 13 9
4.0694633 -6.5736146 -1.5028118 8 2
8.9535332 -14.468747 1.4886199 12 10
5.9081345 -9.5548925 -1.7792858 5 3
7.9956102 -12.940941 1.8677697 12 11
7.7492623 -12.547126 -1.8107349 6 4
7.8496075 -12.724496 -1.3080333 7 5
8.1126404 -13.161159 3.0052419 36 13
7.9394908 -12.890328 -0.79341316 15 6
8.6813164 -14.100245 3.8228183 35 14
7.9162226 -12.867634 -0.26370585 25 7
8.6246462 -14.030133 4.4128652 27 15
2.5547068 -4.1803579 -1.3127302 3 0
8.0790377 -13.225204 0.27051231 11 8
3.1423922 -5.1480641 -1.392447 5 1
8.1704674 -13.390628 0.82209331 3 9
4.0215583 -6.5961328 -1.5016669 7 2
8.8346834 -14.501978 1.4856569 11 10
5.8635092 -9.6286297 -1.7855432 5 3
7.8867006 -12.961149 1.8628949 4 11
7.644979 -12.57378 -1.8068351 7 4
9.2643423 -15.243157 2.8252068 9 12
7.7254219 -12.721086 -1.3021067 9 5
8.8679399 -14.613913 3.3227482 11 13
7.8349915 -12.91675 -0.79173839 11 6
8.5382214 -14.087179 3.8030224 10 14
7.8779912 -13.00811 -0.2654511 19 7
8.5229435 -14.078596 4.409759 13 15
2.5232053 -4.1926851 -1.3111774 2 0
7.9926944 -13.291566 0.27072173 22 8
3.1193252 -5.1893773 -1.3978459 6 1
8.4829893 -14.123648 0.86343873 19 9
3.9834924 -6.6375146 -1.5047197 7 2
9.0514574 -15.088003 1.5393447 15 10
5.7910686 -9.6608572 -1.7839788 3 3
8.1917915 -13.676648 1.9574655 27 11
7.546977 -12.605089 -1.8039103 7 4
9.827034 -16.426279 3.0317004 4 12
7.6180224 -12.743925 -1.2989691 9 5
8.2395668 -13.78915 3.1223984 27 13
7.6790986 -12.861382 -0.78503942 11 6
8.3667822 -14.024277 3.7701795 12 14
7.6837716 -12.884531 -0.2618559 27 7
8.4986172 -14.262223 4.4485822 27 15
2.5037191 -4.2268195 -1.3163538 2 0
7.8273935 -13.22486 0.26824349 15 8
3.0830212 -5.2110276 -1.3978459 5 1
8.411622 -14.228946 0.86626482 30 9
3.9450452 -6.6786861 -1.5077728 7 2
9.9812002 -16.904211 1.717491 12 10
5.7285013 -9.7095585 -1.7855432 2 3
8.0396585 -13.637742 1.9438162 17 11
7.42453 -12.59932 -1.7956231 8 4
9.6830511 -16.44512 3.0226271 18 12
7.49755 -12.743565 -1.2935655 8 5
7.5334682 -12.819972 -0.77928245 11 6
8.3209686 -14.171411 3.7940245 25 14
7.6614513 -13.053407 -0.26419452 19 7
8.4369574 -14.386195 4.46877 36 15
2.4731765 -4.2425265 -1.3158361 2 0
7.686564 -13.196241 0.26656806 16 8
3.0455861 -5.2307396 -1.397396 4 1
8.5209894 -14.646404 0.88803655 8 9
3.9072037 -6.7213407 -1.5112073 8 2
9.7338152 -16.751257 1.6950049 10 10
5.6635523 -9.7544374 -1.7864817 2 3
7.891458 -13.602532 1.9308981 19 11
6.7468486 -11.634245 -1.6513296 3 4
8.6568613 -14.93988 2.7347875 15 12
6.739572 -11.63573 -1.1764282 7 5
7.7610493 -13.410081 3.0117292 9 13
7.4717817 -12.920665 -0.78221327 15 6
8.1950569 -14.177107 3.7805276 6 14
7.5941401 -13.148133 -0.26503226 14 7
8.2996225 -14.381165 4.4490995 27 15
2.4550328 -4.279798 -1.3220477 2 0
7.5219598 -13.11815 0.2639502 16 8
3.0099633 -5.2535653 -1.3978459 5 1
7.6121407 -13.291545 0.80272895 3 9
3.869164 -6.7614112 -1.5142603 9 2
9.4593868 -16.543793 1.6672894 11 10
5.6166296 -9.8270636 -1.7927393 2 3
8.2052565 -14.36786 2.0315621 10 11
6.6575923 -11.667269 -1.6493798 2 4
9.4015627 -16.482693 3.0054195 18 12
6.6927037 -11.743083 -1.1825291 2 5
7.3592687 -12.923127 2.8907564 19 13
7.3757553 -12.957337 -0.78137589 15 6
8.0997362 -14.240747 3.7823272 15 14
7.4843788 -13.169537 -0.26440397 11 7
8.2368479 -14.499474 4.4682522 25 15
2.4277446 -4.2997742 -1.323083 3 0
7.4744105 -13.248717 0.2655209 16 8
2.979877 -5.2841163 -1.4005452 5 1
7.3083639 -12.970256 0.7802245 13 9
3.8247557 -6.7933908 -1.5154052 10 2
9.3270159 -16.573069 1.663803 15 10
5.5459514 -9.8625917 -1.7921134 2 3
7.6856585 -13.678892 1.9265107 13 11
6.5789933 -11.714046 -1.6496235 3 4
8.4355545 -15.031979 2.7300947 7 12
6.5989714 -11.764039 -1.1800888 3 5
7.3421655 -13.099651 2.9189961 38 13
7.2734075 -12.987602 -0.78011984 13 6
7.9816751 -14.258141 3.772429 27 14
7.3643031 -13.166073 -0.26332191 11 7
8.1335363 -14.553251 4.467217 39 15
2.3948531 -4.3115516 -1.3215301 3 0
7.1821532 -12.935641 0.2582607 23 8
2.9485872 -5.3150148 -1.4032447 6 1
7.2247534 -13.028435 0.78074789 13 9
3.7898448 -6.8398743 -1.5199846 11 2
9.2535486 -16.714479 1.6714728 6 10
5.498776 -9.936408 -1.7986836 2 3
7.6586504 -13.850758 1.9433287 21 11
6.9847183 -12.642363 -1.7734429 5 4
8.3425894 -15.10634 2.7332232 7 12
6.5561495 -11.881343 -1.1872355 3 5
7.2685456 -13.183255 2.9262469 7 13
7.1636262 -12.998327 -0.77781707 13 6
7.7324796 -14.042097 3.7008948 9 14
7.2538919 -13.183877 -0.26265872 18 7
7.9923959 -14.532104 4.443923 27 15
2.3693261 -4.3366418 -1.3241183 2 0
7.0577846 -12.928782 0.25710884 13 8
2.9114096 -5.3354707 -1.4032447 6 1
7.1915712 -13.190274 0.78734219 17 9
3.7417419 -6.8685431 -1.5203662 9 2
9.1556921 -16.813667 1.6749589 8 10
5.4247012 -9.9702969 -1.7977451 3 3
7.6323471 -14.039496 1.9620966 36 11
9.320116 -17.165518 3.0936484 7 12
6.9615378 -12.826895 -1.2768316 8 5
7.0724492 -13.04211 2.8838873 19 13
7.0437894 -13.000086 -0.77488625 15 6
7.5897126 -14.013485 3.6792994 4 14
7.1302691 -13.176159 -0.26150686 13 7
9.2958584 -17.192329 5.2369447 15 15
2.3435647 -4.3615861 -1.3267065 2 0
6.9923282 -13.018804 0.25794658 22 8
2.8704047 -5.3487973 -1.4014452 5 1
7.5415792 -14.059092 0.83611929 15 9
3.7004681 -6.9042354 -1.5226558 9 2
7.2773113 -13.58921 1.348648 10 10
5.367897 -10.027889 -1.8014996 2 3
7.5019665 -14.026357 1.9530783 12 11
6.3631067 -11.907033 -1.6576669 2 4
9.0085373 -16.864405 3.0282588 1 12
6.3483415 -11.894383 -1.1795658 3 5
7.010788 -13.146603 2.8960991 7 13
6.9325891 -13.00543 -0.77237409 13 6
8.0715733 -15.154889 3.9640877 16 14
6.7994962 -12.77723 -0.25264105 28 7
9.2639008 -17.415527 5.2856026 12 15
2.3183358 -4.3859768 -1.3292947 2 0
6.90874 -13.081448 0.2582258 17 8
2.837569 -5.3751049 -1.4032447 6 1
7.5578566 -14.328688 0.84899396 19 9
3.6558383 -6.9368477 -1.5241823 9 2
8.9313574 -16.954168 1.6765277 8 10
5.3078799 -10.084347 -1.8049411 2 3
7.3900023 -14.052032 1.9494221 36 11
6.2558169 -11.905477 -1.6513296 2 4
8.7684155 -16.69429 2.9866471 1 12
6.2697787 -11.947234 -1.1804373 5 5
7.7521253 -14.784425 3.2448978 8 13
6.339098 -12.094709 -0.71564192 3 6
6.7523432 -12.894106 3.3603189 15 14
6.7537026 -12.907662 -0.25428155 19 7
8.1196384 -15.524837 4.6944599 9 15
2.2868917 -4.4024539 -1.3292947 2 0
6.8218551 -13.138234 0.25840032 20 8
2.8026233 -5.4021912 -1.4050443 5 1
6.9008908 -13.313166 0.78587681 16 9
3.6009996 -6.9499993 -1.5215111 12 2
8.781414 -16.962797 1.6711242 12 10
5.228322 -10.108035 -1.8024381 2 3
6.1816611 -11.966496 -1.6537671 1 4
8.7456741 -16.944431 3.0201242 2 12
6.1898727 -11.997797 -1.1811346 3 5
7.7071924 -14.951614 3.2697031 9 13
6.6785412 -12.96719 -0.76441908 13 6
6.646997 -12.911478 3.3526704 12 14
6.8134327 -13.24613 -0.26000595 14 7
7.8326135 -15.240616 4.5914502 8 15
2.2534661 -4.4131503 -1.3277417 2 0
6.6422405 -13.019275 0.25511929 15 8
2.7754645 -5.4424582 -1.4104432 6 1
6.7724161 -13.291615 0.78179461 14 9
3.5707693 -7.01408 -1.5299066 8 2
8.1892939 -16.093218 1.579785 2 10
5.1612082 -10.151332 -1.8036896 2 3
6.4394908 -12.681956 -1.7463878 5 4
7.5698853 -14.921059 2.6500001 20 12
6.1474147 -12.122458 -1.189153 4 5
9.2495031 -18.255449 3.9779863 7 13
6.5995793 -13.036663 -0.76577979 15 6
6.6341238 -13.110583 3.392262 12 14
6.4140296 -12.686615 -0.24813831 18 7
7.8854218 -15.610481 4.6861777 31 15
2.2200019 -4.4235945 -1.3261888 2 0
6.4772553 -12.912254 0.25215238 13 8
2.7339091 -5.4547324 -1.4086435 5 1
6.6630001 -13.299907 0.77959651 17 9
3.5308521 -7.0540237 -1.5333412 7 2
7.9822779 -15.961108 1.561308 11 10
5.0849261 -10.172093 -1.8011867 3 3
7.3619671 -14.740041 2.0230312 17 11
6.3428206 -12.710616 -1.7441941 5 4
7.1789432 -14.392439 2.547379 7 12
6.4021125 -12.846267 -1.2557399 7 5
7.4381776 -14.938259 3.243753 21 13
6.498229 -13.056251 -0.76431441 11 6
8.7646065 -17.625277 4.5444613 10 14
6.3778009 -12.836742 -0.25019771 20 7
2.1958237 -4.4507303 -1.3298123 2 0
6.3427463 -12.867478 0.25040713 17 8
2.6967163 -5.4732156 -1.4086435 5 1
6.5055933 -13.215288 0.77195543 13 9
3.4841201 -7.083787 -1.5344861 8 2
7.4400911 -15.133592 1.4753724 2 10
5.0137877 -10.207345 -1.8011867 2 3
7.3104839 -14.896218 2.0374119 23 11
5.9632807 -12.156455 -1.6625416 1 4
7.2695484 -14.832441 2.6162102 23 12
5.9455047 -12.136284 -1.1823548 2 5
8.4833813 -17.332045 3.7509234 4 13
6.3893747 -13.065413 -0.76222098 15 6
8.8096027 -18.022425 4.6312923 11 14
6.3947067 -13.093683 -0.25435138 23 7
7.1704564 -14.695105 4.381289 2 15
2.172282 -4.4815974 -1.334471 2 0
6.3160462 -13.036325 0.25285047 20 8
2.6584411 -5.4919086 -1.4086435 5 1
6.4285374 -13.286232 0.77352554 13 9
3.4289861 -7.0931969 -1.531433 8 2
7.9988804 -16.56123 1.6090693 8 10
4.9441943 -10.241235 -1.8011867 2 3
7.2158184 -14.959939 2.0393617 6 11
5.9351473 -12.315817 -1.6786286 2 4
6.9438181 -14.415308 2.5342386 19 12
5.9651799 -12.394726 -1.2034465 5 5
7.2229991 -15.021701 3.2399371 9 13
6.284719 -13.076199 -0.76033688 15 6
6.7931585 -14.14672 3.6230617 0 14
6.2252908 -12.975743 -0.25120994 13 7
6.9716959 -14.538025 4.3202076 8 15
2.150034 -4.513721 -1.3396474 3 0
6.2085576 -13.045794 0.25218728 19 8
2.6226716 -5.5133963 -1.4095433 5 1
6.3604894 -13.383101 0.77656096 11 9
3.3793826 -7.1169629 -1.531433 9 2
7.4357543 -15.666721 1.5172071 12 10
4.8869643 -10.305845 -1.8065054 3 3
7.1154518 -15.01892 2.0405805 4 11
5.7840614 -12.214195 -1.659373 3 4
6.7222023 -14.208089 2.4894984 18 12
5.7835722 -12.229712 -1.183575 6 5
7.6607094 -16.213676 3.4856989 10 13
6.1634378 -13.056541 -0.75667334 13 6
6.2634563 -13.27442 3.3886628 9 14
6.1521716 -13.050374 -0.25183821 15 7
7.5730038 -16.078882 4.7622709 9 15
2.1094661 -4.5093722 -1.3339534 2 0
6.1086025 -13.064204 0.25173351 9 8
2.5857673 -5.5351024 -1.4104432 5 1
6.2219248 -13.324742 0.77069938 14 9
3.3399911 -7.1593719 -1.5356308 10 2
7.2731733 -15.604481 1.5062256 1 10
4.8242102 -10.354987 -1.8093213 3 3
7.000493 -15.040009 2.0369244 15 11
5.9439058 -12.781673 -1.7307886 7 4
5.9975243 -12.902864 2.2535954 14 12
5.9984794 -12.916711 -1.2459785 9 5
7.5960803 -16.371836 3.5082145 8 13
6.0861874 -13.123558 -0.75813878 13 6
6.6048355 -14.25495 3.6271107 1 14
6.0525141 -13.07486 -0.25148919 21 7
7.4358029 -16.070446 4.7446709 14 15
2.0779161 -4.5218711 -1.3334358 2 0
5.9296441 -12.915711 0.24806851 16 8
2.5561585 -5.5702868 -1.4149421 5 1
6.2094922 -13.543962 0.78085256 16 9
3.2882936 -7.1789451 -1.5348676 14 2
