# .PCD v0.7 - Point Cloud Data file format
VERSION 0.7
FIELDS x y z intensity ring
SIZE 4 4 4 4 2
TYPE F F F F U
COUNT 1 1 1 1 1
WIDTH 293
HEIGHT 1
VIEWPOINT 0 0 0 1 0 0 0
POINTS 293
DATA ascii
2.1087635 1.2640698 -0.21510038 15 5
2.110673 1.2452674 -0.21440312 57 5
2.1244843 1.233503 -0.21492605 71 5
2.1384473 1.2212331 -0.21544899 69 5
2.1174588 1.1916661 -0.29833618 56 4
2.1399722 1.2023715 -0.21475175 76 5
2.1378837 1.1835849 -0.30004236 13 4
2.1413398 1.1835461 -0.2140545 71 5
2.1909075 1.2094457 -0.13115391 27 6
2.137377 1.1638851 -0.29882365 11 4
2.1495502 1.1685679 -0.2140545 64 5
2.194032 1.1912616 -0.1308399 68 6
2.1186829 1.1360282 -0.3807615 5 3
2.1386502 1.1448132 -0.2978487 11 4
2.1646838 1.1572912 -0.21475175 64 5
2.1846762 1.1665092 -0.12979318 10 6
2.1040399 1.1088655 -0.37669426 74 3
2.1413207 1.127081 -0.2971175 12 4
2.2018101 1.1554867 -0.13031654 9 6
2.1275151 1.1023283 -0.37951005 100 3
2.1544259 1.1148411 -0.2978487 10 4
2.1772873 1.1247449 -0.21440312 57 5
2.2169232 1.1437501 -0.13073523 9 6
2.1316381 1.0856566 -0.37888432 89 3
2.165695 1.1015743 -0.29833618 10 4
2.1744277 1.104105 -0.21335725 77 5
2.2301979 1.130955 -0.13104925 10 6
2.1184604 1.0617708 -0.46061292 52 2
2.1285675 1.0654424 -0.3770071 84 3
2.173522 1.0860487 -0.29833618 67 4
2.1927786 1.0942364 -0.21440312 69 5
2.1258214 1.0469553 -0.46061292 37 2
2.136137 1.0501835 -0.3770071 81 3
2.1881793 1.0743467 -0.29931113 11 4
2.2075207 1.0824089 -0.21510038 67 5
2.2334054 1.0931689 -0.13031654 80 6
2.3049715 1.1267023 -0.044782877 0 7
2.147398 1.0385548 -0.46366587 14 2
2.1505315 1.0386813 -0.37825859 72 3
2.1797175 1.0509031 -0.2971175 8 4
2.2152092 1.0665855 -0.21510038 67 5
2.2337835 1.0740871 -0.12989786 80 6
2.2859335 1.0971988 -0.044259302 44 7
2.1315424 1.0125874 -0.45870483 12 2
2.1870017 1.0356592 -0.2971175 9 4
2.2262042 1.052797 -0.21544899 61 5
2.2450237 1.0597812 -0.13010719 79 6
2.2844934 1.0769509 -0.044084776 43 7
2.1061687 0.98436159 -0.53673321 61 1
2.1438971 1.0001717 -0.45984969 11 2
2.1684051 1.0102233 -0.37888432 20 3
2.2013779 1.0237149 -0.29809242 9 4
2.2666812 1.0511965 -0.13094458 75 6
2.2810686 1.0559345 -0.043875352 7 7
2.1113873 0.96845251 -0.53628331 100 1
2.154397 0.98681533 -0.46061292 46 2
2.1558168 0.98564547 -0.37544277 77 3
2.2084711 1.0083215 -0.29809242 10 4
2.2279961 1.0158267 -0.21422882 8 5
2.2668741 1.0316404 -0.13052589 30 6
2.2974875 1.0441208 -0.044049874 7 7
2.1021042 0.94648898 -0.53223419 88 1
2.1560314 0.96895921 -0.4594681 94 2
2.1770632 0.97704154 -0.37794572 99 3
2.211834 0.99125528 -0.29760498 9 4
2.2388456 1.0014846 -0.21457744 8 5
2.2649024 1.0117177 -0.13000253 12 6
2.3083727 1.0296861 -0.044119682 7 7
2.0899029 0.92480856 -0.6123659 1 0
2.1068788 0.93100178 -0.5317843 81 1
2.1645391 0.95467687 -0.45984969 89 2
2.189254 0.9642086 -0.37888432 87 3
2.2150657 0.97419232 -0.2971175 13 4
2.2512558 0.98823261 -0.21510038 42 5
2.3136733 1.0127437 -0.044084776 8 7
2.0927644 0.90865695 -0.61133063 66 0
2.1276302 0.92247182 -0.53538352 58 1
2.163945 0.93642259 -0.45832324 69 2
2.2068124 0.95360154 -0.3807615 89 3
2.2199905 0.95791698 -0.29687375 74 4
2.2599301 0.97327995 -0.21527468 64 5
2.2843118 0.98236293 -0.13031654 84 6
2.3170121 0.99498844 -0.044014968 8 7
2.0848377 0.88796949 -0.60718954 27 0
2.3791802 1.0123544 0.045131925 11 8
2.1483645 0.91369826 -0.53898275 14 1
2.206141 0.93508828 -0.37951005 81 3
2.2375925 0.94703746 -0.29833618 90 4
2.2501516 0.95050132 -0.21370588 70 5
2.2984755 0.96949637 -0.13073523 79 6
2.3202164 0.97723597 -0.04394516 33 7
2.0998988 0.87711585 -0.60977769 16 0
2.356663 0.98339742 0.044573449 48 8
2.142101 0.89342648 -0.53583342 12 1
2.1858709 0.90989 -0.46023133 12 2
2.1980231 0.91359842 -0.3770071 84 3
2.267777 0.93934387 -0.21475175 63 5
2.3088791 0.95495301 -0.13094458 79 6
2.3308465 0.96213388 -0.044014968 65 7
2.1132731 0.86499405 -0.61184824 58 0
2.3745756 0.97146392 0.044782877 64 8
2.1448314 0.8766005 -0.53493357 12 1
2.208529 0.90128469 -0.46366587 10 2
2.211822 0.90082669 -0.37825859 81 3
2.2599514 0.9190495 -0.29955488 9 4
2.3063982 0.93465596 -0.13042122 83 6
2.3541901 0.9525888 -0.044329114 77 7
2.1210535 0.85093886 -0.6123659 100 0
2.3833225 0.95519084 0.044817779 23 8
2.1490903 0.86088079 -0.53448373 27 1
2.205807 0.88181394 -0.46175778 12 2
2.2290642 0.88975829 -0.38013577 40 3
2.2570918 0.89957601 -0.29833618 10 4
2.2882349 0.91013634 -0.21544899 9 5
2.3091545 0.9170571 -0.13021187 81 6
2.3552063 0.93391877 -0.0442244 35 7
2.1161544 0.83187073 -0.60926002 83 0
2.38621 0.9370681 0.044747971 8 8
2.1604903 0.84799135 -0.53583342 99 1
2.2009411 0.86209685 -0.4594681 13 2
2.2370615 0.87489426 -0.38044867 99 3
2.2614677 0.88307452 -0.29809242 10 4
2.2963891 0.89486384 -0.21562332 8 5
2.3248069 0.90453601 -0.13073523 66 6
2.3504846 0.91311002 -0.044014968 7 7
2.1146996 0.81429923 -0.60718954 83 0
2.4057584 0.92541182 0.044992302 9 8
2.1718142 0.83498657 -0.53718311 100 1
2.2069063 0.84671038 -0.4594681 12 2
2.2412701 0.85854864 -0.38013577 84 3
2.2751462 0.86970448 -0.29906741 12 4
2.2951345 0.8759684 -0.21492605 8 5
2.3403966 0.89183974 -0.13125859 48 6
2.3681731 0.90053147 -0.0442244 8 7
2.124088 0.80050838 -0.60822481 86 0
2.4065461 0.90647924 0.044887587 10 8
2.172262 0.81736529 -0.53583342 88 1
2.231142 0.83818698 -0.46328428 71 2
2.2362583 0.83832812 -0.37825859 87 3
2.2774439 0.85240805 -0.2985799 70 4
2.2993279 0.85922658 -0.21475175 8 5
2.3411047 0.87297595 -0.13094458 86 6
2.3669062 0.88118583 -0.044084776 8 7
2.1296248 0.78565997 -0.60822481 83 0
2.4129713 0.8892352 0.044887587 9 8
2.1779153 0.80218011 -0.53583342 84 1
2.4779749 0.91171736 0.13837628 23 9
2.2389255 0.82287705 -0.46366587 12 2
2.2420564 0.82269561 -0.37825859 87 3
2.2963872 0.8412677 -0.30028611 90 4
2.3166451 0.84685522 -0.21579762 20 5
2.3340087 0.85181749 -0.13021187 81 6
2.1641309 0.78126884 -0.61650699 14 0
2.4341691 0.87779588 0.045166828 10 8
2.1797957 0.78563422 -0.53493357 86 1
2.2353787 0.80390447 -0.46175778 12 2
2.255182 0.8096931 -0.37951005 89 3
2.292861 0.82186633 -0.29906741 81 4
2.3225007 0.83066142 -0.21579762 57 5
2.3474221 0.83818877 -0.13063055 81 6
2.4053497 0.8574518 -0.044573449 83 7
2.1622455 0.7635693 -0.61443645 14 0
2.4477818 0.86344051 0.045306448 11 8
2.1944163 0.77363801 -0.53718311 35 1
2.2390847 0.78762758 -0.46137619 11 2
2.268235 0.79654723 -0.3807615 84 3
2.3022895 0.80715257 -0.29955488 86 4
2.3281012 0.81483334 -0.21579762 7 5
2.3645303 0.82573104 -0.13125859 81 6
2.3923943 0.83405656 -0.0442244 71 7
2.1510892 0.74278045 -0.60977769 13 0
2.4384794 0.84154123 0.045027211 54 8
2.2145026 0.76337993 -0.54078233 12 1
2.2443936 0.77236938 -0.46137619 12 2
2.3116236 0.79234833 -0.30004236 32 4
2.3337326 0.79856139 -0.21579762 7 5
2.3663156 0.80832696 -0.13104925 81 6
2.3962662 0.81668913 -0.044189494 68 7
2.1597559 0.72935742 -0.61081296 14 0
2.2104144 0.7451759 -0.53853279 81 1
2.253453 0.75793242 -0.46213943 10 2
2.2752566 0.76394016 -0.38013577 9 3
2.3133345 0.77492982 -0.29955488 9 4
2.3354719 0.78098571 -0.21544899 9 5
2.3794789 0.79431695 -0.13146794 54 6
2.409498 0.80246878 -0.044329114 76 7
2.1667545 0.71448892 -0.61133063 66 0
2.202733 0.72507435 -0.53538352 100 1
2.2661495 0.74463439 -0.46366587 10 2
2.2862964 0.74948525 -0.3810744 12 3
2.3318946 0.76308131 -0.30126104 10 4
2.3465493 0.76651686 -0.21597193 8 5
2.3756073 0.77417523 -0.13094458 9 6
2.4207461 0.78748351 -0.044433825 30 7
2.1790452 0.70171338 -0.61340117 100 0
2.204031 0.70848596 -0.53448373 93 1
2.2770286 0.73019773 -0.46481073 9 2
2.2783034 0.7292912 -0.37888432 71 3
2.316365 0.74013793 -0.2985799 70 4
2.3519742 0.74970573 -0.21597193 9 5
2.3809545 0.75757039 -0.13094458 9 6
2.4223733 0.76935256 -0.044364017 7 7
2.1838911 0.68648368 -0.61340117 86 0
2.2256575 0.69833231 -0.53853279 81 1
2.2764499 0.71252388 -0.46366587 84 2
2.3021941 0.71925855 -0.38201302 100 3
2.329056 0.72631258 -0.29955488 97 4
2.3628583 0.73504305 -0.21649487 7 5
2.3861854 0.74092972 -0.13094458 51 6
2.4238656 0.75123847 -0.044294208 45 7
2.184936 0.67008859 -0.6123659 35 0
2.237932 0.68505996 -0.54033244 77 1
2.268225 0.69260049 -0.46099457 85 2
2.3109386 0.70432055 -0.38263875 95 3
2.3454647 0.71350145 -0.30101728 86 4
2.3622122 0.71679479 -0.21597193 8 5
2.400857 0.72714877 -0.13146794 75 6
2.1951139 0.65647817 -0.61391884 9 0
2.2370582 0.66774631 -0.53898275 81 1
2.2968636 0.68254411 -0.37951005 84 3
2.3465822 0.6959818 -0.30052981 83 4
2.363338 0.69915563 -0.21562332 63 5
2.413537 0.71263224 -0.13188663 92 6
2.2052073 0.64275903 -0.61547172 10 0
2.2304382 0.64884645 -0.53628331 84 1
2.3059566 0.66906947 -0.46671882 10 2
2.3110602 0.66923857 -0.3810744 34 3
2.3590121 0.68178612 -0.30150479 78 4
2.37199 0.68374306 -0.21597193 7 5
2.4088566 0.69300431 -0.13136327 79 6
2.2170744 0.62945974 -0.61754227 10 0
2.249913 0.63751036 -0.53988254 51 1
2.2992358 0.64975113 -0.46442911 11 2
2.3118737 0.65201563 -0.38044867 8 3
2.3598928 0.6642248 -0.30101728 74 4
2.3939698 0.67201298 -0.21754073 7 5
2.4117124 0.67563158 -0.13125859 73 6
2.2251389 0.61499554 -0.61857754 10 0
2.25243 0.62126935 -0.53943259 88 1
2.3131804 0.63628703 -0.46633717 12 2
2.3373232 0.64161181 -0.38389024 9 3
2.3683016 0.64878249 -0.30150479 26 4
2.406291 0.65738386 -0.21823798 7 5
2.2181845 0.59643638 -0.61547172 10 0
2.2623591 0.60704434 -0.54078233 81 1
2.3061869 0.6170789 -0.46404752 12 2
2.3379281 0.62426054 -0.38326448 10 3
2.374691 0.63274497 -0.30174851 67 4
2.3992682 0.63749886 -0.2171921 7 5
2.2279019 0.58240074 -0.6170246 34 0
2.2703135 0.59221798 -0.54168218 79 1
2.3199389 0.60343462 -0.46595559 52 2
2.3384054 0.60693097 -0.38263875 9 3
2.3867376 0.61814195 -0.3027235 79 4
2.4075181 0.62173086 -0.21754073 8 5
2.2356579 0.56778497 -0.61805987 77 0
2.2630582 0.57348263 -0.53898275 81 1
2.322192 0.58674169 -0.46557397 85 2
2.3330085 0.58817542 -0.3810744 68 3
2.3967702 0.60291588 -0.30345467 78 4
2.4156649 0.6058774 -0.21788934 9 5
2.2745759 0.55953157 -0.54078233 79 1
2.3395786 0.57379007 -0.46824533 93 2
2.3581641 0.57703942 -0.38451597 86 3
2.3893502 0.58334488 -0.30199227 78 4
2.4217722 0.58946824 -0.21806367 44 5
2.282218 0.54454297 -0.54168218 81 1
2.3320675 0.55471677 -0.46595559 72 2
2.3659792 0.5614745 -0.3851417 41 3
2.3895009 0.56573516 -0.30150479 76 4
2.2973554 0.53123206 -0.54438156 81 1
2.3698411 0.54494315 -0.3851417 7 3
2.4089673 0.55216986 -0.30345467 73 4
2.3453336 0.52338564 -0.46710047 9 2
2.3621106 0.5253976 -0.38326448 9 3
2.4205155 0.53705859 -0.30442965 74 4
2.2913032 0.49581668 -0.54123223 23 1
2.3605332 0.50907266 -0.46939012 9 2
2.3657207 0.50889528 -0.38326448 9 3
2.4280875 0.52098119 -0.30491713 72 4
2.3080614 0.48259908 -0.54438156 77 1
2.3717179 0.49418259 -0.47091663 12 2
2.3924246 0.4971903 -0.38701892 10 3
2.3520133 0.47296709 -0.46633717 71 2
2.3958375 0.48047477 -0.38701892 10 3
2.3687496 0.45915177 -0.46900854 81 2
2.4049516 0.46486273 -0.38795751 21 3
2.3738272 0.44296369 -0.46939012 79 2
2.3906598 0.44480962 -0.3851417 71 3
2.3807268 0.42707381 -0.47015342 81 2
2.4034297 0.42984772 -0.38670605 52 3
2.3875198 0.41111025 -0.47091663 81 2
2.3845205 0.39347211 -0.46977177 60 2
