# .PCD v0.7 - Point Cloud Data file format
VERSION 0.7
FIELDS x y z intensity ring
SIZE 4 4 4 4 2
TYPE F F F F U
COUNT 1 1 1 1 1
WIDTH 256
HEIGHT 1
VIEWPOINT 0 0 0 1 0 0 0
POINTS 256
DATA ascii
2.6578133 -0.72709543 -0.24107277 1 5
2.6450005 -0.74347609 -0.24037553 66 5
2.6013296 -0.75132698 -0.2368893 56 5
2.6723878 -0.77387214 -0.14580798 1 6
2.5825157 -0.76595676 -0.23566914 60 5
2.6094849 -0.77544218 -0.14266783 59 6
2.5929058 -0.78679639 -0.33270332 49 4
2.5713873 -0.78222775 -0.23514619 64 5
2.5810819 -0.78665352 -0.14141177 11 6
2.5456491 -0.7919066 -0.32734108 7 4
2.5582552 -0.79778755 -0.23444894 58 5
2.5564632 -0.79869771 -0.14036505 7 6
2.5570805 -0.81508511 -0.32953474 6 4
2.5470207 -0.8153078 -0.1401557 8 6
2.5449088 -0.82934701 -0.42393744 57 3
2.5400052 -0.82922041 -0.32807231 32 4
2.5242882 -0.82555217 -0.2323572 57 5
2.5412667 -0.83306926 -0.1401557 8 6
2.5242133 -0.84165174 -0.42143452 64 3
2.536037 -0.84756184 -0.32831606 72 4
2.5033486 -0.83809459 -0.23096271 67 5
2.5222821 -0.8459022 -0.139423 8 6
2.5070589 -0.85542595 -0.4195573 31 3
2.5169101 -0.86074942 -0.32660985 68 4
2.5049763 -0.85813361 -0.23165996 60 5
2.503653 -0.86109936 -0.046213973 29 7
2.5083785 -0.87400073 -0.51632917 48 2
2.4952784 -0.87139022 -0.41861868 6 3
2.4989243 -0.87560052 -0.23165996 58 5
2.4987652 -0.87750393 -0.13879497 76 6
2.4919209 -0.87656623 -0.046109259 61 7
2.4891155 -0.88731319 -0.51365787 65 2
2.4798324 -0.88546789 -0.41705433 7 3
2.4784791 -0.88644803 -0.32319754 7 4
2.4814966 -0.88899308 -0.2306141 64 5
2.485059 -0.89222741 -0.13837628 76 6
2.478214 -0.89123482 -0.045969639 61 7
2.4737942 -0.90087652 -0.51174974 77 2
2.4607575 -0.89758849 -0.41486427 8 3
2.4759588 -0.90509236 -0.32368499 7 4
2.4696171 -0.90424013 -0.23009115 48 5
2.4639273 -0.9036203 -0.1375389 30 6
2.4534924 -0.91098362 -0.60421854 9 1
2.4637647 -0.91675544 -0.51098651 77 2
2.4470272 -0.91198635 -0.41361275 64 3
2.4695797 -0.92235559 -0.32368499 7 4
2.4501817 -0.91657281 -0.22887097 7 5
2.4407263 -0.91449273 -0.13659686 8 6
2.443064 -0.91731417 -0.045550782 8 7
2.4341571 -0.92367738 -0.60106921 34 1
2.4517989 -0.93184078 -0.50984168 79 2
2.4385924 -0.92877042 -0.41329992 79 3
2.4593713 -0.93815899 -0.32319754 7 4
2.45489 -0.93792218 -0.22991684 66 5
2.4266589 -0.92907822 -0.13617818 9 6
2.4291317 -0.93148363 -0.045411162 7 7
2.4353533 -0.94314468 0.045585688 2 8
2.4094784 -0.93360758 -0.59657019 6 1
2.4359176 -0.94580847 -0.50793356 75 2
2.424685 -0.94290835 -0.41204843 80 3
2.4324143 -0.94738066 -0.32051641 10 4
2.4241521 -0.94562483 -0.22765081 64 5
2.4188454 -0.94696128 -0.04534135 7 7
2.4400682 -0.96362907 -0.70295256 1 0
2.4251573 -0.95822972 0.045515876 57 8
2.4047139 -0.9511227 -0.59702009 7 1
2.4148211 -0.95658284 -0.50488061 67 2
2.4200466 -0.96011913 -0.41236129 71 3
2.4109838 -0.95847225 -0.31856647 22 4
2.3952785 -0.95368135 -0.22555906 60 5
2.4247496 -0.96688652 -0.1368062 80 6
2.3973198 -0.9578889 -0.045062114 7 7
2.3779025 -0.95783949 -0.68690574 53 0
2.4017174 -0.96840686 0.045201734 61 8
2.3909554 -0.96455276 -0.59522051 7 1
2.4059606 -0.97402561 -0.41110981 72 3
2.398885 -0.97262323 -0.31783527 8 4
2.3830247 -0.96813047 -0.22503611 71 5
2.3920407 -0.97325289 -0.13534079 79 6
2.3888924 -0.97343016 -0.045027211 29 7
2.3783052 -0.97735423 -0.68897635 75 0
2.3911994 -0.98362875 0.045131925 84 8
2.3751528 -0.97751272 -0.59297097 6 1
2.4012299 -0.99020582 -0.50488061 7 2
2.3899732 -0.98702836 -0.40954545 34 3
2.399374 -0.99238163 -0.31881022 8 4
2.3890922 -0.99008298 -0.22625631 15 5
2.3814983 -0.98839718 -0.13513145 75 6
2.3875782 -0.9923864 -0.045131925 61 7
2.369642 -0.99318713 -0.68845868 73 0
2.3750544 -0.9964304 0.044957399 78 8
2.3700674 -0.99482459 -0.59342086 7 1
2.3870192 -1.0039008 -0.50335413 7 2
2.3629992 -0.99525517 -0.40610394 86 3
2.385071 -1.0060221 -0.31783527 8 4
2.3676145 -1.0001196 -0.22486182 7 5
2.3543077 -0.99643588 -0.13398007 73 6
2.3573215 -1.0074285 -0.68690574 62 0
2.3627007 -1.010215 0.044852685 74 8
2.3415661 -1.0021455 -0.58802205 61 1
2.3729129 -1.0170318 -0.50182766 58 2
2.3598001 -1.0128745 -0.40672967 72 3
2.3597536 -1.0148059 -0.31539789 7 4
2.3495953 -1.0118955 -0.22381593 7 5
2.3383012 -1.0084833 -0.13345671 69 6
2.3514616 -1.016107 -0.044713065 8 7
2.3397822 -1.0188234 -0.68379998 68 0
2.3329043 -1.0172819 -0.58757216 86 1
2.3503525 -1.025867 0.13439874 1 9
2.3423669 -1.0233551 -0.49686664 85 2
2.3526716 -1.0293242 -0.40672967 67 3
2.3527913 -1.0308448 -0.31539789 9 4
2.3408289 -1.0270647 -0.22364163 7 5
2.3513157 -1.0336242 -0.13460809 88 6
2.3206983 -1.021615 -0.044259302 8 7
2.3131888 -1.0265135 -0.67810595 72 0
2.330271 -1.0345808 0.044503637 8 8
2.3310878 -1.0359176 -0.58892184 37 1
2.3469656 -1.0434643 0.13460809 69 9
2.3461094 -1.0440646 -0.49915636 32 2
2.3257632 -1.0364693 -0.4032881 73 3
2.3400996 -1.0448171 -0.31466666 78 4
2.3190508 -1.0368758 -0.22224714 10 5
2.3314655 -1.0438917 -0.13387538 77 6
2.3189831 -1.040247 -0.044364017 7 7
2.3059661 -1.0426375 -0.67810595 45 0
2.3173428 -1.0487559 0.044398922 9 8
2.3237989 -1.0521665 -0.58892184 7 1
2.3285236 -1.0552852 0.13398007 51 9
2.3278503 -1.0559598 -0.49686664 9 2
2.3164885 -1.0522687 -0.40297523 71 3
2.3164861 -1.0537311 -0.31247303 83 4
2.316668 -1.0572317 -0.13345671 77 6
2.3116643 -1.056411 -0.044364017 10 7
2.2916124 -1.055478 -0.6760354 42 0
2.3027003 -1.0615594 0.044259302 10 8
2.3022404 -1.0618346 -0.58532268 7 1
2.3210998 -1.0715156 0.13398007 47 9
2.3150754 -1.069715 -0.49572179 7 2
2.3019147 -1.0650969 -0.40172374 68 3
2.3054712 -1.0682082 -0.31198555 68 4
2.305968 -1.0703946 -0.22242144 34 5
2.2947416 -1.0666443 -0.13261932 77 6
2.2824388 -1.0706301 -0.67551774 75 0
2.277132 -1.0691109 0.043910254 48 8
2.2806604 -1.0712532 -0.58172345 8 1
2.3039982 -1.0841792 -0.49495855 7 2
2.3051386 -1.0876657 -0.31296051 19 4
2.2822275 -1.078804 -0.22085266 6 5
2.2764075 -1.0775115 -0.1319913 67 6
2.2822335 -1.0817322 -0.044084776 77 7
2.2661927 -1.0823753 -0.67292953 73 0
2.2768297 -1.088432 0.044049874 70 8
2.271368 -1.0863081 -0.5812735 78 1
2.2804384 -1.092603 -0.49152401 9 2
2.2832572 -1.0954238 -0.40109801 8 3
2.2724388 -1.0916976 -0.30954817 7 4
2.2764359 -1.0955745 -0.22102696 7 5
2.2652311 -1.0916433 -0.13178195 62 6
2.2584171 -1.089817 -0.043770637 70 7
2.2429447 -1.0905671 -0.66827077 64 0
2.2709734 -1.1051756 0.044084776 60 8
2.2567205 -1.0987265 -0.57947391 86 1
2.2692258 -1.1067754 -0.49076074 10 2
2.261354 -1.1044022 -0.39859506 43 3
2.2610021 -1.1061859 -0.30906066 9 4
2.2526288 -1.1035514 -0.21945816 6 5
2.2350836 -1.1065893 -0.66827077 64 0
2.2453084 -1.1131158 -0.57857406 65 1
2.2579269 -1.1208447 -0.48999751 64 2
2.2445495 -1.1161579 -0.39703071 91 3
2.2656634 -1.1281372 -0.31076685 74 4
2.2341714 -1.1139168 -0.21841228 6 5
2.2477856 -1.1226646 -0.13167727 8 6
2.2338424 -1.1171623 -0.043596111 9 7
2.2307541 -1.1239045 -0.6693061 15 0
2.2218239 -1.1208642 -0.574525 73 1
2.2375832 -1.1307749 -0.4873262 81 2
2.2278898 -1.127341 -0.39546639 61 3
2.2435663 -1.1367494 -0.30881694 58 4
2.2296968 -1.1316791 -0.21876092 7 5
2.2345521 -1.1356151 -0.13136327 67 6
2.2349 -1.1372648 -0.043770637 9 7
2.2005048 -1.1279944 -0.66257679 8 0
2.2070098 -1.1327885 -0.57272536 73 1
2.2094274 -1.137442 -0.39358914 64 3
2.2196953 -1.1441987 -0.30662328 77 4
2.2111199 -1.1417329 -0.21771504 36 5
2.2070537 -1.1410973 -0.13021187 78 6
2.204567 -1.1495817 -0.66620022 8 0
2.2007754 -1.1490706 -0.57317531 65 1
2.2076595 -1.1546271 -0.48427325 7 2
2.2046213 -1.1559799 -0.30564833 81 4
2.2015331 -1.1558307 -0.21754073 59 5
2.2008014 -1.1574072 -0.13031654 72 6
2.1760077 -1.1540824 -0.65998858 7 0
2.1926997 -1.1644068 -0.57317531 61 1
2.199749 -1.1696274 -0.48427325 7 2
2.1935349 -1.1677967 -0.39358914 8 3
2.1964974 -1.1713427 -0.30564833 83 4
2.1828651 -1.1655414 -0.21649487 8 5
2.1981561 -1.1751856 -0.13063055 74 6
2.1698022 -1.1697839 -0.66050619 8 0
2.1761489 -1.1746765 -0.57092577 71 1
2.1949837 -1.1868232 -0.48503649 7 2
2.1714313 -1.1755583 -0.39108619 9 3
2.184983 -1.1843747 -0.30516088 76 4
2.1729238 -1.1798016 -0.21632054 7 5
2.1793699 -1.1847793 -0.13000253 74 6
2.1565006 -1.1821176 -0.65895331 48 0
2.1576447 -1.1842145 -0.56822634 71 1
2.1728816 -1.1945516 -0.48198354 58 2
2.1527886 -1.1849738 -0.389209 8 3
2.1714456 -1.1967251 -0.30442965 58 4
2.1576576 -1.1910909 -0.21562332 7 5
2.1414452 -1.1933821 -0.65688276 46 0
2.1391146 -1.1935517 -0.56552696 71 1
2.1542068 -1.2039453 -0.47969386 70 2
2.1444635 -1.1999742 -0.389209 9 3
2.1543789 -1.2070042 -0.30321094 77 4
2.1492898 -1.2061251 -0.21562332 7 5
2.1307299 -1.2084563 -0.56552696 71 1
2.138921 -1.2150761 -0.47816736 79 2
2.1480534 -1.2217522 -0.39139909 13 3
2.1424501 -1.2200505 -0.3027235 74 4
2.1373558 -1.2191261 -0.21527468 7 5
2.1222415 -1.223302 -0.56552696 71 1
2.1252851 -1.227034 -0.4770225 79 2
2.134341 -1.2337527 -0.39046046 36 3
2.1338804 -1.2349777 -0.3027235 76 4
2.1201739 -1.2290218 -0.21440312 57 5
2.120054 -1.2438283 -0.47778577 86 2
2.1052368 -1.2366171 -0.38670605 8 3
2.1252067 -1.2498448 -0.3027235 78 4
2.0815103 -1.2388605 -0.5592283 8 1
2.1062598 -1.2555828 -0.47664091 51 2
2.0931599 -1.2492596 -0.38608032 8 3
2.1093931 -1.2609462 -0.30174851 78 4
2.0825965 -1.2597754 -0.56192774 8 1
2.0940843 -1.2682225 -0.47587767 9 2
2.0909224 -1.2683036 -0.38733178 8 3
2.0869648 -1.2673982 -0.29979861 76 4
2.0621288 -1.2671421 -0.55877846 10 1
2.0615478 -1.2687685 -0.47053501 60 2
2.0786536 -1.2807976 -0.38670605 8 3
2.0499258 -1.2794439 -0.55787861 59 1
2.0611885 -1.2879735 -0.4724431 76 2
2.0598395 -1.2886306 -0.38482881 9 3
2.0477538 -1.2975398 -0.55967826 28 1
2.0554619 -1.3044356 -0.47320631 75 2
2.0441239 -1.2987423 -0.38357735 11 3
2.0397043 -1.3144996 -0.47167987 75 2
2.0333471 -1.31191 -0.38326448 61 3
2.0271921 -1.3265573 -0.47091663 73 2
2.0047998 -1.3319857 -0.46786368 75 2
1.9889414 -1.3415579 -0.46633717 75 2
