# .PCD v0.7 - Point Cloud Data file format
VERSION 0.7
FIELDS x y z intensity ring
SIZE 4 4 4 4 2
TYPE F F F F U
COUNT 1 1 1 1 1
WIDTH 213
HEIGHT 1
VIEWPOINT 0 0 0 1 0 0 0
POINTS 213
DATA ascii
2.8879783 0.5331707 -0.25693512 10 5
2.9049563 0.51326853 -0.15460044 4 6
2.8991556 0.49295729 -0.25728375 70 5
2.9026086 0.47220159 -0.25728375 80 5
2.9158647 0.47279119 -0.15480977 24 6
2.9419482 0.45964476 -0.36560807 74 4
2.9196155 0.45406786 -0.25850391 15 5
2.9190948 0.45242169 -0.15480977 16 6
2.9274144 0.43646029 -0.36341441 97 4
2.9207437 0.43338165 -0.25832963 18 5
2.9162545 0.43115517 -0.15449576 15 6
2.9264596 0.41545588 -0.36292693 74 4
2.9296162 0.41381642 -0.25885254 21 5
2.9191935 0.41078541 -0.15449576 20 6
2.9617262 0.40096834 -0.47337076 1 3
2.921488 0.39344412 -0.36195198 74 4
2.9482315 0.39547426 -0.26024702 113 5
2.9259493 0.39092594 -0.15470509 18 6
2.9370885 0.37625045 -0.46899059 68 3
2.9320405 0.37404358 -0.36292693 74 4
2.9054608 0.36910692 -0.25623786 70 5
2.9385793 0.37122995 -0.15522847 16 6
2.9463265 0.37064153 -0.051833645 19 7
2.9357219 0.35526052 -0.46836486 10 3
2.9464054 0.35498825 -0.36438939 78 4
2.9179192 0.34949121 -0.25710943 86 5
2.9192841 0.34810445 -0.15407708 64 6
2.9283168 0.33363995 -0.46680051 11 3
2.9448664 0.33396381 -0.36390188 67 4
2.9341471 0.33067226 -0.25832963 101 5
2.9395068 0.32971781 -0.15501912 98 6
2.9412773 0.32835719 -0.051659122 114 7
2.9534199 0.31719384 -0.57738805 61 2
2.9345028 0.31360814 -0.46742624 11 3
2.9550223 0.31423628 -0.36487687 12 4
2.9482722 0.31143722 -0.25937548 85 5
2.9340742 0.29441118 -0.57319027 100 2
2.9484146 0.29429099 -0.46930346 10 3
2.9452918 0.29242194 -0.36341441 13 4
2.9523573 0.29104227 -0.2595498 21 5
2.9378605 0.2880601 -0.15470509 19 6
2.9276633 0.28551278 -0.05134498 16 7
2.9419224 0.27446884 -0.5743351 96 2
2.952364 0.27388385 -0.46961632 17 3
2.9512622 0.27170238 -0.36390188 97 4
2.9344764 0.26860768 -0.25780669 76 5
2.9417892 0.26772401 -0.15480977 19 6
2.9415808 0.26563469 -0.051554412 19 7
2.9496346 0.25442979 -0.57547992 82 2
2.9345665 0.25106633 -0.46648762 22 3
2.9491313 0.25075713 -0.36341441 104 4
2.918412 0.24660617 -0.25623786 68 5
2.9655228 0.24850075 -0.15596117 41 6
2.9513347 0.24575585 -0.051694028 20 7
2.9840269 0.23851742 0.052252505 1 8
2.9313407 0.23378988 -0.67890227 64 1
2.9382169 0.23072773 -0.46680051 11 3
2.95081 0.2301622 -0.36341441 74 4
2.9359937 0.2269446 -0.25763237 77 5
2.9353225 0.22534676 -0.15428641 78 6
2.9390211 0.22408292 -0.051449694 17 7
2.9477255 0.21491636 0.051589314 54 8
2.9348452 0.21346234 -0.67935222 100 1
2.966644 0.21369193 -0.57815129 11 2
2.9476378 0.21077165 -0.46805197 10 3
2.9602656 0.21011683 -0.36438939 27 4
2.9414816 0.20672131 -0.25798097 76 5
2.9507713 0.20582169 -0.15501912 104 6
2.9664478 0.20535451 -0.05190346 30 7
2.9491541 0.19433211 0.051589314 67 8
2.9459867 0.19360702 -0.6816017 99 1
2.9563088 0.19221279 -0.57586157 15 2
2.9569225 0.19069806 -0.46930346 11 3
2.9477928 0.18855953 -0.36268318 11 4
2.9468298 0.18643105 -0.25832963 76 5
2.9501429 0.18508992 -0.15491444 93 6
2.9338799 0.18252751 -0.051310074 81 7
2.9723978 0.17503145 0.051973268 87 8
2.9531026 0.17337808 -0.68295145 94 1
2.9595387 0.17168289 -0.57624322 100 2
2.9542372 0.16982345 -0.4686777 12 3
2.9609287 0.16865279 -0.36414564 11 4
2.9480596 0.16585517 -0.25832963 18 5
2.9593399 0.1649341 -0.15533313 93 6
2.9330862 0.1619305 -0.051275171 16 7
2.9304879 0.15306894 -0.78629225 59 0
2.9464564 0.15235619 -0.68115181 91 1
2.9587045 0.15091722 -0.57586157 100 2
2.9533782 0.14909527 -0.46836486 12 3
2.9699645 0.14837368 -0.36512056 12 4
2.9491456 0.14526978 -0.25832963 19 5
2.9421344 0.1418363 -0.051414788 11 7
2.9430647 0.13312894 -0.78939813 12 0
2.9705563 0.13333356 0.05190346 16 8
2.9474483 0.13178094 -0.68115181 86 1
2.9636085 0.13043195 -0.57662481 96 2
2.9385591 0.12778799 -0.46586189 77 3
2.9669614 0.12746681 -0.36463311 14 4
2.9600408 0.12509796 -0.25920117 76 5
2.9374082 0.1226008 -0.15407708 62 6
2.9710252 0.1224457 -0.05190346 16 7
2.947783 0.11272687 -0.79043341 10 0
2.9754114 0.11274479 0.051973268 18 8
2.9424543 0.1109803 -0.67980206 94 1
2.9722946 0.11002797 -0.57815129 100 2
2.9571457 0.10791684 -0.4686777 86 3
2.9737303 0.10696307 -0.36536431 101 4
2.9429219 0.10379928 -0.25763237 76 5
2.9601488 0.10285516 -0.15522847 98 6
2.9738059 0.10176944 -0.051938362 20 7
2.9581525 0.092447855 -0.79302156 11 0
2.9841208 0.092216812 0.052112885 18 8
2.9665585 0.090119436 0.15554248 141 9
2.9631786 0.088980123 -0.57624322 70 2
2.9783731 0.086314917 -0.36585179 13 4
2.9515412 0.083475187 -0.25832963 73 5
2.9568019 0.082074672 -0.15501912 89 6
2.9364641 0.07997153 -0.051275171 61 7
2.9355507 0.071231455 -0.78680992 16 0
2.986691 0.071427859 0.052147791 17 8
2.9456654 0.069933735 -0.68025202 64 1
2.9637275 0.068292484 -0.57624322 18 2
2.9682388 0.066841558 -0.47024205 12 3
2.9729493 0.065390319 -0.36512056 11 4
2.9520521 0.062867507 -0.25832963 76 5
2.9672871 0.061637692 -0.15554248 109 6
2.9549444 0.059833549 -0.051589314 101 7
2.9340448 0.05070233 -0.78629225 59 0
2.9731212 0.050339539 0.05190346 24 8
2.9558241 0.049530666 -0.68250149 100 1
2.9719841 0.047726192 -0.57776964 100 2
2.9646828 0.046056341 -0.46961632 12 3
2.9852426 0.0448124 -0.36658302 12 4
2.9743328 0.042570416 -0.26024702 17 5
2.9636507 0.040865548 -0.15533313 97 6
2.9632881 0.039308786 -0.051728934 114 7
2.9381905 0.030257383 -0.78732753 11 0
2.9654016 0.029502435 0.051763836 53 8
2.9483035 0.028817732 -0.68070191 91 1
2.9702818 0.026958849 -0.57738805 100 2
2.9669075 0.025374727 -0.46992919 14 3
2.9815128 0.023938512 -0.36609554 12 4
2.9586186 0.021689193 -0.25885254 14 5
2.9538779 0.020107808 -0.15480977 89 6
2.971489 0.01867185 -0.05186855 105 7
2.9523301 0.0082448767 -0.6816017 91 1
2.9743237 0.0062285224 -0.57815129 100 2
2.9571354 0.0046442645 -0.46836486 77 3
2.9696965 0.0031091531 -0.36463311 11 4
2.958698 0.0010336117 -0.25885254 12 5
2.9499519 -0.0005148637 -0.15460044 24 6
2.9495502 -0.0020591747 -0.051484596 20 7
2.9581618 -0.012391192 -0.68295145 79 1
2.9703686 -0.014516075 -0.57738805 96 2
2.9728985 -0.016085086 -0.47086781 99 3
2.969646 -0.017622441 -0.36463311 14 4
2.956641 -0.019609474 -0.25867823 17 5
2.9638565 -0.021209275 -0.15533313 75 6
2.9654608 -0.022773551 -0.051763836 19 7
2.9662683 -0.035206039 -0.57662481 93 2
2.9707386 -0.036814794 -0.47055492 78 3
2.9773905 -0.038456433 -0.36560807 78 4
2.9836068 -0.042182557 -0.15637985 92 6
2.9432356 -0.043153178 -0.051379886 58 7
2.9596488 -0.053727739 -0.68340129 13 1
2.991468 -0.056394525 -0.58158582 30 2
2.9644842 -0.05743859 -0.46961632 62 3
2.9869728 -0.059438903 -0.36682677 13 4
2.9520953 -0.060806651 -0.25832963 71 5
2.9592781 -0.062504753 -0.1551238 85 6
2.9611497 -0.074437484 -0.68385124 13 1
2.9890389 -0.077226661 -0.58120424 78 2
2.9758592 -0.07844536 -0.47149354 12 3
2.9725943 -0.079916842 -0.36512056 10 4
2.9695234 -0.081908941 -0.25989842 13 5
2.9607658 -0.083218843 -0.15522847 101 6
2.9430282 -0.094545074 -0.67980206 66 1
2.9805782 -0.097834416 -0.57967776 100 2
2.9653676 -0.098889492 -0.46992919 71 3
2.9779158 -0.10086895 -0.36585179 9 4
2.9748528 -0.10284447 -0.26042137 10 5
2.9661009 -0.10409684 -0.15554248 93 6
2.9758992 -0.11848401 -0.57891452 93 2
2.9784212 -0.12014642 -0.47211927 99 3
2.977139 -0.1216561 -0.36585179 9 4
2.976053 -0.12369293 -0.26059568 11 5
2.9593155 -0.12454947 -0.15522847 28 6
2.9749994 -0.13925664 -0.57891452 98 2
2.9794831 -0.14103004 -0.47243217 81 3
2.9861312 -0.14291181 -0.3670705 63 4
2.9591963 -0.14369343 -0.25920117 13 5
2.9817965 -0.16044444 -0.580441 98 2
2.9665914 -0.16118412 -0.47055492 78 3
2.9870429 -0.163864 -0.36731425 97 4
2.9621 -0.16456991 -0.2595498 12 5
2.9653935 -0.18189076 -0.47055492 84 3
2.9858263 -0.18471333 -0.36731425 81 4
2.9926951 -0.18723564 -0.26233879 102 5
2.9831831 -0.20232689 -0.58120424 11 2
2.9719346 -0.20312728 -0.47180638 76 3
2.9884248 -0.20582646 -0.3678017 50 4
2.9758246 -0.22270876 -0.58005941 15 2
2.9783232 -0.22446401 -0.4730579 69 3
2.9948328 -0.2272853 -0.36877668 12 4
2.9683273 -0.2429978 -0.57891452 71 2
2.9845583 -0.2458998 -0.47430936 76 3
2.9852595 -0.24753132 -0.3678017 13 4
2.9748991 -0.26602599 -0.4730579 84 3
2.9913673 -0.26907754 -0.36877668 70 4
2.9729691 -0.28678805 -0.4730579 78 3
2.9708946 -0.30753615 -0.4730579 78 3
2.9804559 -0.3295719 -0.47493511 81 3
2.9780824 -0.35037124 -0.47493511 41 3
