# .PCD v0.7 - Point Cloud Data file format
VERSION 0.7
FIELDS x y z intensity ring
SIZE 4 4 4 4 2
TYPE F F F F U
COUNT 1 1 1 1 1
WIDTH 1300
HEIGHT 1
VIEWPOINT 0 0 0 1 0 0 0
POINTS 1300
DATA ascii
-4.7411971 1.2261574 -1.1306039 6 1
-0.8543216 0.2217382 0.077219985 3 10
-0.83356696 0.21666172 -0.13641086 1 3
-0.87351727 0.22785981 0.14298111 1 12
-0.8057797 0.21049064 -0.0728622 48 5
-9.669982 2.5278542 1.9428172 0 13
-0.84241718 0.22053252 -0.045636959 4 6
-9.5760031 2.5104322 2.2855027 4 14
-9.6878958 2.5451875 2.6839538 1 15
-4.1133428 1.0921696 -1.1403568 6 0
-0.8522535 0.22660775 0.015393022 3 8
-4.7231059 1.2567209 -1.1283545 7 1
-0.83735317 0.22358496 0.075825498 3 10
-0.8571412 0.22950979 0.1089512 3 11
-0.84901059 0.22780918 0.13922669 1 12
-0.79085863 0.21235381 -0.071642019 59 5
-4.536922 1.219909 0.91321188 0 13
-0.84471416 0.22744691 -0.045846302 4 6
-9.4006367 2.5329657 2.2477109 4 14
-9.3808203 2.534652 2.6037197 0 15
-4.0944357 1.117806 -1.1372509 6 0
-0.85069126 0.23240365 0.015393022 3 8
-4.7273746 1.2932632 -1.1315038 9 1
-0.83577186 0.22942534 0.075825498 3 10
-0.86321509 0.23744479 0.10992616 3 11
-0.82649231 0.22780898 0.13578513 1 12
-0.78551573 0.2168095 -0.071293391 51 5
-9.319622 2.5758038 1.8794687 0 13
-0.85854638 0.23745042 -0.046683677 3 6
-9.2136984 2.5517218 2.2072196 4 14
-9.3447361 2.5932806 2.5985434 0 15
-3.5100884 0.98399711 -0.9767831 7 0
-0.84134698 0.23617493 0.015253403 3 8
-4.7203383 1.3259385 -1.1319537 7 1
-0.84186161 0.23727068 0.076522738 3 10
-0.87299806 0.24670438 0.11138859 3 11
-0.85719281 0.24272263 0.14110391 3 12
-0.79744017 0.22595342 -0.072513573 48 5
-9.1205568 2.5877347 1.8428333 0 13
-0.84534037 0.24016368 -0.046055648 4 6
-9.0480337 2.5722773 2.1716774 3 14
-8.9511185 2.5514801 2.4939804 0 15
-4.0953431 1.1789628 -1.1419097 6 0
-0.84164155 0.24244989 0.015288308 18 8
-4.6941152 1.3539985 -1.1279047 6 1
-0.82705671 0.2387175 0.045113601 13 9
-0.83061528 0.24037312 0.075651184 10 10
-0.82172799 0.23826754 0.10505138 8 11
-0.84034526 0.24414283 0.13860095 3 12
-0.80349571 0.23374119 -0.073210821 46 5
-4.5106087 1.3138682 0.91321188 0 13
-0.83601618 0.24367642 -0.045636959 17 6
-8.8652353 2.587337 2.132086 2 14
-0.85797912 0.25072801 -0.015602452 7 7
-8.7889156 2.5700595 2.4536047 0 15
-4.0612845 1.1991528 -1.1346627 6 0
-0.82266957 0.24321729 0.014974165 3 8
-4.6268611 1.3687817 -1.1139576 13 1
-8.9141836 2.6455803 0.81351173 1 10
-5.7639356 1.7128286 -0.95237315 1 3
-4.8727064 1.4526157 0.80532473 0 12
-0.80570453 0.24034408 -0.073559448 46 5
-0.93116289 0.27812243 0.18890092 0 13
-8.7017975 2.6040413 2.0969937 2 14
-8.9054098 2.6683624 -0.16227247 1 7
-8.6264296 2.588052 2.4132288 4 15
-4.0454183 1.2252358 -1.1325922 6 0
-8.787899 2.6632676 0.16028289 3 8
-4.6078687 1.3982195 -1.1117082 10 1
-8.7261095 2.6495309 0.47793198 2 9
-4.9983397 1.519563 -1.0154855 5 2
-8.7411089 2.6607511 0.79939252 2 10
-5.5423903 1.6881351 -0.91764468 10 3
-8.7703638 2.6746743 1.1258291 5 11
-5.8133774 1.7751082 -0.74632788 6 4
-4.7569127 1.4534256 0.78780407 0 12
-0.80591226 0.24654576 -0.073733754 41 5
-8.8057985 2.6972456 1.79017 0 13
-8.7821608 2.6916795 -0.48138618 3 6
-8.5492697 2.6235669 2.0646007 2 14
-8.7393789 2.6852448 -0.15958481 9 7
-8.4756622 2.6058347 2.3759589 5 15
-4.0480547 1.256179 -1.135698 6 0
-8.6335087 2.682426 0.15780467 6 8
-4.6056881 1.431866 -1.1135077 10 1
-8.4652109 2.6349967 0.46463865 15 9
-4.8957667 1.525799 -0.9967863 7 2
-8.5839443 2.676888 0.7866677 4 10
-5.5398979 1.7297295 -0.91920906 13 3
-8.5885353 2.6848998 1.1048675 14 11
-5.7954769 1.8128599 -0.74559671 20 4
-4.7428799 1.4854188 0.78717828 0 12
-0.79090685 0.2478551 -0.072513573 44 5
-8.5549574 2.6842401 1.7428495 0 13
-8.6469212 2.7164128 -0.47500119 10 6
-8.4047985 2.6419599 2.0340075 2 14
-8.5759315 2.6990454 -0.15693204 9 7
-8.3246012 2.6231372 2.3386889 5 15
-4.0207763 1.2785549 -1.1305215 6 0
-8.4721317 2.695657 0.1551868 6 8
-4.6030064 1.466352 -1.1153073 10 1
-8.2377567 2.625834 0.45312473 37 9
-4.8254175 1.5399874 -0.9845745 7 2
-8.4094238 2.6870244 0.77237415 5 10
-5.4169846 1.7319061 -0.9007498 12 3
-8.5549364 2.7384565 1.1029177 8 11
-5.8677468 1.8805373 -0.75656492 10 4
-8.4269915 2.7023664 1.4016529 0 12
-0.78536332 0.25215253 -0.072164953 41 5
-8.3528423 2.68502 1.7054509 0 13
-6.5881052 2.1190143 -0.36268821 8 6
-8.2321892 2.6509926 1.9966656 1 14
-8.4369764 2.7201905 -0.15473303 7 7
-7.1960716 2.3214929 2.0260355 1 15
-4.0211654 1.3088839 -1.1331098 6 0
-8.3257189 2.7132268 0.15284817 7 8
-4.5558643 1.485566 -1.1063093 10 1
-8.0787249 2.6374145 0.44537902 42 9
-4.7380385 1.548629 -0.9689281 8 2
-8.2735291 2.7058055 0.76156688 4 10
-5.2733502 1.7266523 -0.87884891 10 3
-7.2246161 2.3683472 0.93351924 0 11
-5.4605918 1.7911268 -0.70562357 8 4
-0.79498565 0.26122427 -0.073210821 38 5
-8.3070221 2.7360301 -0.45835835 7 6
-8.2910328 2.7355766 -0.15239441 10 7
-4.0247593 1.3411992 -1.1367333 6 0
-7.2067866 2.4029679 0.13260339 2 8
-4.5305948 1.5123993 -1.1027101 10 1
-4.6733928 1.5627881 -0.95786124 7 2
-7.0490522 2.3599472 0.65035611 0 10
-5.1678214 1.7311344 -0.86320543 11 3
-7.0201211 2.3543496 0.90914541 7 11
-5.9598174 2.0010684 -0.77192044 8 4
-7.021986 2.3590658 1.1732587 3 12
-0.80069637 0.26930839 -0.073908068 30 5
-7.0609818 2.377655 1.4482403 0 13
-7.249105 2.442409 -0.40089345 1 6
-6.9547367 2.3499904 1.9670248 1 15
-4.0100513 1.3666941 -1.1351804 7 0
-4.5054412 1.538165 -1.0991108 10 1
-7.0229282 2.4003782 0.38896087 34 9
-4.6493659 1.5909271 -0.95518982 2 2
-7.0441356 2.4117463 0.651402 6 10
-4.991169 1.7108055 -0.83567303 12 3
-6.9847374 2.3968589 0.906708 3 11
-5.2720337 1.8101618 -0.68441826 5 4
-6.9362254 2.3842714 1.1616825 18 12
-0.80072874 0.27540031 -0.074082382 33 5
-6.9146934 2.3809206 1.421527 4 13
-7.022285 2.4207077 -0.38927487 14 6
-6.8697038 2.3694534 1.6776849 3 14
-7.033361 2.4286485 -0.12988082 21 7
-6.8505216 2.3681881 1.9421781 7 15
-3.9912908 1.3914775 -1.1325922 6 0
-6.967165 2.4303138 0.12879875 48 8
-4.4780345 1.5638001 -1.0950617 12 1
-6.9347792 2.42309 0.38498333 63 9
-4.6402822 1.6231858 -0.95557153 2 2
-6.8879752 2.4121349 0.63850296 34 10
-4.9812717 1.7453929 -0.8359859 13 3
-6.8970795 2.4193778 0.89744592 29 11
-6.3718066 2.2376175 -0.82919908 20 4
-6.8434253 2.4045813 1.1488549 33 12
-0.79502767 0.2796613 -0.073733754 37 5
-6.8516088 2.4128318 1.4119867 8 13
-6.9510169 2.4492006 -0.38623938 31 6
-6.8511577 2.4167056 1.677235 7 14
-6.9162998 2.4423988 -0.12803085 52 7
-6.8287787 2.4128325 1.9406252 7 15
-3.9653492 1.4127769 -1.1279335 7 0
-6.8615055 2.4473205 0.12715824 83 8
-4.4177318 1.5765593 -1.0829144 7 1
-6.8631501 2.4519584 0.38194785 91 9
-4.6177459 1.6515734 -0.95328182 2 2
-6.8451343 2.4495659 0.63606262 68 10
-4.9485097 1.7727965 -0.83254427 9 3
-6.8706784 2.4641173 0.89622724 30 11
-6.1172676 2.195117 -0.79800051 6 4
-6.8506393 2.4609792 1.1529222 36 12
-0.78743136 0.28318229 -0.073210821 38 5
-6.8516521 2.4653957 1.4154211 8 13
-6.8754973 2.4766867 -0.38299456 75 6
-6.8597832 2.4737318 1.6835337 15 14
-6.8562517 2.4738104 -0.12722805 94 7
-6.8281202 2.4663544 1.945284 7 15
-3.9426827 1.4357985 -1.12431 9 0
-6.8630404 2.5020125 0.12750728 78 8
-4.3352184 1.5813187 -1.0653682 9 1
-6.877758 2.5114584 0.38372725 76 9
-4.6024151 1.682423 -0.95251852 2 2
-6.8484497 2.5048208 0.63797998 61 10
-4.8599596 1.779454 -0.81971669 13 3
-6.8458529 2.5092907 0.89525223 27 11
-4.9388375 1.8112679 -0.64590758 6 4
-6.8740878 2.5237234 1.1598053 39 12
-0.79478556 0.29210907 -0.074082382 37 5
-6.8526993 2.5199449 1.4192374 11 13
-6.8655367 2.5273848 -0.38341326 70 6
-6.8734307 2.5330172 1.691182 23 14
-6.8650813 2.5312991 -0.12771671 82 7
-6.8361077 2.5233288 1.9525309 7 15
-3.8945408 1.4491397 -1.1134396 10 0
-6.8753881 2.5610311 0.12806576 84 8
-4.2528572 1.5850041 -1.047822 7 1
-6.871285 2.5636003 0.38435531 83 9
-4.5997539 1.7179476 -0.95442665 2 2
-6.8587914 2.5630307 0.64059472 60 10
-4.8048649 1.7974211 -0.81252068 10 3
-6.8653479 2.570946 0.90012699 28 11
-4.8628697 1.8220227 -0.63762045 6 4
-6.8784952 2.5799766 1.1635597 40 12
-0.80397105 0.30171242 -0.07512825 31 5
-6.8661838 2.5794601 1.4257249 13 13
-6.8795047 2.5872068 -0.38519266 72 6
-6.8669734 2.5838606 1.6938814 26 14
-6.869698 2.587625 -0.12813558 80 7
-6.8544784 2.5846229 1.9628838 7 15
-3.8789117 1.4742345 -1.1118866 9 0
-6.8914409 2.6205649 0.12869404 81 8
-4.1961579 1.5973231 -1.0365745 8 1
-6.8667412 2.6152885 0.385088 84 9
-4.5219135 1.7240375 -0.94068843 6 2
-6.8742356 2.623641 0.64373231 60 10
-4.735312 1.8082386 -0.80282182 13 3
-6.877357 2.6289582 0.90402687 27 11
-4.7610397 1.8218737 -0.62592101 4 4
-6.868154 2.6295629 1.1648113 38 12
-0.79626387 0.30517876 -0.074605316 36 5
-6.8846684 2.6413975 1.4333572 19 13
-6.8747878 2.638983 -0.38592538 54 6
-6.8815107 2.6443202 1.7019798 27 14
-6.864531 2.6405456 -0.12837991 76 7
-6.8583612 2.6395483 1.9690953 7 15
-3.8489747 1.4929187 -1.1061926 6 0
-6.8897548 2.6751263 0.12900819 72 8
-4.141592 1.6089127 -1.0257769 5 1
-6.8874068 2.6783652 0.38728613 77 9
-4.6854014 1.8239353 -0.97732371 15 2
-6.8710709 2.6761549 0.64512682 57 10
-4.8053918 1.8735443 -0.81690085 3 3
-6.8865757 2.6877317 0.90768296 26 11
-4.8742681 1.9033387 -0.64249521 1 4
-6.8772264 2.6882331 1.1695042 34 12
-0.79045707 0.30914032 -0.074256696 29 5
-6.8957801 2.6996484 1.4394631 33 13
-6.8785114 2.6956587 -0.38718143 48 6
-6.8960094 2.703903 1.7100779 25 14
-6.8687348 2.6959772 -0.12879875 58 7
-6.8631415 2.6965466 1.9758247 6 15
-3.8618093 1.5289974 -1.112922 1 0
-6.8844004 2.7271168 0.12925252 59 8
-4.0596104 1.6097715 -1.0082307 4 1
-6.9042892 2.7391784 0.38927487 73 9
-4.5670495 1.8137558 -0.95518982 8 2
-6.8688841 2.7306831 0.64669561 47 10
-4.5006809 1.7901294 -0.76715469 6 3
-6.8976297 2.746294 0.91158277 24 11
-4.4514871 1.7741617 -0.58838522 0 4
-6.8826222 2.7444944 1.1735715 31 12
-0.78827965 0.31465101 -0.074256696 29 5
-6.8822336 2.7499113 1.4406079 41 13
-6.9008045 2.7587264 -0.38948423 38 6
-6.907721 2.7642903 1.7177262 21 14
-6.8794475 2.7557619 -0.12935723 42 7
-6.8697324 2.7532618 1.9830716 6 15
-3.8226516 1.5436746 -1.1046398 1 0
-6.8892956 2.7848532 0.12970628 49 8
-3.9871345 1.6125251 -0.99293393 3 1
-6.8461218 2.7715721 0.38707677 29 9
-4.4396453 1.7991434 -0.93114793 11 2
-6.8852191 2.7915971 0.65000749 41 10
-4.4569583 1.8088768 -0.76183593 9 3
-6.8948402 2.8011057 0.9137764 20 11
-4.6894097 1.9060785 -0.62153369 0 4
-6.8943996 2.8051331 1.1788902 28 12
-0.78796494 0.32076058 -0.074431002 21 5
-6.8906288 2.8078046 1.4463322 37 13
-6.899869 2.8143806 -0.39053094 25 6
-6.9049845 2.8178706 1.7217753 16 14
-6.9031076 2.8199179 -0.13016005 31 7
-6.8592849 2.8048086 1.9856598 6 15
-3.8135674 1.5710599 -1.1051573 2 0
-6.9034591 2.8453994 0.13033457 46 8
-3.9253397 1.6195108 -0.98033673 4 1
-6.7310972 2.7784808 0.38163382 26 9
-4.3982644 1.8173259 -0.92504203 10 2
-6.9005432 2.8540668 0.65331942 18 10
-4.5212035 1.8708954 -0.77497649 6 3
-5.0170608 2.0801852 -0.6668691 6 4
-6.9094319 2.8690469 -0.65453959 21 5
-6.9082155 2.8727832 -0.39210105 23 6
-6.7951889 2.8285635 1.6992803 2 14
-6.8315687 2.8465049 -0.12918271 17 7
-6.6973853 2.7919667 1.9442488 1 15
-3.7867548 1.5902499 -1.1004987 6 0
-3.8711131 1.6280608 -0.96953911 7 1
-6.6158133 2.78511 0.37619087 28 9
-4.4216537 1.8632334 -0.93267435 12 2
-6.8460741 2.886265 0.65000749 6 10
-4.6700087 1.9707674 -0.80282182 6 3
-6.833621 2.8866332 0.91085154 4 11
-5.8438969 2.4697595 -0.7789889 6 4
-6.8732615 2.9076195 1.182019 7 12
-5.0035501 2.1177001 -0.47534743 2 5
-6.7735286 2.869611 1.4299227 5 13
-6.7886982 2.878835 -0.38644874 5 6
-6.7560453 2.8663776 1.6943314 2 14
-6.7719584 2.8787105 1.9716836 6 15
-3.7631302 1.611324 -1.0968752 7 0
-6.7073298 2.8733797 0.12736766 6 8
-3.8184597 1.6373817 -0.95919132 10 1
-6.5214486 2.7977912 0.37189934 31 9
-4.3872218 1.8839918 -0.92809504 10 2
-6.7763357 2.912744 0.6453011 8 10
-4.3915415 1.8885708 -0.7571429 3 3
-6.8739843 2.9589822 0.91889495 4 11
-4.5321369 1.9527835 -0.60593444 6 4
-6.7009344 2.8886504 1.155738 4 12
-6.7356758 2.906415 -0.64181489 5 5
-6.8758879 2.9697654 1.4558728 6 13
-6.7047768 2.8972473 -0.3827852 8 6
-6.6053009 2.8570006 1.6614884 3 14
-6.6723924 2.8887827 -0.12691391 7 7
-6.5430279 2.8341329 1.9106023 3 15
-3.7467628 1.6345841 -1.0953223 9 0
-6.6101379 2.8865249 0.12590165 7 8
-3.7929397 1.6570936 -0.9555921 3 1
-6.4267302 2.8104413 0.36760777 40 9
-4.3631706 1.909851 -0.92580527 10 2
-6.6632748 2.9180405 0.63641125 1 10
-4.5157485 1.9794555 -0.78092092 5 3
-6.5732155 2.8840714 0.88135916 2 11
-4.8568273 2.1319976 -0.65126985 4 4
-6.8252845 2.9989316 1.1807675 2 12
-4.8772078 2.1439905 -0.46610889 0 5
-6.8141842 2.9983118 1.4470955 6 13
-6.6003065 2.9069536 -0.37797031 10 6
-6.542902 2.8830366 1.6506908 1 14
-6.5610909 2.8937867 -0.12516867 6 7
-6.666234 2.9429379 1.9525309 7 15
-3.7087803 1.6489297 -1.0875577 7 0
-6.5062909 2.8940654 0.12429604 8 8
-3.7599149 1.6740223 -0.95019323 2 1
-6.3271761 2.8183625 0.36300224 36 9
-4.3249664 1.9283134 -0.92046267 10 2
-6.7064209 2.9929066 0.64251208 5 10
-4.4155903 1.9714907 -0.76590323 7 3
-6.877841 3.0737267 0.92498839 3 11
-4.2529058 1.9024154 -0.57205474 5 4
-6.4477091 2.8855503 1.1188195 2 12
-6.5549545 2.9362905 -0.62839293 5 5
-6.4670458 2.8996246 1.377641 1 13
-6.4928966 2.9125741 -0.37294605 9 6
-6.6826143 3.0004818 1.691182 0 14
-6.476891 2.9108293 -0.12394699 7 7
-6.5685225 2.953388 1.9297549 2 15
-3.6464353 1.6510277 -1.0725461 4 0
-6.4185371 2.9088759 0.12300456 8 8
-3.7289102 1.6907238 -0.94524431 6 1
-6.2291408 2.8269739 0.35850134 39 9
-4.2363253 1.9243569 -0.90443468 8 2
-6.7149148 3.0516758 0.6453011 2 10
-4.2992282 1.9556468 -0.7480697 9 3
-6.4099751 2.9184906 0.8647849 1 11
-4.4981871 2.0489931 -0.60690933 5 4
-6.3465261 2.893615 1.1047403 1 12
-6.4454794 2.9414508 -0.61985165 6 5
-6.3221459 2.886498 1.3509278 3 13
-5.0246053 2.2962017 -0.28952253 9 6
-6.6366944 3.0357137 1.6848834 1 14
-6.375103 2.9174037 -0.12237628 8 7
-6.4722199 2.9645796 1.9074965 2 15
-3.5857008 1.6537896 -1.0580523 2 0
-6.3272657 2.9209275 0.12164328 9 8
-3.7435539 1.7289717 -0.95199287 2 1
-6.1312976 2.8343556 0.35400045 34 9
-3.809417 1.7626185 -0.81589925 7 2
-6.4511671 2.9863243 0.62194335 2 10
-4.1420841 1.9191772 -0.72304016 9 3
-6.6847844 3.100137 0.9047581 2 11
-4.8547196 2.2524555 -0.65711957 3 4
-6.4193335 2.9811163 1.1210095 1 12
-4.8601456 2.2590973 -0.46889788 1 5
-6.2377529 2.9007638 1.3371896 3 13
-6.2958751 2.930464 -0.36394429 6 6
-6.2108235 2.8935158 1.5818559 0 14
-6.2748308 2.9246669 -0.12084046 6 7
-6.4583683 3.0129588 1.909567 2 15
-3.5303538 1.6582483 -1.0451113 2 0
-6.2397628 2.933548 0.1203518 8 8
-3.7155209 1.7475996 -0.94794375 7 1
-6.0517292 2.8490162 0.35054627 33 9
-3.8893695 1.8326863 -0.83574343 7 2
-6.5436993 3.0848107 0.63292503 1 10
-4.3393903 2.0475152 -0.75995874 2 3
-6.3219314 2.9856637 0.85844773 0 11
-4.8263125 2.2803566 -0.65541339 2 4
-6.405508 3.029237 1.1222609 0 12
-5.9486609 2.8144596 -0.57575083 8 5
-6.1286325 2.9022267 1.3181087 1 13
-6.2265329 2.9512508 -0.36111811 5 6
-6.4850383 3.0751612 1.6569895 0 14
-6.1856108 2.9358215 -0.11951409 7 7
-6.3813381 3.0314457 1.8930025 2 15
-3.4664075 1.6578492 -1.0295821 2 0
-6.1348696 2.9353874 0.11871127 7 8
-3.7313516 1.7869629 -0.9551422 1 1
-5.9655528 2.8582127 0.34667343 27 9
-3.8608727 1.8514768 -0.83230883 8 2
-6.2184453 2.9847195 0.60346633 1 10
-3.8944209 1.8700732 -0.68424439 4 3
-6.5054278 3.126657 0.88623393 1 11
-4.7369318 2.2787132 -0.64542013 3 4
-6.4025397 3.0813344 1.1253897 1 12
-4.7531466 2.2895784 -0.46157682 0 5
-6.0746212 2.9287424 1.3108579 2 13
-6.1289468 2.9562526 -0.35661724 6 6
-6.0632873 2.9271915 1.5544118 1 14
-6.0893435 2.9423916 -0.11804808 6 7
-5.9813924 2.8915172 1.7801574 2 15
-3.4324608 1.6704164 -1.0228529 1 0
-6.047709 2.9457455 0.11741979 6 8
-3.7103426 1.8080517 -0.95289266 3 1
-5.8808289 2.8682711 0.34290522 24 9
-3.9554734 1.9309222 -0.8555876 7 2
-6.2534847 3.0540814 0.60887003 1 10
-3.8830452 1.8980834 -0.68455732 3 3
-6.0340939 2.9521542 0.82481176 1 11
-6.1555824 3.0155873 1.0856553 0 12
-5.0058117 2.4534054 -0.48772353 1 5
-5.9910922 2.9388947 1.2971196 2 13
-6.0364461 2.9637592 -0.35243034 3 6
-6.0484705 2.9709713 1.5557615 1 14
-6.0135427 2.9564223 -0.11696602 7 7
-6.0286617 2.9664688 1.8003453 2 15
-3.4103291 1.6891932 -1.0197471 1 0
-5.9630141 2.9548788 0.11616322 6 8
-3.669697 1.820056 -0.94569421 6 1
-5.7896037 2.8727245 0.33871832 20 9
-3.8894882 1.9316033 -0.84413904 7 2
-5.9982877 2.9814911 0.58603519 2 10
-3.811666 1.8954461 -0.67423266 6 3
-6.0387402 3.005542 0.82822412 1 11
-4.5877919 2.2853887 -0.62933332 5 4
-6.0359058 3.0080755 1.0681347 2 12
-4.5660143 2.2775247 -0.4464117 3 5
-5.9107065 2.9508352 1.2841446 2 13
-5.9482355 2.970866 -0.34845284 3 6
-5.9630871 2.9808867 1.5391152 1 14
-5.9069157 2.9553845 -0.1152906 3 7
-5.8563075 2.9313421 1.7547932 1 15
-3.336643 1.6810756 -1.0011121 1 0
-5.8886747 2.9694238 0.11511607 7 8
-3.676362 1.8546478 -0.95064318 5 1
-5.7034411 2.8797646 0.33484548 20 9
-3.8268452 1.9339169 -0.83345371 7 2
-5.9903016 3.0285423 0.58725542 4 10
-3.8212545 1.9336039 -0.67829996 6 3
-5.9538569 3.0153391 0.81944954 1 11
-4.6252527 2.3434801 -0.63664556 3 4
-5.8773389 2.9804537 1.0437309 1 12
-4.4686723 2.2670863 -0.43839338 1 5
-5.8344679 2.9625549 1.2719328 1 13
-5.8490062 2.972507 -0.34384724 2 6
-5.7845821 2.941035 1.4981741 1 14
-5.8225021 2.9628744 -0.11403403 2 7
-5.864965 2.9870584 1.763593 2 15
-3.2698126 1.6761287 -0.98454767 1 0
-5.809607 2.9793255 0.11396421 10 8
-3.6321175 1.8642509 -0.94254488 8 1
-5.6197453 2.8856761 0.33107728 23 9
-3.7524781 1.9285109 -0.82009715 10 2
-5.8201847 2.9937377 0.57261318 4 10
-3.8431332 1.9776468 -0.68455732 4 3
-5.8555436 3.0158033 0.808725 1 11
-3.7124321 1.9136671 -0.51282626 1 4
-5.8639379 3.0240123 1.0449823 2 12
-4.6722751 2.4115396 -0.46000803 0 5
-5.858994 3.0266423 1.2818549 3 13
-3.9283421 2.0301735 -0.23174362 4 6
-5.7206359 2.9589648 1.4869264 1 14
-5.7430735 2.9731119 -0.11288217 3 7
-5.6798153 2.9416208 1.7138997 2 15
-3.2209327 1.6781397 -0.97315967 1 0
-5.7129493 2.979044 0.11246331 10 8
-3.5522912 1.8531462 -0.9249987 12 1
-5.5539408 2.8998277 0.32835582 28 9
-3.626164 1.8949064 -0.79529196 7 2
-5.7260447 2.9935031 0.56529218 7 10
-3.5845461 1.8755482 -0.64075565 6 3
-5.8208117 3.0482237 0.80677515 2 11
-3.5656946 1.8688564 -0.49430209 5 4
-5.6577749 2.9666207 1.0118183 1 12
-3.4896085 1.8313086 -0.3447881 7 5
-5.6627097 2.9742482 1.2433115 4 13
-3.8790715 2.0382855 -0.22965018 5 6
-5.655519 2.9742506 1.4752289 1 14
-5.6643081 2.9813988 -0.11173031 3 7
-5.5776124 2.9370084 1.6890532 2 15
-3.2020147 1.6975257 -0.97108907 1 0
-5.631948 2.986999 0.11127654 10 8
-3.5217266 1.8693814 -0.92049968 10 1
-5.4748421 2.9085741 0.32490164 31 9
-3.5365684 1.8796338 -0.7785008 10 2
-5.6094904 2.9838743 0.55587929 1 10
-3.8081717 2.0273988 -0.6833058 4 3
-5.5943966 2.9796042 0.77825767 1 11
-3.9659753 2.1140761 -0.55182445 0 4
-5.7235441 3.0535216 1.0274616 2 12
-4.7493172 2.534833 -0.47098961 0 5
-5.6850991 3.0368359 1.252852 3 13
-5.597549 2.992579 -0.33264738 6 6
-5.6844501 3.0403156 1.4882761 1 14
-5.6028075 2.9991634 -0.1109275 4 7
-5.5087719 2.9513023 1.6745592 4 15
-3.1866844 1.7180059 -0.97005379 1 0
-5.5629139 3.0015841 0.11033412 13 8
-3.5583203 1.9207675 -0.93354684 9 1
-5.3946586 2.9144466 0.3213428 28 9
-3.7199018 2.0113435 -0.82200515 7 2
-5.532445 2.9926281 0.55030131 4 10
-3.5958908 1.9467248 -0.6476388 6 3
-5.5886397 3.0280716 0.78045136 1 11
-3.7731097 2.0452218 -0.52696311 1 4
-5.5735998 3.0236986 1.0043093 1 12
-4.5423841 2.4652865 -0.45216399 0 5
-5.513669 2.9949234 1.2196511 3 13
-5.5466905 3.0153677 -0.33086795 2 6
-5.4867573 2.9840269 1.4419363 1 14
-5.5255284 3.0076139 -0.10981054 6 7
-5.5592847 3.0285039 1.6963001 2 15
-3.1610608 1.7327816 -0.9659127 1 0
-5.4844933 3.0076499 0.10918226 13 8
-3.5602 1.9540004 -0.93759602 11 1
-5.3186731 2.9203386 0.31799328 33 9
-3.6269786 1.9931234 -0.80445075 10 2
-5.4555521 3.0004556 0.54472339 5 10
-3.6604383 2.0140064 -0.66171783 6 3
-5.4774771 3.0162501 0.76777691 2 11
-3.6909361 2.0341454 -0.51745731 2 4
-5.4248786 2.9909887 0.98115706 1 12
-4.474474 2.4690232 -0.44710895 4 5
-5.5510597 3.0656116 1.2326262 3 13
-5.5323009 3.0590365 1.4594824 1 14
-4.1431699 2.2928162 -0.082654595 7 7
-5.4861479 3.0372679 1.6802533 2 15
-3.1626942 1.7617791 -0.97005379 1 0
-5.4179506 3.0205483 0.10827474 15 8
-3.5536246 1.9819856 -0.93939561 11 1
-5.2545567 2.9330623 0.31537652 34 9
-3.6815324 2.0566964 -0.81971544 7 2
-5.5254407 3.0880637 0.55378759 5 10
-3.6445646 2.0385487 -0.66140497 3 3
-5.3766079 3.0098112 0.75656492 2 11
-4.2398996 2.3744581 -0.59667236 6 4
-5.3504481 2.9988475 0.9714582 1 12
-4.3220129 2.4234173 -0.43351269 1 5
-5.4273381 3.0456784 1.2097291 3 13
-4.6791611 2.6279693 -0.28125346 8 6
-5.4637814 3.0698936 1.4468851 1 14
-5.3702393 3.0198028 -0.10754173 10 7
-5.3082404 2.9873784 1.632113 3 15
-3.1570425 1.7876227 -0.9721244 1 0
-5.3381066 3.0238464 0.10708796 13 8
-3.5380063 2.0057843 -0.93894571 9 1
-5.1875629 2.9421573 0.31255037 29 9
-3.8211124 2.1689298 -0.85406113 7 2
-5.2993283 3.010437 0.53321886 4 10
-3.5309947 2.0066991 -0.64325857 7 3
-5.4560761 3.1032617 0.77070183 2 11
-5.414022 3.0830953 0.98678869 1 12
-3.6852927 2.1003485 -0.37110916 2 5
-5.2678099 3.0047061 1.1788181 2 13
-5.3151503 3.0329363 -0.32071477 7 6
-5.3677578 3.0654414 1.4270895 1 14
-5.3073592 3.0334058 -0.10670401 10 7
-5.3062305 3.0339892 1.6378069 1 15
-3.1213574 1.7955846 -0.96487743 1 0
-5.2596779 3.0281131 0.1059361 11 8
-3.4668558 1.9967527 -0.92364907 8 1
-5.1357503 2.9603467 0.31066626 21 9
-3.7412555 2.1582739 -0.83955961 7 2
-5.3857036 3.1081824 0.54402614 7 10
-3.5613735 2.0569885 -0.65139318 7 3
-5.331161 3.08167 0.75607747 2 11
-3.8854094 2.24686 -0.55109322 4 4
-5.2111387 3.0159323 0.95362461 1 12
-4.2692227 2.4717956 -0.43159524 1 5
-5.2863054 3.0631309 1.1875952 1 13
-5.2995715 3.0745249 1.4144921 0 14
-5.2312498 3.0373311 -0.10558706 10 7
-5.2765694 3.0661061 1.6352189 4 15
-3.1187527 1.8231817 -0.96798331 1 0
-5.197516 3.0396168 0.1050984 14 8
-3.5217876 2.0612657 -0.94209504 6 1
-5.0930748 2.9821167 0.30930555 11 9
-3.7112343 2.1747561 -0.83612514 8 2
-5.300283 3.1084146 0.53757662 5 10
-3.5115108 2.0601902 -0.64482296 9 3
-5.2073522 3.0575793 0.74145311 4 11
-4.0852733 2.4006507 -0.58180428 3 4
-5.3113971 3.1224115 0.9758383 5 12
-5.213511 3.0673165 -0.52920967 6 5
-5.3037028 3.1228726 1.1963725 5 13
-5.1712947 3.0461252 -0.31453913 10 6
-5.1084247 3.0114937 1.3690522 1 14
-5.1720285 3.0514224 -0.10481916 12 7
-5.0892081 3.0037572 1.5834551 3 15
-3.1129148 1.8483132 -0.97005379 1 0
-5.1297536 3.0482469 0.10415597 13 8
-3.5395024 2.1041098 -0.95064318 8 1
-5.0721316 3.0176005 0.30930555 17 9
-3.6402936 2.1674674 -0.82353163 7 2
-5.2670207 3.1372821 0.53635645 5 10
-3.5241904 2.1008384 -0.64982885 9 3
-5.0989375 3.0419881 0.7290225 1 11
-4.1591802 2.482322 -0.59472245 6 4
-5.0825715 3.0358343 0.93766832 0 12
-3.9918714 2.3853025 -0.40684301 1 5
-5.0599103 3.0258942 1.145999 2 13
-5.1019168 3.0534341 -0.31160831 10 6
-5.3586679 3.2083647 1.4419363 1 14
-5.0945315 3.0526381 -0.10366729 12 7
-5.3315434 3.1971846 1.6657594 4 15
-3.040385 1.8340766 -0.95141882 1 0
-5.0575233 3.0520971 0.10310882 11 8
-3.47802 2.100559 -0.93804586 9 1
-5.0360889 3.0427601 0.30836347 11 9
-3.4776156 2.1028006 -0.7899493 7 2
-5.1461239 3.1141481 0.52624637 1 10
-3.6365466 2.2015045 -0.67329407 7 3
-5.3667388 3.251492 0.7704581 3 11
-3.9210832 2.3774986 -0.56303644 6 4
-5.0313878 3.051919 0.93203664 2 12
-5.0600204 3.0717032 -0.51787943 4 5
-4.9900031 3.0315847 1.134932 3 13
-5.043467 3.0652692 -0.30930555 10 6
-5.0148039 3.0502479 1.3551052 0 14
-5.0184369 3.0548575 -0.10255034 11 7
-5.2189078 3.178138 1.6372893 3 15
-3.0377145 1.8607841 -0.9545247 1 0
-4.9866529 3.0570209 0.10209658 9 8
-3.2742624 2.0080421 -0.88675708 7 1
-4.9738712 3.0527692 0.30585137 10 9
-3.7054167 2.2760234 -0.84528393 8 2
-4.9346862 3.0322769 0.50672346 3 10
-3.3602767 2.0664475 -0.62479931 5 3
-5.007484 3.0818291 0.72195405 1 11
-3.6411076 2.2417762 -0.52501315 6 4
-5.2807221 3.2538056 0.98240852 1 12
-4.9982891 3.0809832 -0.5136959 3 5
-12.018774 7.4142542 2.7449784 3 13
-4.9760575 3.0720773 -0.30647939 9 6
-10.561523 6.5229273 2.8658764 0 14
-4.9601049 3.0658162 -0.10178243 11 7
-4.8712935 3.0132711 1.534797 3 15
-3.0164485 1.8768431 -0.95193648 2 0
-4.9232864 3.0644753 0.10122395 9 8
-3.316402 2.0658846 -0.90205371 8 1
-4.9089046 3.0590904 0.30312988 12 9
-3.6182082 2.2565186 -0.82887435 7 2
-4.8643804 3.0360622 0.50166845 3 10
-3.6762221 2.2953749 -0.68643451 4 3
-6.5166497 4.0720549 0.94351256 0 11
-3.6421995 2.2776659 -0.52745056 1 4
-5.1278276 3.2079568 0.95800477 0 12
-4.9378181 3.0914843 -0.50968677 3 5
-5.0408955 3.1584706 1.1563026 1 13
-4.8941097 3.0676887 -0.30271122 8 6
-5.1142421 3.2081578 1.3937967 1 14
-4.894547 3.0727243 -0.10087491 10 7
-5.1222415 3.2169137 1.6207249 3 15
-3.0281026 1.9128078 -0.95970106 3 0
-4.8628969 3.074194 0.10042115 9 8
-3.1803842 2.011332 -0.868761 9 1
-4.8418617 3.0644472 0.30030376 9 9
-3.6786597 2.3300471 -0.84642875 7 2
-4.8166742 3.0520403 0.49887949 3 10
-3.7618706 2.3855135 -0.7055195 9 3
-5.1488838 3.2675803 0.74876529 2 11
-4.8265438 3.0641987 -0.70196748 2 4
-4.8868904 3.1049042 0.91701895 1 12
-4.8740826 3.0991571 -0.50532901 3 5
-4.8105578 3.0599425 1.1082187 5 13
-4.8338223 3.0771129 -0.30030376 8 6
-4.9668107 3.1642072 1.3596041 1 14
-4.8313603 3.0791013 -0.1000023 10 7
-4.9954176 3.18611 1.5875961 3 15
-3.0992293 1.9881417 -0.98661828 9 0
-4.8042946 3.0843024 0.099653237 13 8
-3.2630079 2.0956171 -0.89530522 12 1
-4.7783465 3.071178 0.29768693 10 9
-3.3089521 2.1283891 -0.76476252 7 2
-4.7583895 3.0618727 0.49504462 3 10
-3.5258982 2.2705443 -0.66422081 6 3
-4.7788773 3.0797756 0.69806767 3 11
-3.1733248 2.0458517 -0.46359101 6 4
-4.7538824 3.067193 0.89605671 0 12
-4.2715216 2.7580857 -0.44484288 3 5
-5.0150089 3.2393911 1.1605004 2 13
-4.7820315 3.0912664 -0.29841965 8 6
-5.0313187 3.2549043 1.383449 1 14
-4.7694554 3.0866785 -0.099164575 10 7
-4.7444263 3.0728302 1.5146091 1 15
-2.9816756 1.9422475 -0.95348942 9 0
-4.7457924 3.0937417 0.098885335 9 8
-3.0818019 2.0097682 -0.84941518 12 1
-4.7233386 3.0826294 0.2955935 7 9
-3.2068954 2.0945389 -0.74453676 8 2
-4.6735172 3.0536046 0.48842075 3 10
-3.5198808 2.3015909 -0.66609806 5 3
-5.0462837 3.3021953 0.74047816 3 11
-3.7601981 2.4615419 -0.55182445 0 4
-5.0000362 3.2756722 0.94674152 2 12
-4.74757 3.1114578 -0.49661341 3 5
-4.9857054 3.2700152 1.1589739 2 13
-4.7202606 3.0982728 -0.29590753 9 6
-4.9471459 3.248431 1.3663527 1 14
-4.6993256 3.0880549 -0.098152332 9 7
-4.5937295 3.020961 1.4731981 1 15
-3.0018814 1.985395 -0.96435976 10 0
-4.6695895 3.0895612 0.097733475 9 8
-3.0985682 2.0516748 -0.85796332 10 1
-4.6656137 3.0904438 0.2932907 6 9
-3.3022015 2.1889954 -0.77010518 7 2
-4.6188788 3.0641303 0.48493454 3 10
-3.7296224 2.4751403 -0.70896107 7 3
-4.96912 3.3002255 0.73243481 4 11
-3.7429216 2.4877329 -0.55182445 6 4
-4.9480147 3.2899432 0.94110984 3 12
-4.6809454 3.1147254 -0.49190697 3 5
-4.8859534 3.2535977 1.1410379 3 13
-4.6541829 3.1004338 -0.2930814 7 6
-4.7103152 3.1402032 1.3069657 1 14
-4.6460476 3.0996995 -0.097489148 8 7
-4.8462224 3.2344739 1.5611964 4 15
-2.9514053 1.9810195 -0.95245409 9 0
-4.6064072 3.0942099 0.096860856 9 8
-2.9583681 1.9879405 -0.82287097 9 1
-4.6107774 3.1006498 0.29119727 7 9
-3.3845639 2.2777646 -0.79300219 7 2
-4.5681663 3.0754697 0.48179695 3 10
-3.6221483 2.4404118 -0.69175333 11 3
-4.5904427 3.0951262 0.67978722 1 11
-3.7291925 2.5153723 -0.5523119 3 4
-4.5876474 3.0967364 0.8766588 0 12
-4.6277189 3.1261373 -0.4885951 3 5
-4.5822821 3.0966082 1.0750179 1 13
-4.5894089 3.1037588 -0.29035991 8 6
-4.5833774 3.1020129 1.277722 0 14
-4.5933795 3.1099515 -0.09682595 9 7
-4.5420451 3.077508 1.4700923 1 15
-2.9183462 1.9885216 -0.94624245 9 0
-4.5533023 3.104888 0.096197665 9 8
-3.1826761 2.1710732 -0.88945645 7 1
-4.5362334 3.0967293 0.28784779 6 9
-3.3053584 2.2581453 -0.77811909 2 2
-4.5235558 3.0915482 0.47935659 3 10
-3.7093744 2.5370097 -0.71177691 10 3
-4.8308229 3.3064945 0.71878546 1 11
-3.8409381 2.6299446 -0.57156724 5 4
-4.8168626 3.3006442 0.92484063 3 12
-4.5729179 3.1358342 -0.48510888 3 5
-4.7807279 3.2795632 1.126918 2 13
-4.5363431 3.1142471 -0.28837115 8 6
-4.7672038 3.2751822 1.3353095 0 14
-4.5418921 3.121556 -0.096197665 8 7
-4.7178216 3.2448926 1.5342795 3 15
-2.8328943 1.9593958 -0.92294878 7 0
-4.4969864 3.1127005 0.095464662 7 8
-2.9271193 2.0268335 -0.82197118 5 1
-4.4783878 3.103296 0.28554502 10 9
-3.1265707 2.16817 -0.73957568 7 2
-4.4478397 3.0855763 0.47360432 4 10
-3.7483666 2.6022713 -0.72272736 5 3
-4.7652345 3.3106906 0.71244824 1 11
-3.6708894 2.551333 -0.54889959 7 4
-4.7450519 3.3003535 0.91545457 2 12
-4.508945 3.1373019 -0.48057678 3 5
-4.7319374 3.294909 1.1208121 2 13
-4.4800801 3.1218603 -0.28617305 9 6
-4.6968403 3.2741234 1.3218124 0 14
-4.4576674 3.1097109 -0.094871283 9 7
-4.4067597 3.0764861 1.4400692 1 15
-2.844445 1.9968846 -0.93123102 7 0
-4.441329 3.1191037 0.094731666 7 8
-3.1265428 2.1973703 -0.88225806 5 1
-4.4244833 3.1107333 0.28345159 6 9
-3.161515 2.2244232 -0.75140589 8 2
-4.3870931 3.0890222 0.46942082 4 10
-3.7402568 2.634551 -0.72460455 7 3
-4.4180884 3.1143079 0.66370046 1 11
-3.750314 2.6455553 -0.56352389 5 4
-4.3980699 3.1036451 0.85256797 1 12
-4.4446192 3.1388202 -0.47604465 5 5
-4.428246 3.1295748 1.054029 1 13
-4.4244785 3.1280701 -0.28397492 8 6
-4.6038713 3.2573099 1.3020166 1 14
-4.4064722 3.1199555 -0.09424299 8 7
-4.5291758 3.2080212 1.4871743 3 15
-2.7898748 1.9870608 -0.91777241 7 0
-4.3836217 3.1244984 0.093963757 9 8
-2.908416 2.073787 -0.82467055 7 1
-4.3733945 3.1206632 0.28156745 6 9
-3.3216574 2.3719399 -0.79338378 8 2
-4.3416467 3.1014411 0.46680617 3 10
-3.6510651 2.6100519 -0.71083826 4 3
-4.6658568 3.3379629 0.70440483 3 11
-4.4199042 3.1631727 -0.66735661 9 4
-4.5898895 3.2872503 0.89417946 0 12
-4.3853521 3.1430767 -0.4720355 6 5
-4.5807533 3.2843368 1.0956253 1 13
-4.3587193 3.1274438 -0.28114879 8 6
-4.4543843 3.1984422 1.2660246 0 14
-4.351027 3.1253781 -0.093509994 9 7
-4.3858848 3.1527386 1.4473162 1 15
-2.7414894 1.9815922 -0.90638429 10 0
-4.317956 3.1233809 0.093021333 8 8
-2.8559773 2.066623 -0.81387293 9 1
-4.3288555 3.1347187 0.28010207 6 9
-3.3463497 2.425024 -0.80330586 2 2
-4.2876267 3.1082878 0.46331993 11 10
-3.5863857 2.6018379 -0.70176506 3 3
-4.4063025 3.1990161 0.66857523 1 11
-3.1802311 2.3097246 -0.48260266 1 4
-4.3878632 3.1891384 0.85913813 3 12
-4.3342986 3.1525216 -0.46889788 5 5
-4.3624511 3.1741607 1.0486863 3 13
-4.3028727 3.1331098 -0.27895069 8 6
-4.3925714 3.2007704 1.254777 1 14
-4.3113265 3.1427209 -0.093126044 8 7
-4.3622065 3.182142 1.4467984 4 15
-2.6979921 1.9789733 -0.89654922 9 0
-4.2702527 3.1345181 0.092462853 7 8
-2.8681829 2.1061184 -0.82152128 6 1
-4.2682381 3.1364799 0.27758995 8 9
-3.0335732 2.2308273 -0.73194337 7 2
-4.2465639 3.1239777 0.46122819 5 10
-3.5315461 2.5998764 -0.69456911 7 3
-4.3471036 3.2026179 0.66296923 2 11
-4.2922125 3.1633353 -0.65468216 5 4
-4.2796445 3.1563785 0.84224325 2 12
-4.2849336 3.1625893 -0.46593457 5 5
-4.2264676 3.1205781 1.0212098 1 13
-4.2584057 3.1464555 -0.27748525 8 6
-4.2384992 3.1340346 1.2169852 1 14
-4.2539124 3.14658 -0.092358135 8 7
-4.2218781 3.1251643 1.4074581 3 15
-2.6593151 1.9793053 -0.88826698 9 0
-4.2210031 3.1439462 0.091869473 6 8
-2.722146 2.0282867 -0.78372949 6 1
-4.2030072 3.1339655 0.27476382 6 9
-2.7535818 2.0546997 -0.66783154 3 2
-4.2246513 3.1535473 0.46122819 6 10
-3.2189515 2.4045801 -0.63637549 3 3
-4.3309989 3.2376437 0.66394424 3 11
-3.6691041 2.7438419 -0.56254894 3 4
-4.3049507 3.2216864 0.85162932 2 12
-4.2372341 3.1733172 -0.46314558 5 5
-4.2972813 3.2194583 1.0437253 3 13
-4.207572 3.1545429 -0.27560118 8 6
-4.2944555 3.2220244 1.2394803 1 14
-4.1870604 3.1425903 -0.091380797 8 7
-4.2339401 3.1800869 1.4188461 3 15
-2.6827853 2.0252955 -0.90069032 9 0
-4.1644025 3.146086 0.091101564 9 8
-2.8139963 2.1266649 -0.81432283 6 1
-4.1544967 3.1420205 0.27298436 7 9
-2.6111655 1.9762415 -0.63653886 10 2
-4.2157955 3.1918516 0.46262267 6 10
-3.6244729 2.7461417 -0.72022432 7 3
-4.2898784 3.2526565 0.66101938 2 11
-3.6376903 2.7591553 -0.56059903 5 4
-4.2483058 3.2246397 0.84474617 3 12
-4.1716657 3.1676126 -0.45826489 11 5
-4.2408781 3.2225029 1.0353296 3 13
-4.1398973 3.148051 -0.27256569 8 6
-4.2512779 3.2339177 1.2331817 1 14
-4.1321588 3.145582 -0.090647802 9 7
-4.21527 3.2111731 1.4198813 3 15
-2.6072333 1.9969881 -0.8799848 9 0
-4.1079707 3.1476014 0.090333655 8 8
-2.8129992 2.1569304 -0.81837195 5 1
-4.1060734 3.1495607 0.27120495 6 9
-2.7580595 2.1170981 -0.6758455 8 2
-4.1839299 3.2139237 0.46157682 9 10
-3.5399101 2.7201965 -0.70708382 7 3
-4.2235785 3.2478974 0.65419465 1 11
-3.5538378 2.7348483 -0.55060571 2 4
-4.0932097 3.1510572 0.81815231 2 12
-4.1131473 3.168694 -0.45425573 13 5
-4.0674591 3.1357579 0.99831271 1 13
-4.0993943 3.1615207 -0.27130961 8 6
-4.0481 3.1242139 1.1805431 0 14
-4.0831938 3.1535733 -0.090054423 8 7
-4.0251532 3.1098697 1.3629411 3 15
-2.5935802 2.014688 -0.8799848 12 0
-4.0574775 3.1541133 0.08970537 8 8
-2.6721084 2.0779326 -0.78147995 9 1
-4.0634937 3.1622047 0.2698442 9 9
-3.1521389 2.4547558 -0.77659267 7 2
-4.1446667 3.2288589 0.45965937 11 10
-3.6953175 2.8808715 -0.74212521 7 3
-4.0771556 3.1808417 0.63493931 1 11
-4.0969448 3.1974304 -0.6381079 5 4
-4.0882373 3.1929314 0.82159394 2 12
-4.0752282 3.1850619 -0.45251262 12 5
-4.0058069 3.1319311 0.98839068 3 13
-4.0080113 3.1359093 -0.26670405 8 6
-4.0430679 3.1656139 1.1854922 1 14
-4.0458903 3.168963 -0.08970537 8 7
-4.0535192 3.1772227 1.3800232 3 15
-2.6097987 2.0566604 -0.89033753 11 0
-4.0102367 3.1625502 0.089146897 8 8
-2.8487811 2.2474103 -0.83771771 6 1
-3.9958582 3.1546052 0.26680872 7 9
-3.2689481 2.5825863 -0.80979347 10 2
-4.1001406 3.2404191 0.45721903 15 10
-3.4876409 2.7583284 -0.70426804 10 3
-4.1031036 3.2474186 0.64249521 3 11
-4.0371699 3.1963813 -0.63225818 5 4
-4.0968127 3.2459295 0.8278513 3 12
-4.0232306 3.1899147 -0.44920069 9 5
-4.091516 3.2452214 1.0151039 4 13
-3.9985354 3.1737487 -0.26754144 8 6
-4.0956407 3.2531533 1.2075372 1 14
-3.9923549 3.1722519 -0.089007273 8 7
-4.0841632 3.2475255 1.3981405 3 15
-2.6134841 2.0893056 -0.89654922 9 0
-3.9708848 3.1767278 0.088762946 8 8
-2.5728464 2.0590274 -0.76078445 9 1
-3.9456758 3.1599526 0.26492465 6 9
-3.0899823 2.4764278 -0.76972359 8 2
-3.9173059 3.1406 0.43926495 11 10
-3.7826192 3.0347865 -0.76809335 6 3
-4.0710454 3.2685266 0.64103281 2 11
-3.7562902 3.0168965 -0.59155381 4 4
-3.9878294 3.2051501 0.81033063 2 12
-3.6722419 2.9525571 -0.41224664 5 5
-3.9234481 3.1567874 0.97885019 1 13
-3.9529469 3.182797 -0.26597136 8 6
-3.917084 3.1550465 1.1611973 1 14
-3.9296327 3.1674175 -0.088099748 10 7
-3.903507 3.148608 1.3437886 1 15
-2.4277797 1.9687842 -0.83753842 11 0
-3.9118979 3.1734474 0.087925225 7 8
-2.6552382 2.1555459 -0.7895782 7 1
-3.9101224 3.1754043 0.26398259 7 9
-3.1492329 2.5593116 -0.78880447 8 2
-3.8118148 3.099987 0.4298521 26 10
-3.8522818 3.1340146 -0.78655261 7 3
-3.9547975 3.2197106 0.62616473 0 11
-3.5858543 2.9214253 -0.56791121 5 4
-4.0057325 3.264667 0.81846523 3 12
-3.7441797 3.0536773 -0.42270535 5 5
-4.0062609 3.2697566 1.0051818 4 13
-3.9002488 3.1843677 -0.26387793 8 6
-4.0005975 3.2686253 1.1926905 1 14
-3.8826549 3.1745212 -0.087541275 8 7
-3.9507718 3.2313669 1.3676 3 15
-2.4650559 2.0269816 -0.85513818 7 0
-3.8603089 3.1765394 0.087262027 9 8
-2.5682859 2.114121 -0.7679829 13 1
-3.8647349 3.1835766 0.26241252 7 9
-2.6540966 2.1878686 -0.66859478 7 2
-3.7429738 3.0865669 0.42444846 33 10
-3.5865335 2.9596653 -0.73649353 4 3
-3.9873276 3.2927454 0.63493931 2 11
-3.819936 3.1556361 -0.60837179 3 4
-3.8701782 3.1994147 0.79531288 2 12
-3.8200359 3.159085 -0.43368697 6 5
-3.8084624 3.1517549 0.96091413 3 13
-3.8502343 3.1885872 -0.26199383 8 6
-3.8281898 3.1714587 1.1477003 1 14
-3.8394046 3.1830087 -0.087052606 8 7
-3.7913318 3.1453881 1.3199772 1 15
-2.468647 2.0589907 -0.86134982 9 0
-3.8140311 3.1822438 0.086703561 9 8
-2.5773973 2.1519835 -0.77518129 10 1
-3.8230486 3.1931641 0.26105177 7 9
-3.1392543 2.6238935 -0.79529196 7 2
-3.6922977 3.0883341 0.42113656 34 10
-3.1118057 2.6037197 -0.6426329 6 3
-3.9085071 3.2726583 0.62592101 2 11
-3.7628171 3.1529028 -0.6027658 5 4
-3.905839 3.2739043 0.80720192 3 12
-3.7872038 3.1767135 -0.4324668 6 5
-3.8886199 3.264096 0.98686421 4 13
-3.7963212 3.1877499 -0.25979573 8 6
-3.7970047 3.1905844 1.1450008 1 14
-3.8002534 3.1955781 -0.086668648 7 7
-3.7905309 3.1885324 1.3272241 1 15
-2.4840777 2.1006949 -0.87170261 6 0
-3.7657719 3.1868329 0.086110167 9 8
-2.6578801 2.2500613 -0.80397505 7 1
-3.7610407 3.1862097 0.25833032 7 9
-3.0115404 2.5530679 -0.76743382 6 2
-3.6575148 3.1017973 0.41956773 36 10
-3.705034 3.1443207 -0.76965761 7 3
-3.8598428 3.2780192 0.62177742 2 11
-3.4931619 2.9676604 -0.56279266 8 4
-3.7579741 3.1948938 0.78123385 0 12
-3.7761168 3.2114537 -0.43368697 6 5
-3.796042 3.230685 0.9689281 3 13
-3.7511654 3.1947508 -0.25822562 8 6
-3.8493679 3.2795455 1.167496 1 14
-3.7525446 3.1993163 -0.086075269 7 7
-3.8284338 3.2663257 1.3484472 3 15
-2.4810822 2.1280475 -0.87584364 9 0
-3.730335 3.2006719 0.085796036 17 8
-2.5918374 2.2253997 -0.78867841 10 1
-3.7150249 3.1909142 0.25665554 7 9
-2.8928499 2.4864872 -0.74148381 8 2
-3.608582 3.1038699 0.41643015 35 10
-3.4409707 2.960746 -0.71897286 9 3
-3.8208938 3.2899687 0.61909634 3 11
-3.4558158 2.9777222 -0.56011152 6 4
-3.8184335 3.2913334 0.79844159 3 12
-3.676661 3.1713703 -0.42479706 5 5
-3.804606 3.2840464 0.97694212 4 13
-3.7157278 3.2084625 -0.2572836 8 6
-3.8013122 3.2846794 1.1598476 2 14
-3.6998665 3.1992762 -0.085377172 8 7
-3.7622795 3.2543941 1.332918 3 15
-2.5540059 2.2209456 -0.90690196 9 0
-3.6792367 3.2016959 0.085132837 8 8
-2.5589917 2.2276354 -0.78327954 9 1
-3.6745851 3.2010303 0.2553995 7 9
-3.2009959 2.7904398 -0.82543975 8 2
-3.5573392 3.1021714 0.41294393 32 10
-3.4008682 2.9678118 -0.71490556 9 3
-3.7858713 3.3061163 0.61714637 3 11
-3.2620499 2.8496799 -0.53183788 7 4
-3.6897714 3.2256014 0.77622795 1 12
-3.6649287 3.2061429 -0.42601725 6 5
-3.6314676 3.1779909 0.93801707 5 13
-3.6737058 3.2172184 -0.25592285 8 6
-3.6449201 3.194258 1.1189066 2 14
-3.652441 3.2019761 -0.084783792 9 7
-3.6552403 3.2066872 1.3028952 3 15
-2.4515057 2.1620531 -0.87584364 9 0
-3.623811 3.1981921 0.084364928 9 8
-2.5521424 2.253185 -0.78597897 10 1
-3.6326909 3.209414 0.25403875 7 9
-2.6710544 2.3614869 -0.69301832 2 2
-3.5132089 3.1071305 0.41032922 34 10
-3.3593576 2.9731526 -0.71052545 10 3
-3.7240596 3.2982473 0.61080921 2 11
-3.6328487 3.2185969 -0.59594113 8 4
-3.6863773 3.2683194 0.78029525 4 12
-3.6335142 3.2237172 -0.4249714 6 5
-3.6664588 3.2540898 0.95290023 5 13
-3.6257694 3.2202399 -0.25414345 12 6
-3.6953604 3.2843556 1.1414016 1 14
-3.6001093 3.2008231 -0.084085695 7 7
-3.637094 3.2359798 1.3044481 1 15
-2.4305923 2.1739635 -0.87377316 11 0
-3.5820248 3.2060757 0.083911166 9 8
-2.6379788 2.3619409 -0.8174721 10 1
-3.5849087 3.2120392 0.25225934 7 9
-2.6223447 2.351243 -0.6846227 7 2
-3.4780819 3.1196096 0.4087604 35 10
-3.2547255 2.9213226 -0.69269186 5 3
-3.6241486 3.2551885 0.59813482 2 11
-3.5910945 3.2266333 -0.59277254 7 4
-3.5709295 3.2107666 0.76058447 1 12
-3.5916657 3.2316811 -0.42270535 6 5
-3.5663137 3.209995 0.93267435 8 13
-3.5735192 3.2187405 -0.25205001 13 6
-3.5912807 3.2370098 1.1162071 4 14
-3.5657942 3.2151659 -0.083806455 7 7
-3.5785565 3.2289386 1.2915071 4 15
-2.4096329 2.1856873 -0.87170261 12 0
-3.5447481 3.2175648 0.083562121 9 8
-2.5435188 2.3095584 -0.79317743 10 1
-3.528399 3.2060959 0.24985188 6 9
-2.5811727 2.3470397 -0.67813522 8 2
-3.4355848 3.1250451 0.40632007 36 10
-2.5520494 2.3230002 -0.5465821 5 3
-3.6218796 3.2991257 0.60154712 4 11
-3.5156584 3.2034917 -0.58399796 6 4
-3.634546 3.314147 0.77904367 5 12
-3.5439978 3.2338455 -0.41974208 6 5
-3.6221166 3.3062882 0.95328182 4 13
-3.5362151 3.2301385 -0.25100327 16 6
-3.6290064 3.3172228 1.135103 1 14
-3.5226011 3.2210894 -0.083317786 7 7
-3.6015351 3.2955744 1.3080715 3 15
-2.4028456 2.210304 -0.87480837 10 0
-3.4986594 3.2205637 0.08300364 10 8
-2.5889745 2.3840222 -0.81252325 11 1
-3.4927123 3.2184689 0.24890982 7 9
-2.5834875 2.3823044 -0.68309623 7 2
-3.3961105 3.1327431 0.4042283 35 10
-2.757849 2.5457611 -0.59445107 1 3
-3.6147995 3.3391464 0.60422826 1 11
-3.5136192 3.2468183 -0.58741027 6 4
-3.5518577 3.2844527 0.7662161 1 12
-3.5008619 3.2395637 -0.41730168 6 5
-3.4894514 3.2301357 0.92427886 2 13
-3.5018566 3.2438893 -0.25016591 18 6
-3.4642725 3.2113228 1.0905627 0 14
-3.4751017 3.2224874 -0.082724407 8 7
-3.5487013 3.2930434 1.297201 3 15
-2.2771709 2.124239 -0.83443266 9 0
-3.4585488 3.2285368 0.082584791 10 8
-2.388535 2.2304637 -0.75448585 9 1
-3.4555643 3.2291384 0.2478631 7 9
-2.5194719 2.3560312 -0.67050284 8 2
-3.339237 3.1237099 0.40004486 35 10
-3.2562845 3.0482435 -0.70645815 7 3
-3.4653611 3.2462308 0.58302301 2 11
-3.4821754 3.2631249 -0.58594781 5 4
-3.593684 3.3699739 0.78029525 2 12
-3.4549141 3.2421112 -0.41451269 6 5
-3.6171112 3.3955052 0.96434873 5 13
-3.4572892 3.2477458 -0.2485958 19 6
-3.624933 3.4076114 1.1486001 2 14
-3.4292116 3.2247515 -0.082165927 8 7
-3.5565772 3.346863 1.3085891 6 15
-2.3549109 2.2277057 -0.86859673 9 0
-3.4039772 3.2223585 0.081816882 10 8
-2.4082789 2.2805836 -0.76573336 11 1
-3.4111915 3.2325761 0.24629304 9 9
-2.4388576 2.3127713 -0.65333003 7 2
-3.3000031 3.1304903 0.39795309 32 10
-3.4097085 3.2368226 -0.74462813 13 3
-3.412389 3.2416341 0.57790446 2 11
-3.4420428 3.2709453 -0.58302301 6 4
-3.4097447 3.2425199 0.74525392 0 12
-3.4053392 3.2394609 -0.41120079 6 5
-3.3757567 3.2135661 0.90596116 4 13
-3.4027169 3.2414958 -0.24629304 13 6
-3.4549358 3.2923911 1.1018102 1 14
-3.3921435 3.234813 -0.081816882 8 7
-3.505173 3.3449371 1.2982364 3 15
-2.2542603 2.1625133 -0.83702081 7 0
-3.3559935 3.2205315 0.081188597 9 8
-2.3431039 2.250098 -0.74998683 11 1
-3.371825 3.2391167 0.24503697 10 9
-2.8306756 2.7211664 -0.76323599 7 2
-3.2608376 3.1368775 0.39586139 31 10
-3.1669765 3.0476489 -0.69613349 11 3
-3.5318041 3.4011054 0.60203457 2 11
-3.3905346 3.2673471 -0.57814825 7 4
-3.5411892 3.4137185 0.77904367 3 12
-3.3683007 3.2493241 -0.40945768 6 5
-3.5269759 3.4047704 0.95290023 5 13
-3.354713 3.239609 -0.24440894 11 6
-3.4739072 3.3570559 1.1153073 1 14
-3.3608527 3.2500751 -0.081607454 8 7
-3.3087635 3.2008193 1.2335316 2 15
-2.1910143 2.1306686 -0.81890345 12 0
-3.3176637 3.2285414 0.080804639 9 8
-2.2774646 2.2170591 -0.73379034 11 1
-3.3190861 3.2333105 0.24283887 12 9
-2.7581894 2.6887851 -0.74873453 16 2
-3.227998 3.1478722 0.39446688 30 10
-3.2417591 3.1634984 -0.7174086 9 3
-3.4824092 3.4007146 0.59764731 1 11
-3.0728586 3.0018194 -0.52745056 7 4
-3.4650059 3.3872652 0.76746756 2 12
-3.3361335 3.2624247 -0.40823749 6 5
-3.286227 3.2158639 0.89374936 2 13
-3.3163183 3.2475779 -0.24325755 11 6
-3.3771956 3.3083482 1.0914625 1 14
-3.3043811 3.2392788 -0.08076974 8 7
-3.4504459 3.38483 1.2951305 4 15
-2.0577912 2.0292573 -0.77438658 8 0
-3.2913399 3.2468359 0.080699928 10 8
-2.2647057 2.2356424 -0.73469019 10 1
-3.2842107 3.2431977 0.24189681 16 9
-2.4521558 2.4232235 -0.67012119 7 2
-3.1818607 3.1465147 0.39150357 13 10
-3.199085 3.1646535 -0.71271551 9 3
-3.2786043 3.2455807 0.56644875 3 11
-3.3056762 3.2746665 -0.57132351 7 4
-3.4208233 3.3899152 0.76277459 3 12
-3.287812 3.2603827 -0.4050999 6 5
-3.4462512 3.4198864 0.94374132 6 13
-3.2728744 3.2489696 -0.24168746 9 6
-3.4397335 3.416995 1.1193565 5 14
-3.2604127 3.2411227 -0.080246165 9 7
-3.4122589 3.3932533 1.2894366 6 15
-1.9400947 1.9394175 -0.73504615 8 0
-3.2516286 3.2527635 0.080281071 9 8
-2.1337264 2.1352162 -0.69689834 10 1
-3.2445543 3.2490869 0.24064074 21 9
-2.7680051 2.7738078 -0.76170951 7 2
-3.1406696 3.1483521 0.38906324 34 10
-3.2647746 3.2750461 -0.73242623 10 3
-3.3931608 3.4062152 0.59033519 1 11
-3.2622993 3.2759917 -0.56766742 14 4
-3.3942862 3.4109144 0.7621488 3 12
-3.2430606 3.2600861 -0.40231091 6 5
-3.4159725 3.4363036 0.94183326 6 13
-3.2360365 3.2575703 -0.24064074 9 6
-3.4012904 3.4251189 1.1144075 3 14
-3.219965 3.2447875 -0.079792403 8 7
-3.3748837 3.4032757 1.2842602 5 15
-2.0201199 2.0478098 -0.77076316 9 0
-3.2041385 3.249192 0.079652779 10 8
-2.1269748 2.1583889 -0.69959778 13 1
-3.2125516 3.2611368 0.23990804 21 9
-2.7256467 2.7688005 -0.75522202 8 2
-3.1032443 3.154578 0.38714582 39 10
-1.9723138 2.0056398 -0.44552541 1 3
-3.2613709 3.3187943 0.57132351 3 11
-3.1711965 3.229286 -0.55572426 6 4
-3.261668 3.322576 0.73743218 5 12
-3.1965036 3.2584677 -0.3993476 6 5
-3.3355513 3.4025857 0.92618686 5 13
-3.1984112 3.2638304 -0.23948936 9 6
-3.3636618 3.4348567 1.1099085 2 14
-3.1832471 3.2528956 -0.07944335 8 7
-3.3016565 3.3750722 1.2651075 4 15
-2.0896668 2.1473515 -0.80285674 7 0
-3.1576777 3.2471099 0.0790594 10 8
-2.038883 2.0973618 -0.67530304 5 1
-3.1604815 3.253401 0.23770994 19 9
-2.0143042 2.0749731 -0.5621233 5 2
-3.0678244 3.1613297 0.38540271 35 10
-3.1615517 3.2601881 -0.71928573 6 3
-3.1891971 3.2921436 -0.56279266 9 4
-2.779495 2.8712227 0.63293391 6 12
-3.1562374 3.2615383 -0.39708155 7 5
-2.7623086 2.8564599 0.7723949 14 13
-3.1519537 3.2616637 -0.23770994 9 6
-2.7647731 2.8620057 0.9187001 20 14
-3.1471441 3.2601004 -0.079094306 8 7
-2.724077 2.8238218 1.0513231 39 15
-2.1107402 2.1995218 -0.81683296 6 0
-2.7575798 2.8745742 0.06953039 32 8
-2.3505435 2.4519799 -0.78417933 7 1
-2.758244 2.8782814 0.20892516 51 9
-2.5582154 2.6714122 -0.71896833 7 2
-2.7426271 2.8659859 0.34705415 33 10
-2.7924495 2.9190688 -0.63981706 4 3
-2.7420607 2.8683989 0.48723367 40 11
-2.7780817 2.9081123 -0.49381462 11 4
-2.7421515 2.8715036 0.62886661 42 12
-2.7675078 2.9000821 -0.35071471 31 5
-2.7192662 2.8515217 0.76590741 27 13
-2.7493217 2.8840466 -0.20882049 32 6
-2.712466 2.847374 0.90790248 26 14
-2.7465229 2.8851404 -0.06953039 30 7
-2.6994665 2.8367002 1.0492525 44 15
-2.0475311 2.1636896 -0.79819798 9 0
-2.7355661 2.8927794 0.069495484 48 8
-2.1539812 2.2785676 -0.72389251 5 1
-2.7197478 2.87907 0.20756441 49 9
-2.7250137 2.8866625 -0.7716316 15 2
-2.7143476 2.876369 0.3460083 37 10
-2.7606478 2.9274793 -0.63731414 25 3
-2.7037656 2.8691666 0.48406506 41 11
-2.7400167 2.9086509 -0.490646 40 4
-2.6876836 2.8550942 0.62104493 35 12
-2.7226176 2.8932145 -0.3475771 46 5
-2.6966026 2.8675756 0.76514411 33 13
-2.7340844 2.9094682 -0.20923917 50 6
-2.6791792 2.8520379 0.90340346 27 14
-2.718102 2.8954968 -0.069320954 50 7
-2.668524 2.8446736 1.0451113 48 15
-2.0956402 2.2457268 -0.8230446 9 0
-2.6994443 2.8937855 0.069076627 55 8
-2.0768971 2.2279787 -0.703197 9 1
-2.683749 2.8799815 0.20630836 51 9
-2.7066398 2.9065809 -0.77201319 26 2
-2.6738415 2.8733702 0.34339362 34 10
-2.7245119 2.9288466 -0.63355964 45 3
-2.680119 2.8831418 0.48333386 39 11
-2.7061327 2.9131656 -0.48820862 38 4
-2.6614671 2.8660843 0.61948055 44 12
-2.6847339 2.8931658 -0.34531105 43 5
-2.6671736 2.8762541 0.76247281 49 13
-2.6911347 2.9031107 -0.20745975 50 6
-2.6512568 2.8620949 0.90070403 35 14
-2.6760874 2.8909221 -0.068762481 51 7
-2.6372907 2.8500097 1.0404526 63 15
-1.9821786 2.1533382 -0.78422177 10 0
-2.661576 2.8934286 0.068622865 60 8
-2.1909516 2.3826408 -0.74728745 9 1
-2.6635766 2.898648 0.20630836 56 9
-2.646446 2.882024 -0.76056474 12 2
-2.6474843 2.884165 0.34252208 47 10
-2.6345618 2.8720989 -0.61729044 28 3
-2.6559017 2.8973925 0.48260266 44 11
-2.6763439 2.9217398 -0.48650244 50 4
-2.6493974 2.8933363 0.62135774 46 12
-2.6537111 2.9000788 -0.34391654 45 5
-2.63643 2.8832133 0.75941986 33 13
-2.6775398 2.9291978 -0.20798311 60 6
-2.6627545 2.9150655 0.91150165 26 14
-2.6612315 2.9154425 -0.068902098 60 7
-2.6329556 2.8854766 1.0466642 38 15
-1.8979161 2.0916414 -0.75678688 8 0
-2.6439989 2.9149013 0.068692669 49 8
-2.050822 2.2625351 -0.70499659 7 1
-2.660197 2.9368775 0.20766909 42 9
