# .PCD v0.7 - Point Cloud Data file format
VERSION 0.7
FIELDS x y z intensity ring
SIZE 4 4 4 4 2
TYPE F F F F U
COUNT 1 1 1 1 1
WIDTH 1233
HEIGHT 1
VIEWPOINT 0 0 0 1 0 0 0
POINTS 1233
DATA ascii
-0.85350633 -0.074221775 0.074953936 52 10
-0.80885184 -0.070054121 -0.12858914 16 3
-0.83856529 -0.072332896 0.10334522 33 11
-0.80100012 -0.068951584 -0.09871418 32 4
-0.86205292 -0.073904209 0.13703661 10 12
-0.80200756 -0.068474315 -0.070421837 146 5
-0.84380573 -0.071598001 -0.044380896 100 6
-0.83889467 -0.070738927 -0.014694927 100 7
-0.84308696 -0.068573937 0.014764735 57 8
-0.84806788 -0.068532132 0.044590238 100 9
-0.80821228 -0.065027282 -0.15760824 27 2
-0.85000783 -0.068240568 0.074605316 69 10
-0.81717509 -0.06531781 -0.12984063 15 3
-0.85287845 -0.06787204 0.10505138 35 11
-0.80143982 -0.063637808 -0.09871418 32 4
-0.84086257 -0.066472799 0.13359505 14 12
-0.78654325 -0.062040564 -0.069027349 150 5
-1.3191725 -0.10358972 0.25721052 0 13
-0.83629727 -0.065377422 -0.043962207 100 6
-0.83735162 -0.065018781 -0.014660021 25 7
-0.77236861 -0.059701763 0.20757288 8 15
-0.84752256 -0.063130714 0.014834546 67 8
-0.84253919 -0.062315956 0.044276223 18 9
-0.8105942 -0.059668563 -0.15798986 31 2
-0.84052825 -0.061577071 0.073733754 86 10
-0.82745135 -0.060473882 -0.13140497 17 3
-0.86321998 -0.062785111 0.10627007 28 11
-0.80186456 -0.058041144 -0.09871418 37 4
-0.83538479 -0.060320873 0.13265644 16 12
-0.77900815 -0.055976748 -0.068330102 155 5
-1.2963645 -0.092697017 0.25263113 1 13
-0.83871514 -0.059825711 -0.04406688 100 6
-1.3976281 -0.099202432 0.32347962 0 14
-0.84376925 -0.059594225 -0.014764735 37 7
-0.75734043 -0.053356867 0.20343177 8 15
-0.83996207 -0.056673687 0.014694927 81 8
-0.85690331 -0.057366069 0.045008924 23 9
-0.82078558 -0.054660369 -0.15989795 18 2
-0.84490389 -0.056118425 0.074082382 100 10
-0.80025822 -0.052872512 -0.1270248 19 3
-0.87354136 -0.057408262 0.10748877 31 11
-0.81808782 -0.053620324 -0.10066409 35 4
-0.85155499 -0.055515587 0.13515939 15 12
-0.76346552 -0.049638759 -0.066935606 158 5
-1.2969655 -0.083870776 0.25263113 1 13
-0.8570506 -0.05512264 -0.045008924 42 6
-1.3438181 -0.086194098 0.31088236 0 14
-0.83816844 -0.053467568 -0.014660021 40 7
-0.80396593 -0.051004004 0.21585509 6 15
-0.83234423 -0.050470985 0.014555307 96 8
-0.86524856 -0.052011549 0.045427613 27 9
-0.81525928 -0.048720825 -0.15875308 15 2
-0.84328622 -0.050100558 0.073908068 96 10
-0.8065154 -0.04777452 -0.12796341 16 3
-0.84220535 -0.049593844 0.10358895 38 11
-0.81844223 -0.047907885 -0.10066409 40 4
-0.84205312 -0.049142297 0.13359505 14 12
-0.79561818 -0.046153896 -0.06972459 163 5
-1.2837994 -0.074023426 0.2499598 5 13
-0.83347833 -0.047912326 -0.043752864 44 6
-1.3093669 -0.074809842 0.30278412 1 14
-0.84650725 -0.048068222 -0.014799641 47 7
-0.86987245 -0.049242701 0.23345479 4 15
-0.83666998 -0.044873089 0.014625117 115 8
-0.84365165 -0.044804573 0.044276223 28 9
-0.79009277 -0.041683622 -0.15379207 3 2
-0.84559733 -0.04446394 0.074082382 100 10
-0.81866533 -0.042761244 -0.12984063 15 3
-0.85046077 -0.044124354 0.10456391 36 11
-0.78703022 -0.040695675 -0.096764266 46 4
-0.84040296 -0.043161348 0.13328218 12 12
-0.79989356 -0.040940899 -0.070073217 163 5
-1.2901556 -0.065582156 0.25110465 6 13
-0.82780838 -0.041790091 -0.043438848 39 6
-1.2787052 -0.064328894 0.29558566 1 14
-0.84881198 -0.042404879 -0.014834546 51 7
-0.96666902 -0.047954526 0.25933671 1 15
-0.84494597 -0.03955121 0.014764735 126 8
-0.85191762 -0.039430544 0.044694912 38 9
-0.80997002 -0.037205514 -0.15760824 4 2
-0.8478775 -0.038650203 0.074256696 100 10
-0.81499082 -0.037008546 -0.12921488 15 3
-0.85867375 -0.038691849 0.10553886 35 11
-0.80316001 -0.035909306 -0.09871418 43 4
-0.84857094 -0.037791442 0.13453366 15 12
-0.79617894 -0.035179503 -0.06972459 166 5
-1.3082345 -0.057347693 0.25453922 7 13
-0.83206439 -0.036328632 -0.043648191 46 6
-1.2966454 -0.056159504 0.29963478 2 14
-0.8390981 -0.036049072 -0.014660021 57 7
-0.87046874 -0.037244402 0.23345479 4 15
-0.84320349 -0.033571661 0.014729831 137 8
-0.85217214 -0.033481874 0.044694912 34 9
-0.79451591 -0.030939003 -0.15455531 9 2
-0.83020288 -0.032183371 0.072687887 100 10
-0.8152293 -0.031317934 -0.12921488 15 3
-0.8589229 -0.032696437 0.10553886 35 11
-0.79941857 -0.03029139 -0.098226704 44 4
-0.83894408 -0.031496037 0.1329693 14 12
-0.76852596 -0.028717872 -0.067284234 168 5
-1.2968229 -0.048005711 0.25224951 7 13
-0.85225683 -0.031250916 -0.044694912 49 6
-1.2950501 -0.04726113 0.29918489 6 14
-0.83932406 -0.030336663 -0.014660021 66 7
-0.787691 -0.028195135 0.21119635 15 15
-0.83541799 -0.027567759 0.014590211 142 8
-0.85437649 -0.027745565 0.044799585 38 9
-0.81433052 -0.026160551 -0.15837148 3 2
-0.84235561 -0.026766544 0.073733754 100 10
-0.8114748 -0.025643323 -0.12858914 14 3
-0.85912555 -0.026849166 0.10553886 35 11
-0.80754703 -0.024954913 -0.099201649 36 4
-0.84308797 -0.025906127 0.13359505 14 12
-0.79061389 -0.024017313 -0.069201656 172 5
-1.2951641 -0.038892083 0.25186789 7 13
-0.84047168 -0.025091453 -0.04406688 51 6
-1.2914528 -0.038103878 0.2982851 6 14
-0.8355177 -0.024359783 -0.014590211 61 7
-0.82069236 -0.023784196 0.2199962 12 15
-0.83359104 -0.021682773 0.014555307 146 8
-0.85255277 -0.021729328 0.044694912 34 9
-0.83608228 -0.02101752 -0.16256927 15 2
-0.84451008 -0.0210819 0.073908068 100 10
-0.81163406 -0.01997773 -0.12858914 14 3
-0.84738499 -0.020561559 0.10407643 37 11
-0.81166726 -0.019553334 -0.099689126 36 4
-0.84522313 -0.020066313 0.13390793 12 12
-0.80669713 -0.018870136 -0.070596151 171 5
-1.2796969 -0.029710716 0.24881494 8 13
-0.83064264 -0.018994939 -0.043543518 50 6
-1.2877908 -0.028999474 0.29738528 8 14
-0.85365695 -0.019074047 -0.014904355 64 7
-0.80152458 -0.017629493 0.21481982 14 15
-0.84171951 -0.016015043 0.014694927 141 8
-0.84669298 -0.015666012 0.044380896 33 9
-0.83424568 -0.015144618 -0.16218765 46 2
-0.83666837 -0.015042334 0.073210821 97 10
-0.80977869 -0.014276343 -0.12827627 14 3
-0.84750795 -0.014645395 0.10407643 37 11
-0.80384481 -0.013750543 -0.09871418 32 4
-0.84534264 -0.014165257 0.13390793 12 12
-0.80880123 -0.013270554 -0.070770465 173 5
-1.2720212 -0.020648863 0.24728847 4 13
-0.83674604 -0.013290857 -0.043857537 49 6
-1.2782193 -0.019856637 0.29513577 8 14
-0.84177256 -0.012929865 -0.014694927 58 7
-0.813218 -0.01220715 0.21792565 6 15
-0.85180849 -0.010258751 0.014869451 133 8
-0.83879316 -0.0096627753 0.043962207 33 9
-0.83040482 -0.0092760585 -0.16142441 13 2
-0.85069889 -0.0093544722 0.074431002 96 10
-0.82368547 -0.0087696938 -0.13046636 13 3
-0.85949939 -0.0088511696 0.10553886 35 11
-0.79201126 -0.0080177458 -0.097251743 22 4
-0.8434456 -0.0082440004 0.13359505 14 12
-0.81484973 -0.0078222761 -0.071293391 167 5
-1.2819504 -0.011858782 0.24919657 5 13
-0.83881557 -0.0074667213 -0.043962207 47 6
-1.2705302 -0.011087879 0.29333615 8 14
-0.84184229 -0.00705287 -0.014694927 60 7
-0.82101047 -0.0065917545 0.2199962 6 15
-0.84585953 -0.004429013 0.014764735 113 8
-0.84083682 -0.0039624679 0.04406688 24 9
-0.79707366 -0.003477823 -0.15493691 17 2
-0.84078157 -0.0033752555 0.073559448 100 10
-0.82175064 -0.0031552454 -0.13015349 15 3
-0.86350995 -0.0030141792 0.10602634 34 11
-0.80594349 -0.0025321157 -0.098957919 16 4
-0.83360535 -0.0024733408 0.13203071 12 12
-0.78898352 -0.0020657417 -0.069027349 164 5
-1.2996712 -0.0029488837 0.25263113 8 13
-0.84683603 -0.0017738346 -0.044380896 47 6
-1.2920128 -0.0022550491 0.2982851 6 14
-0.83387226 -0.0011643617 -0.014555307 47 7
-0.77467197 -0.00094650069 0.20757288 8 15
-0.8358714 0.0014586581 0.014590211 107 8
-0.84683573 0.0019211688 0.044380896 23 9
-0.82652736 0.0021637902 -0.16066119 3 2
-0.82883078 0.0023142735 0.072513573 91 10
-0.82175267 0.0025815368 -0.13015349 15 3
-0.85557014 0.0028372961 0.10505138 35 11
-0.81586748 0.0029902149 -0.10017661 15 4
-0.83952838 0.0033699712 0.1329693 10 12
-0.79495645 0.0033297937 -0.069550283 159 5
-1.2839552 0.0058262045 0.24957818 10 13
-0.83883882 0.0040993984 -0.043962207 41 6
-1.2958957 0.0065588909 0.29918489 8 14
-0.83186108 0.0045008454 -0.014520402 32 7
-0.87125158 0.0048658201 0.23345479 4 15
-0.83384252 0.0071311314 0.014555307 74 8
-0.85678887 0.0077759926 0.044904254 21 9
-0.83434606 0.0078637563 -0.16218765 1 2
-0.83676505 0.0080326032 0.073210821 100 10
-0.81381506 0.0080963764 -0.12890202 15 3
-0.83766609 0.008479869 0.10285773 34 11
-0.80788827 0.0084604407 -0.099201649 10 4
-0.85133761 0.0092126438 0.13484652 13 12
-0.80886126 0.0088941725 -0.070770465 156 5
-1.2819227 0.014543422 0.24919657 9 13
-0.8347972 0.0097622005 -0.043752864 100 6
-1.2919238 0.015333385 0.2982851 8 14
-0.84380853 0.010309636 -0.014729831 28 7
-24.944088 0.30911434 6.6842613 1 15
-0.83977306 0.0128989 0.014660021 59 8
-0.85272205 0.013544361 0.044694912 15 9
-0.83034724 0.01347887 -0.16142441 3 2
-0.84864378 0.013924223 0.074256696 56 10
-0.81769121 0.01370166 -0.12952776 15 3
-0.83758646 0.014327674 0.10285773 34 11
-0.78796405 0.013616207 -0.096764266 5 4
-0.85323012 0.015042132 0.13515939 11 12
-0.79682696 0.014325981 -0.06972459 149 5
-1.2503871 0.022698732 0.24309067 1 13
-0.82672381 0.015296479 -0.043334179 100 6
-1.2800949 0.024132261 0.29558566 5 14
-0.83972013 0.015976749 -0.014660021 22 7
-25.088112 0.48609948 6.7236013 1 15
-0.84765935 0.018939983 0.014799641 52 8
-0.83663285 0.019131869 0.043857537 100 9
-0.83219558 0.019321226 -0.16180603 3 2
-0.84653395 0.019801738 0.074082382 80 10
-0.81560081 0.019363198 -0.12921488 13 3
-0.84540409 0.02036581 0.10383269 32 11
-0.7918188 0.019213397 -0.097251743 5 4
-0.84125572 0.02070659 0.13328218 12 12
-0.79670757 0.019888343 -0.06972459 146 5
-24.984337 0.62805712 4.8579974 2 13
-0.84656292 0.021576406 -0.044380896 100 6
-24.992046 0.64570904 5.7717943 3 14
-0.83359104 0.021682521 -0.014555307 100 7
-24.970167 0.65822619 6.6930604 3 15
-0.84950525 0.024915924 0.014834546 100 8
-0.8504535 0.025389398 0.044590238 100 9
-0.83400279 0.025189646 -0.16218765 4 2
-0.84438366 0.025650682 0.073908068 48 10
-0.82334352 0.025299177 -0.13046636 9 3
-0.8630985 0.026822289 0.10602634 25 11
-0.81944311 0.025608772 -0.10066409 5 4
-0.84306502 0.02664155 0.13359505 10 12
-0.78858829 0.025057804 -0.069027349 144 5
-1.2519106 0.04021753 0.24347228 0 13
-0.85238028 0.027680684 -0.044694912 100 6
-25.014341 0.81670016 5.7780929 3 14
-0.83941519 0.02769961 -0.014660021 100 7
-24.468756 0.81598127 6.5600276 1 15
-0.83732569 0.030264182 0.014625117 100 8
-0.86622828 0.031762961 0.045427613 100 9
-0.82988822 0.030720698 -0.16142441 9 2
-0.83622003 0.031247372 0.073210821 51 10
-0.81328237 0.030532388 -0.12890202 13 3
-0.86289597 0.032696605 0.10602634 21 11
-0.79544067 0.030418655 -0.09773922 5 4
-0.8389163 0.032227844 0.1329693 10 12
-0.79237592 0.030717121 -0.069375969 141 5
-20.908377 0.81783491 4.0672851 1 13
-0.85416788 0.033560436 -0.044799585 76 6
-20.720274 0.82134247 4.7874084 1 14
-0.84919184 0.033958465 -0.014834546 98 7
-20.347244 0.81723082 5.4564233 1 15
-0.83709401 0.036109276 0.014625117 100 8
-0.85401332 0.037287094 0.044799585 81 9
-0.8374989 0.036858745 -0.16295089 8 2
-0.84195924 0.037202474 0.073733754 41 10
-0.81896961 0.036473081 -0.12984063 13 3
-0.86265337 0.038569406 0.10602634 12 11
-0.85074145 0.038334366 -0.10456391 4 4
-0.85840434 0.038979687 0.136098 7 12
-0.80807102 0.036835589 -0.070770465 136 5
-20.141384 0.92517698 3.9192169 2 13
-0.83196646 0.038506862 -0.043648191 53 6
-20.15941 0.93658704 4.6591864 3 14
-0.84494597 0.039550953 -0.014764735 91 7
-19.85878 0.93304485 5.327014 1 15
-0.84481758 0.042205274 0.014764735 83 8
-1.4733461 0.073862985 -0.3405759 0 1
-0.83379251 0.042092133 0.043752864 75 9
-0.83722866 0.042558581 -0.16295089 8 2
-0.85362536 0.043541431 0.074779622 38 10
-0.82659352 0.042452071 -0.1310921 13 3
-0.83461642 0.043009955 0.102614 19 11
-0.81477708 0.042272933 -0.10017661 5 4
-0.85022843 0.044409614 0.13484652 7 12
-0.79785329 0.041813742 -0.069898903 132 5
-1.3096327 0.069093049 0.25492084 0 13
-0.83567393 0.04438084 -0.043857537 57 6
-19.827587 1.0564705 4.5840526 1 14
-0.84465718 0.045301415 -0.014764735 70 7
-19.828819 1.0669477 5.3208022 1 15
-0.85050023 0.048294906 0.014869451 61 8
-1.3210534 0.075246155 -0.30548352 0 1
-0.82750475 0.047423791 0.043438848 77 9
-0.82907957 0.047804385 -0.16142441 9 2
-0.84734207 0.049005769 0.074256696 36 10
-0.83614558 0.048651058 -0.13265644 14 3
-0.84222257 0.049299624 0.10358895 23 11
-0.8541041 0.050144885 -0.10505138 4 4
-0.83807474 0.049497131 0.1329693 6 12
-0.80948359 0.047950484 -0.070944771 115 5
-1.2816951 0.076371007 0.24957818 0 13
-0.83933985 0.050306864 -0.04406688 41 6
-20.175915 1.2128068 4.6663847 2 14
-0.83434904 0.050446156 -0.014590211 63 7
-20.160267 1.2259914 5.4119067 7 15
-0.84815603 0.053956013 0.014834546 47 8
-1.3593913 0.086954676 -0.31448159 1 1
-0.84111488 0.053950261 0.044171553 43 9
-0.82089829 0.052941255 -0.15989795 9 2
-0.82908535 0.053759653 0.072687887 35 10
-0.82199657 0.053444263 -0.13046636 13 3
-0.83790576 0.054772142 0.10310147 9 11
-0.82996339 0.054544106 -0.10212652 4 4
-0.84166062 0.055460162 0.13359505 4 12
-0.78129667 0.051756635 -0.068504408 119 5
-20.180746 1.3439393 3.9314287 1 13
-0.84495646 0.056418099 -0.044380896 45 6
-19.943356 1.3386185 4.614646 1 14
-0.82998621 0.056000739 -0.014520402 43 7
-20.028099 1.3548403 5.378778 1 15
-0.83778518 0.059171326 0.014660021 37 8
-1.3665433 0.096756607 -0.31628117 7 1
-0.85267109 0.06067137 0.044799585 27 9
-0.84009123 0.060070973 -0.16371413 5 2
-0.81677645 0.058547117 0.071642019 32 10
-0.82357371 0.059323303 -0.13077922 13 3
-0.84146279 0.060907323 0.10358895 9 11
-0.85729128 0.062203433 -0.10553886 4 4
-0.85701412 0.062484041 0.136098 1 12
-0.79284877 0.057944916 -0.069550283 101 5
-19.462341 1.4292243 3.793283 0 13
-0.8286072 0.061139859 -0.043543518 37 6
-19.261353 1.4246038 4.4589796 0 14
-0.83158004 0.061796997 -0.014555307 32 7
-18.3344 1.3689146 4.9263616 1 15
-0.84135044 0.065181501 0.014729831 33 8
-1.3541774 0.105387 -0.31358176 11 1
-0.82237017 0.064144231 0.043229505 31 9
-0.8279193 0.064867795 -0.16142441 1 2
-0.82032031 0.06456051 0.071990639 13 10
-0.81330454 0.064151175 -0.12921488 11 3
-0.83509213 0.066163227 0.10285773 4 11
-0.85683608 0.068186931 -0.10553886 4 4
-0.8723219 0.069572493 0.13860095 1 12
-0.78448081 0.062842257 -0.068853036 88 5
-0.82219946 0.066297032 -0.043229505 39 6
-5.1997538 0.42110127 1.2043879 0 14
-0.82913518 0.067438893 -0.014520402 21 7
-15.967887 1.3015722 4.2927728 1 15
-0.85082525 0.072044 0.014904355 31 8
-1.3553504 0.11500281 -0.31403166 13 1
-0.8119399 0.069179542 0.042706143 16 9
-0.83721447 0.071627356 -0.16333251 2 2
-0.82580483 0.0707964 0.072513573 8 10
-0.82856947 0.071324751 -0.13171785 10 3
-0.90975052 0.078633085 0.1121198 3 11
-0.80096394 0.069370896 -0.09871418 5 4
-0.86392993 0.075128369 0.13734947 1 12
-0.80784142 0.070392713 -0.070944771 77 5
-15.802732 1.382561 3.0834734 0 13
-0.82170397 0.072178662 -0.043229505 33 6
-15.801657 1.3908038 3.6622031 6 14
-0.82665223 0.073049687 -0.014485498 22 7
-15.759963 1.3982182 4.2394562 10 15
-0.82044464 0.075099334 0.014380784 20 8
-1.3603362 0.12499739 -0.31538138 12 1
-0.85122716 0.078366444 0.044799585 13 9
-0.82888782 0.076601796 -0.16180603 3 2
-0.87488729 0.081160828 0.076871365 3 10
-0.83789927 0.077877052 -0.13328218 12 3
-0.8123188 0.076071531 -0.10017661 5 4
-0.85749835 0.080453441 0.13641086 1 12
-0.80336308 0.075657174 -0.070596151 78 5
-15.823968 1.4958036 3.0895796 0 13
-0.82318205 0.077958472 -0.043334179 22 6
-15.787682 1.5007137 3.6613035 3 14
-0.83806616 0.079958379 -0.014694927 10 7
-0.82786047 0.081609994 0.014520402 7 8
-1.3497573 0.13329612 -0.31313187 1 1
-0.82283407 0.08154951 0.043334179 15 9
-0.81856483 0.081414923 -0.15989795 3 2
-0.86638427 0.086323984 0.076174118 3 10
-0.81964493 0.081955761 -0.13046636 13 3
-0.90857983 0.091168836 0.1121198 3 11
-0.79203081 0.079613484 -0.09773922 5 4
-0.84512335 0.085248433 0.13453366 3 12
-0.77902818 0.078856044 -0.068504408 74 5
-0.97271281 0.098632999 0.19004577 0 13
-0.79877371 0.081277274 -0.042078111 24 6
-5.151021 0.52594745 1.1953899 0 14
-0.81363058 0.083219424 -0.014276069 11 7
-15.779543 1.6195259 4.2503266 6 15
-0.61287349 0.064523727 -0.16512655 1 0
-0.83323652 0.088017762 0.014625117 7 8
-1.3526696 0.14312606 -0.31403166 5 1
-0.83813345 0.088978782 0.044171553 14 9
-0.82188094 0.087543681 -0.16066119 1 2
-0.81226969 0.086663105 0.071467713 9 10
-0.81512451 0.087255649 -0.12984063 13 3
-0.85857779 0.092210062 0.10602634 8 11
-0.82500863 0.088750623 -0.10188278 4 4
-0.83861572 0.090510324 0.13359505 8 12
-0.79628599 0.086222939 -0.070073217 59 5
-0.79818684 0.086851597 -0.042078111 24 6
-15.821371 1.7271327 3.6743507 1 14
-0.80110282 0.087593302 -0.01406664 24 7
-15.788975 1.7319617 4.2560205 3 15
-0.73911327 0.08303529 -0.19929068 6 0
-0.84849864 0.095624059 0.014904355 24 8
-1.1599296 0.13092698 -0.26949137 0 1
-0.85138392 0.096400864 0.044904254 40 9
-0.83685541 0.095051683 -0.16371413 1 2
-0.82352251 0.093682885 0.072513573 26 10
-0.82627141 0.094287746 -0.13171785 12 3
-0.8441245 0.096474245 0.10432017 13 11
-0.812536 0.093151346 -0.10042035 30 4
-0.84188831 0.096814111 0.13422079 8 12
-0.79370141 0.09141314 -0.069898903 100 5
-0.78367323 0.090812728 -0.04134541 39 6
-0.92722291 0.10761139 0.21550311 0 14
-0.81636196 0.095033914 -0.014345878 79 7
-0.82318848 0.095974222 0.22206675 54 15
-0.75963181 0.090580672 -0.20498469 10 0
-0.80298793 0.096177004 -0.18670937 1 1
-0.83880997 0.10076434 0.044276223 22 9
-0.86347717 0.10403352 -0.16905677 7 2
-0.84858036 0.10238877 0.074779622 65 10
-0.81188291 0.098248616 -0.12952776 11 3
-0.84738958 0.10269524 0.10480764 31 11
-0.79611832 0.096763834 -0.098470435 32 4
-0.83140546 0.1013473 0.13265644 60 12
-0.80294931 0.09802074 -0.070770465 30 5
-0.83794272 0.10258944 0.16409574 1 13
-0.78501928 0.096388333 -0.041450083 58 6
-0.9032588 0.11106615 0.21010427 1 14
-0.83752745 0.10328068 -0.014729831 100 7
-0.81868166 0.10110154 0.22103147 42 15
-0.76858097 0.09695819 -0.20757288 11 0
-0.84711832 0.10716604 0.014904355 100 8
-0.82744747 0.10482448 -0.19255811 33 1
-0.83612335 0.10621992 0.044171553 100 9
-0.8257463 0.10519452 -0.16180603 22 2
-0.83205283 0.1061455 0.073385134 24 10
-0.79747951 0.10201786 -0.12733766 7 3
-0.83680713 0.10734594 0.10358895 19 11
-0.80725479 0.10369796 -0.099932872 30 4
-0.81502283 0.10498521 0.13015349 89 12
-0.80621552 0.10399356 -0.071119085 48 5
-0.84111911 0.10879445 0.16485898 1 13
-0.81405503 0.10558277 -0.043020159 100 6
-0.85803425 0.11143912 0.19975655 4 14
-0.81697559 0.10639653 -0.014380784 100 7
-0.83519614 0.10906611 0.22569022 11 15
-0.74682111 0.099514522 -0.20187886 13 0
-0.82060152 0.10949158 0.014450593 32 8
-0.82090092 0.10982317 -0.19120839 60 1
-0.82746261 0.11084802 0.043752864 90 9
-0.81917387 0.11002871 -0.16066119 25 2
-0.81746954 0.1100903 0.072164953 27 10
-0.81242788 0.10955568 -0.12984063 4 3
-0.83802438 0.11330521 0.10383269 9 11
-0.81044531 0.10986465 -0.10042035 35 4
-0.8201617 0.11132738 0.1310921 14 12
-0.78572798 0.10693292 -0.069375969 100 5
-0.82283205 0.11227489 0.16142441 14 13
-0.81331748 0.11112142 -0.043020159 36 6
-0.84372032 0.1155753 0.19660722 3 14
-0.80432624 0.11046501 -0.014171354 100 7
-0.83634818 0.11501157 0.22620785 5 15
-0.75186586 0.10540026 -0.20343177 22 0
-0.77031124 0.10826019 0.013577973 100 8
-0.8027668 0.11296439 -0.18715927 23 1
-0.81875795 0.11550611 0.043334179 94 9
-0.79311484 0.11217088 -0.15570015 11 2
-0.79500145 0.11257921 0.070247531 68 10
-0.81946635 0.11633545 -0.1310921 18 3
-0.82345587 0.11719504 0.10212652 40 11
-0.80574822 0.11481835 -0.099932872 66 4
-0.81740892 0.11677112 0.13077922 17 12
-0.773148 0.11058608 -0.068330102 49 5
-0.79678488 0.11425056 0.15646338 22 13
-0.77100617 0.11082883 -0.040822048 89 6
-0.81976771 0.11798433 0.19120839 1 14
-0.8055349 0.1162227 -0.014206259 33 7
-0.78581405 0.11365757 0.21274926 7 15
-0.76066792 0.11205425 -0.20601997 42 0
-0.7873612 0.11612703 0.013892116 100 8
-0.77304184 0.11429061 -0.18041074 45 1
-0.81004983 0.11990673 0.04291549 100 9
-0.80981094 0.12016024 -0.15913472 9 2
-0.81587404 0.12135075 0.072164953 36 10
-0.78934801 0.11754634 -0.12639906 47 3
-0.8265658 0.12338339 0.102614 29 11
-0.79118443 0.11838444 -0.098226704 100 4
-0.822456 0.12321013 0.13171785 14 12
-0.7999413 0.12012296 -0.070770465 100 5
-0.80179197 0.12068705 0.15760824 14 13
-0.78603369 0.11845538 -0.041659426 68 6
-0.78424019 0.11846507 0.18311015 1 14
-0.79086375 0.11974817 -0.013961925 22 7
-0.80412257 0.12189911 0.21792565 6 15
-0.76179683 0.11752391 -0.2065376 46 0
-0.78653127 0.12162083 0.013892116 36 8
-0.7895782 0.12223326 -0.18445987 37 1
-0.79735112 0.12372138 0.042287458 100 9
-0.83029157 0.12912941 -0.16333251 9 2
-0.82684106 0.12874056 0.073210821 42 10
-0.79045987 0.12335856 -0.12671193 76 3
-0.83352917 0.13037816 0.10358895 33 11
-0.78251547 0.12253848 -0.097251743 100 4
-0.81376976 0.12772398 0.13046636 19 12
-0.80105138 0.12601429 -0.070944771 39 5
-0.79125512 0.12461475 0.15570015 28 13
-0.77137768 0.12176019 -0.040926725 100 6
-0.79200548 0.12544127 -0.01399683 100 7
-0.75142199 0.12130005 -0.20394942 49 0
-0.81527346 0.13189942 0.014415688 100 8
-0.79062921 0.12805395 -0.18490976 31 1
-0.79252505 0.1286449 0.042078111 100 9
-0.81968099 0.13334659 -0.16142441 12 2
-0.82002276 0.13354909 0.072687887 100 10
-0.79932731 0.13046505 -0.12827627 57 3
-0.83063966 0.13587347 0.10334522 52 11
-0.79731286 0.13056505 -0.099201649 57 4
-0.80116248 0.13148241 0.12858914 51 12
-0.82964176 0.13645387 -0.073559448 27 5
-0.76905698 0.12662697 0.15150236 14 13
-0.79809743 0.13169487 -0.042392131 46 6
-0.80173606 0.13258277 0.18760918 1 14
-0.80689311 0.13358027 -0.014276069 23 7
-0.71467531 0.11857002 0.1941143 9 15
-0.74293697 0.12525813 -0.20187886 48 0
-0.80841756 0.13658847 0.014310974 100 8
-0.7839517 0.13259532 -0.18356006 22 1
-0.80145347 0.13584347 0.04260147 100 9
-0.79550368 0.13512066 -0.156845 19 2
-0.8092494 0.13760076 0.071816333 100 10
-0.79060775 0.13471498 -0.1270248 23 3
-0.83554113 0.14267169 0.10407643 87 11
-0.80616558 0.13780032 -0.10042035 41 4
-0.80022502 0.13707256 0.12858914 40 12
-0.82476628 0.14142427 -0.073210821 34 5
-0.78750318 0.13531786 0.15531853 15 13
-0.82077807 0.1413303 -0.043648191 70 6
-0.80465585 0.138699 0.18850899 1 14
-0.77638322 0.1341047 -0.013752497 16 7
-0.6548202 0.11334234 0.17806751 24 15
-0.73443365 0.12910408 -0.1998083 37 0
-0.78580528 0.13827573 0.01392702 40 8
-0.80219817 0.14144923 -0.18805908 12 1
-0.82017887 0.14476711 0.043648191 45 9
-0.79456556 0.14053236 -0.156845 19 2
-0.79550749 0.14112854 -0.12796341 14 3
-0.85995859 0.15287223 0.10724504 100 11
-0.81690985 0.14551376 -0.10188278 42 4
-0.79237759 0.14157197 -0.070421837 49 5
-11.322688 2.0270727 2.2358999 2 13
-0.78834206 0.14127691 -0.041973442 37 6
-0.80366802 0.14431299 0.18850899 3 14
-0.64642847 0.11642721 0.17599694 24 15
-0.75254148 0.13757414 -0.20498469 25 0
-0.84382993 0.15456721 0.014974165 7 8
-0.82897013 0.15229394 0.044171553 14 9
-0.81287324 0.14963003 -0.16066119 1 2
-0.81903166 0.15091161 0.0728622 8 10
-0.87414742 0.16138232 -0.14079103 1 3
-0.84520644 0.15634464 0.10553886 100 11
-0.81004471 0.14998651 -0.10115156 53 4
-0.86041057 0.159623 0.13860095 1 12
-0.7894367 0.14659829 -0.070247531 72 5
-11.325999 2.1073291 2.2393346 5 13
-0.79126334 0.14750919 -0.042182785 35 6
-0.78351033 0.14620534 0.18400995 1 14
-0.84718895 0.15839399 -0.015043975 9 7
-0.65319514 0.12236024 0.17806751 24 15
-0.76674581 0.14570986 -0.2091258 23 0
-0.84865159 0.16142823 0.015078879 6 8
-1.3668005 0.26048383 -0.32123011 60 1
-0.85122442 0.16299561 0.075825498 7 10
-0.83242589 0.15984786 0.10407643 100 11
-0.79143375 0.15226291 -0.098957919 64 4
-0.85348499 0.16435516 0.13766235 1 12
-0.79621923 0.15361595 -0.070944771 87 5
-11.339925 2.191937 2.2450588 6 13
-0.7686711 0.14871851 -0.041031394 67 6
-0.80160183 0.15538007 0.18850899 1 14
-0.65803623 0.12790926 0.17962041 11 15
-0.74678236 0.1471896 -0.20394942 34 0
-0.86319846 0.17044829 0.015358118 3 8
-1.3745546 0.27167022 -0.32347962 30 1
-0.8442325 0.16762193 0.075302556 7 10
-0.84881091 0.16914694 0.10627007 100 11
-0.79816604 0.15919951 -0.099932872 15 4
-0.84069419 0.16798738 0.13578513 1 12
-0.80101633 0.16020414 -0.071467713 80 5
-11.363242 2.2767889 2.252691 6 13
-0.78523797 0.15761863 -0.041973442 18 6
-0.8463791 0.17004518 0.19930664 1 14
-0.66091472 0.13326378 0.1806557 23 15
-0.73248744 0.1496921 -0.20032595 22 0
-0.85026348 0.17391537 0.015148689 3 8
-0.82938135 0.17069994 0.074082382 8 10
-0.84763998 0.17492051 0.10627007 100 11
-0.81258702 0.16798285 -0.10188278 4 4
-0.85307211 0.17650743 0.13797522 1 12
-0.78622186 0.16296177 -0.070247531 72 5
-4.5249877 0.93955064 0.89832878 0 13
-0.84085572 0.17474505 -0.045008924 4 6
-0.64297247 0.13420673 0.17599694 24 15
-0.74657196 0.15787195 -0.20446704 16 0
-0.83729094 0.17736073 0.014939261 3 8
-0.77970427 0.16530471 -0.18400995 38 1
-0.80481577 0.17136239 0.071990639 9 10
-0.86936527 0.18542358 -0.14079103 1 3
-0.85222197 0.18207836 0.10700129 100 11
-0.85181904 0.18245868 0.13797522 1 12
-0.78314626 0.16789182 -0.070073217 87 5
-11.014053 2.3652298 2.1897242 1 13
-0.83961529 0.18061107 -0.045008924 4 6
-0.81122339 0.17494808 -0.014485498 11 7
-0.63257837 0.13665281 0.17340876 12 15
-0.76054949 0.16638286 -0.20860817 16 0
-0.84778476 0.18562189 0.015148689 3 8
-0.73284727 0.16072467 -0.17321232 28 1
-0.83278626 0.18340461 0.074605316 7 10
-0.84514761 0.18659095 0.10627007 100 11
-0.84862876 0.18782555 0.13766235 1 12
-0.79751647 0.17680517 -0.071467713 55 5
-10.776868 2.3931186 2.145838 2 13
-0.83446711 0.18545538 -0.044799585 4 6
-0.76693672 0.17325869 -0.21067871 11 0
-0.82306361 0.1862403 0.014729831 3 8
-0.85483217 0.19436997 0.076697052 6 10
-0.84382439 0.19248666 0.10627007 100 11
-0.90765566 0.207214 -0.11431345 2 4
-0.85307378 0.19506651 0.13860095 1 12
-0.78852576 0.18045156 -0.070770465 87 5
-10.54983 2.4181702 2.1038601 2 13
-0.85261822 0.19574541 -0.045846302 4 6
-10.527554 2.4188688 2.4938073 0 14
-10.724545 2.472014 2.9489844 0 15
-1.39596 0.32562047 -0.38408747 18 0
-0.84125018 0.19638433 0.015078879 3 8
-1.4288647 0.33408466 -0.33877629 4 1
-0.84375608 0.19805637 0.075825498 7 10
-0.84635937 0.19913504 0.10675755 100 11
-0.8421132 0.19860135 0.13703661 1 12
-0.80469805 0.19007421 -0.072339267 57 5
-10.345461 2.4474688 2.0664616 2 13
-0.85126609 0.20154446 -0.045846302 4 6
-10.301834 2.4428442 2.4443181 0 14
-10.237597 2.4332743 2.8195746 0 15
-1.3861979 0.33330837 -0.38201693 9 0
-0.85541171 0.20599781 0.015358118 3 8
-4.74193 1.1428148 -1.126105 5 1
-0.83464223 0.20192108 0.07512825 7 10
-0.85073566 0.20644346 0.10748877 100 11
-0.85222268 0.20727682 0.13891383 1 12
-0.7937063 0.19319105 -0.071467713 51 5
-10.137821 2.471334 2.0282996 2 13
-0.87312156 0.21316697 -0.047102366 3 6
-10.069159 2.460182 2.3930292 4 14
-9.9989548 2.4504273 2.7584937 0 15
-1.3913378 0.34483671 -0.38408747 3 0
-0.82293552 0.20411326 0.014799641 3 8
-4.767879 1.184347 -1.1342032 6 1
-0.83321226 0.20774306 0.07512825 3 10
-0.8624773 0.21519955 -0.14079103 1 3
-0.85316259 0.21319175 0.10797625 100 11
-0.82396519 0.20635439 0.13453366 1 12
-0.79233825 0.19872764 -0.071467713 51 5
-9.9280062 2.4937406 1.9897563 0 13
-0.88327235 0.22202659 -0.047730397 3 6
-9.8627615 2.4828424 2.3480392 4 14
-9.8734007 2.4910188 2.7284706 0 15
-4.1387963 1.0557355 -1.1444979 6 0
-0.80986559 0.20688383 0.014590211 3 8
-4.7540431 1.2153257 -1.1328535 7 1
-0.85107768 0.21836124 0.076871365 3 10
-0.81503648 0.20941718 -0.13328218 8 3
-0.84204113 0.21666938 0.10675755 37 11
-0.8626734 0.22245999 0.14110391 1 12
-0.79478973 0.20525052 -0.071816333 51 5
-9.8043575 2.5337522 1.9683858 0 13
-0.83916259 0.21717833 -0.045427613 4 6
-9.6678648 2.5056818 2.3057485 4 14
-0.99686003 0.25854796 -0.01797598 1 7
-9.5752983 2.4870415 2.6508248 0 15
-4.1201138 1.0816597 -1.1413921 6 0
-0.83160925 0.21863392 0.015009069 3 8
-4.7322507 1.2450136 -1.1297042 6 1
-0.84182703 0.22226292 0.076174118 3 10
-0.85938859 0.22722071 -0.14079103 1 3
-0.85202181 0.22559118 0.10821999 3 11
-0.83055031 0.22037153 0.136098 1 12
-0.8010397 0.21284074 -0.072513573 48 5
-9.7503805 2.5925524 1.961135 1 13
-0.85306615 0.22714269 -0.046264991 4 6
-9.4656067 2.5239098 2.261658 4 14
-9.6267586 2.5722785 2.6699774 1 15
-4.1217871 1.1129149 -1.1439801 6 0
-0.85322726 0.23069763 0.015427927 3 8
-4.7253246 1.2785296 -1.1301541 8 1
-0.87101924 0.23648754 0.078963101 2 10
-0.82361084 0.22423328 0.10480764 4 11
-0.82899159 0.2261645 0.136098 1 12
-0.79957247 0.21828814 -0.072513573 52 5
-9.3741217 2.5627105 1.8890091 0 13
-0.83604848 0.22887379 -0.045427613 4 6
-9.2715349 2.5398831 2.219367 4 14
-9.3272762 2.5621545 2.591814 0 15
-4.0655179 1.128232 -1.1305215 3 0
-0.83236933 0.23114912 0.015078879 3 8
-4.7350583 1.3167083 -1.1346531 7 1
-0.85399443 0.23827878 0.077568613 3 10
-0.87941885 0.24586897 0.1121198 3 11
-0.82362872 0.23073608 0.13547227 1 12
-0.79419237 0.22278883 -0.072164953 49 5
-4.5286832 1.2721027 0.91435677 0 13
-0.87292612 0.2453685 -0.047521055 3 6
-9.1072607 2.5633659 2.1842747 4 14
-9.1720295 2.5867794 2.5535088 0 15
-4.083756 1.1632876 -1.1377686 7 0
-0.87496424 0.2495704 0.015881689 5 8
-4.6997523 1.3414193 -1.1283545 7 1
-0.83343989 0.23819812 0.045427613 12 9
-0.8446911 0.24189216 0.076871365 6 10
-0.87772495 0.25184929 0.1121198 3 11
-0.85996526 0.24740356 0.14172964 6 12
-0.79265755 0.22818938 -0.072164953 49 5
-9.0436115 2.6068857 1.8294767 0 13
-0.86351621 0.24924099 -0.047102366 3 6
-8.9454412 2.5836611 2.1496322 2 14
-0.8740437 0.25277543 -0.015881689 6 7
-8.9018326 2.5761161 2.4831102 0 15
-4.0813065 1.1926837 -1.1393216 7 0
-0.82334554 0.24091896 0.014974165 7 8
-4.6568484 1.3635217 -1.1202562 12 1
-0.87779731 0.25735131 0.04793974 8 9
-0.84684831 0.24875927 0.077219985 3 10
-0.8302865 0.2443666 0.10627007 4 11
-0.86962914 0.25660557 0.14360686 1 12
-0.80446178 0.23752895 -0.073385134 46 5
-9.1197939 2.6962118 1.8485577 0 13
-0.83115798 0.24604233 -0.045427613 4 6
-8.796854 2.6057458 2.118139 2 14
-8.7100019 2.5849826 2.4344521 0 15
-4.0841961 1.2237635 -1.1424273 6 0
-8.8795776 2.664 0.16181871 2 8
-4.6194625 1.3867835 -1.1135077 10 1
-8.8558893 2.661948 0.484631 1 9
-5.0345225 1.5152199 -1.021973 2 2
-8.8100119 2.6531882 0.80497038 2 10
-5.6473198 1.7028762 -0.93422669 3 3
-8.7701969 2.6478789 1.1248541 1 11
-5.8737264 1.7745014 -0.75339633 0 4
-4.7628436 1.4407088 0.78811693 0 12
-0.80091935 0.24242206 -0.073210821 42 5
-8.7592754 2.654593 1.7791032 0 13
-8.8469791 2.6845424 -0.48452634 2 6
-8.6222801 2.618005 2.0803473 2 14
-8.8334026 2.6854742 -0.16115552 4 7
-8.5512867 2.6029704 2.3951116 5 15
-4.0663204 1.2494098 -1.1398392 7 0
-8.7006817 2.6750169 0.1588867 5 8
-4.6171184 1.421293 -1.1153073 10 1
-8.6352348 2.6598446 0.47353578 12 9
-4.9471736 1.5257304 -1.0063267 7 2
-8.6504021 2.6711292 0.79207134 3 10
-5.5525556 1.7156171 -0.92046052 19 3
-8.7273159 2.6998878 1.1216855 7 11
-5.5748672 1.7267751 -0.71659178 15 4
-4.7114162 1.4602299 0.78123385 0 12
-0.79540169 0.24682643 -0.0728622 44 5
-8.5567951 2.6585913 1.7417046 0 13
-8.679738 2.6984506 -0.4763619 7 6
-8.4586601 2.6329577 2.0452549 2 14
-8.6464367 2.6947207 -0.1580839 7 7
-8.3858309 2.6151066 2.3537006 5 15
-4.0466647 1.2735797 -1.1367333 7 0
-8.546382 2.6930218 0.15640847 7 8
-4.6110539 1.4538599 -1.1162071 10 1
-8.3402882 2.6328816 0.45835835 27 9
-4.8615227 1.5365645 -0.99106199 7 2
-8.5655317 2.7089217 0.78597051 4 10
-5.5385594 1.7537429 -0.92014766 11 3
-8.5436277 2.7085564 1.1004803 6 11
-5.8203201 1.8463137 -0.7497403 9 4
-8.6133623 2.7356281 1.4313755 0 12
-0.79180443 0.25163144 -0.072687887 40 5
-8.3925753 2.6703436 1.7119384 0 13
-8.5426998 2.7213964 -0.46987227 7 6
-8.3105745 2.6490452 2.013762 2 14
-8.4983521 2.7121704 -0.15571038 8 7
-8.223834 2.6277239 2.3133247 5 15
-4.0248051 1.2976493 -1.1331098 6 0
-8.3927317 2.7075422 0.15393023 7 8
-4.5822482 1.4800251 -1.1117082 10 1
-8.1530313 2.6349275 0.44904256 50 9
-4.7743673 1.5448388 -0.97541571 8 2
-8.4497452 2.7373388 0.7770806 6 10
-5.2108021 1.68907 -0.86758566 7 3
-8.4268093 2.7347848 1.0878059 7 11
-5.9149008 1.9218676 -0.76363337 7 4
-8.4517698 2.747777 1.4075974 0 12
-0.79192293 0.25776982 -0.0728622 36 5
-7.2686791 2.3687532 1.4860206 0 13
-8.3929558 2.7367563 -0.46264988 10 6
-8.3385553 2.7254589 -0.15312742 7 7
-4.026886 1.3286469 -1.1362157 7 0
-8.2388105 2.7215352 0.15145199 6 8
-4.5498643 1.5038422 -1.1063093 10 1
-8.0073957 2.6497426 0.44202951 22 9
-4.6982384 1.5565239 -0.96205902 10 2
-7.1846242 2.3816519 0.66220933 0 10
-5.2495031 1.7422081 -0.87603313 11 3
-7.0794153 2.3522623 0.91597003 0 11
-5.7961936 1.9270136 -0.74998403 12 4
-7.0135517 2.3344562 1.1707556 1 12
-0.80144531 0.26707131 -0.073908068 33 5
-7.032619 2.3448951 1.4409896 0 13
-8.2429266 2.751647 -0.45542756 7 6
-7.1619768 2.393584 1.7433707 0 14
-7.2388234 2.4206712 -0.13323167 2 7
-4.0138521 1.3554904 -1.1351804 6 0
-4.513411 1.5268271 -1.1000106 10 1
-4.6742425 1.5848716 -0.95938772 2 2
-7.0131078 2.3792634 0.64791578 33 10
-5.0726142 1.7229074 -0.84850067 12 3
-7.0477858 2.3965161 0.91402018 2 11
-5.8201857 1.9802184 -0.75485879 7 4
-7.0270014 2.3935537 1.1757616 1 12
-0.80333281 0.27394629 -0.074256696 32 5
-6.9566183 2.3736472 1.4287778 2 13
-6.9968863 2.3901138 -0.38749546 4 6
-6.91645 2.3653314 1.6875829 2 14
-6.8699012 2.3534305 1.9458016 3 15
-4.0097685 1.3853729 -1.1367333 7 0
-4.493434 1.5551128 -1.0977612 13 1
-6.9637446 2.4127741 0.38623938 21 9
-4.6463714 1.611674 -0.95595312 2 2
-6.9549165 2.4137945 0.64408094 43 10
-5.0492673 1.7543877 -0.84662342 9 3
-6.925889 2.4091387 0.90037078 18 11
-4.9156942 1.7108649 -0.63908291 3 4
-6.8758125 2.395756 1.153235 30 12
-0.80897474 0.2820316 -0.074953936 31 5
-6.869441 2.3975701 1.4142764 8 13
-7.0083132 2.4487836 -0.38906553 3 6
-6.8523607 2.3956342 1.6758853 6 14
-6.9419675 2.4296808 -0.12837991 17 7
-6.8277788 2.3923924 1.9385546 7 15
-3.8105643 1.3463979 -1.0828989 7 0
-6.8833957 2.4334836 0.12743747 43 8
-4.4512377 1.5753908 -1.0901128 7 1
-6.8812661 2.4367845 0.38257587 90 9
-4.6223402 1.6386715 -0.95328182 2 2
-6.8534017 2.4323013 0.63623691 71 10
-4.9106264 1.7437682 -0.82534832 15 3
-6.8644395 2.4402661 0.89452106 30 11
-5.9191427 2.1065478 -0.771433 7 4
-6.842598 2.4365373 1.1504192 33 12
-0.79009581 0.2816512 -0.073385134 34 5
-6.865479 2.4500887 1.4169476 8 13
-6.8805065 2.4568052 -0.3828899 53 6
-6.8501492 2.4486618 1.6794846 10 14
-6.8277059 2.4446716 1.9432135 6 15
-3.9684815 1.4326543 -1.1305215 7 0
-6.8549552 2.4773996 0.12722805 68 8
-4.3744369 1.5817968 -1.0739163 10 1
-6.8697209 2.4868033 0.3828899 80 9
-4.6292448 1.6775905 -0.95709801 2 2
-6.8460526 2.4822903 0.63710845 59 10
-4.9020472 1.7793553 -0.82597405 12 3
-6.8546991 2.4908431 0.89549601 28 11
-4.9625316 1.8042526 -0.64834493 3 4
-6.8476954 2.4923573 1.1541736 35 12
-0.79190451 0.28838623 -0.073733754 33 5
-6.8467989 2.4960914 1.416566 10 13
-6.8800721 2.5109427 -0.38383192 72 6
-6.8717642 2.5092697 1.6889325 19 14
-6.8646102 2.5093734 -0.1275771 80 7
-6.8231721 2.4969256 1.9468369 7 15
-3.9239471 1.4476205 -1.1206865 9 0
-6.8717003 2.5364666 0.12785633 78 8
-4.2846861 1.5832534 -1.0545706 8 1
-6.8713675 2.5404322 0.38393661 82 9
-4.6232429 1.7111063 -0.95824283 2 2
-6.8547115 2.539717 0.63954884 60 10
-4.8138814 1.7845299 -0.81314647 13 3
-6.8673625 2.5484941 0.89939582 27 11
-4.9628415 1.8436917 -0.65005112 9 4
-6.8601971 2.5499222 1.1591796 35 12
-0.79360658 0.29529715 -0.074082382 33 5
-6.8549623 2.5534227 1.4219086 11 13
-6.8684363 2.5598083 -0.38414595 72 6
-6.875989 2.5653553 1.6943314 26 14
-6.8731503 2.5670314 -0.12806576 82 7
-6.8512592 2.560216 1.959778 9 15
-3.8923082 1.4661248 -1.1144749 9 0
-6.87815 2.5935488 0.12831008 81 8
-4.2191114 1.5917454 -1.0410734 8 1
-6.8702807 2.5946927 0.38487867 88 9
-4.5946569 1.7370914 -0.95480824 2 2
-6.8708096 2.5990036 0.64268643 63 10
-4.7107849 1.7838151 -0.79781592 10 3
-6.8684206 2.6022112 0.90183324 28 11
-4.825819 1.8302653 -0.63372064 8 4
-6.8754706 2.6103723 1.1648113 39 12
-0.8064785 0.30635253 -0.07547687 30 5
-6.8649492 2.610491 1.4276329 13 13
-6.8709311 2.6155112 -0.38529736 64 6
-6.8802209 2.6204224 1.6997302 26 14
-6.8798094 2.6230154 -0.12851952 91 7
-6.8643589 2.6184969 1.9685777 7 15
-3.8786318 1.4911973 -1.1134396 9 0
-6.8920627 2.652519 0.12890348 72 8
-4.1663518 1.6043198 -1.0307257 7 1
-6.8785505 2.6514542 0.38634408 73 9
-4.6541595 1.7958899 -0.9696914 7 2
-6.8789806 2.6557574 0.64512682 58 10
-4.7593389 1.8393383 -0.80814058 9 3
-6.8838754 2.6617894 0.9062205 27 11
-5.0224404 1.944042 -0.66126311 6 4
-6.8759627 2.6642489 1.1679399 36 12
-0.79880148 0.30967426 -0.074953936 31 5
-6.8909473 2.6742055 1.4367918 27 13
-6.8715854 2.669452 -0.38634408 51 6
-6.8876548 2.6770778 1.7060288 26 14
-6.8711138 2.6734097 -0.12869404 70 7
-6.8697796 2.6742711 1.9753071 6 15
-3.8540049 1.5119199 -1.1092985 2 0
-6.8906002 2.7059472 0.12921762 63 8
-4.086412 1.6055621 -1.0136294 4 1
-6.8919401 2.7106409 0.38812348 70 9
-4.6564417 1.8332819 -0.97274429 7 2
-6.8737202 2.7076313 0.64634699 51 10
-4.7614098 1.8774885 -0.81064349 2 3
-6.8965154 2.7221715 0.91036409 24 11
-5.1900315 2.0496418 -0.68514949 4 4
-6.8815503 2.7204297 1.1720072 32 12
-0.7929697 0.31363878 -0.074605316 29 5
-6.8890142 2.7275519 1.4402263 39 13
-6.8885345 2.7301455 -0.38833284 44 6
-6.9018807 2.7368269 1.7141271 25 14
-6.8732023 2.7282333 -0.129078 49 7
-6.8688951 2.7292998 1.9804834 6 15
-3.8433561 1.5387882 -1.1092985 1 0
-6.8887291 2.75948 0.12953176 52 8
-4.038929 1.619545 -1.0046314 4 1
-6.8807449 2.760463 0.38854218 48 9
-4.605597 1.8495694 -0.96473032 8 2
-6.873137 2.7629828 0.64809006 42 10
-4.5304284 1.8221388 -0.77341211 5 3
-6.8980823 2.7772069 0.91304523 21 11
-4.6968856 1.8928981 -0.62177742 4 4
-6.8940187 2.7797661 1.177326 28 12
-0.78152293 0.31543833 -0.073733754 26 5
-6.8770847 2.7785232 1.4417528 35 13
-6.8938642 2.7867 -0.38969359 27 6
-6.9151211 2.7981031 1.7222252 19 14
-6.8892031 2.7904146 -0.12974119 38 7
-6.869853 2.7839727 1.9861774 9 15
-3.8077538 1.5546901 -1.1020516 2 0
-6.8878074 2.8150685 0.12988082 46 8
-3.9700911 1.6233975 -0.99023461 3 1
-6.785521 2.7774127 0.38425064 28 9
-4.4018207 1.8035234 -0.92466044 10 2
-6.8947277 2.8263283 0.65192497 43 10
-4.6583152 1.911464 -0.79750299 5 3
-6.8950515 2.8320849 0.91523886 18 11
-5.8369637 2.3986745 -0.77484536 3 4
-6.8890586 2.8338394 1.1798289 8 12
-6.9087033 2.8447402 -0.65366805 9 5
-6.9037833 2.8469429 -0.3913683 25 6
-6.8959255 2.8479297 -0.13022986 25 7
-6.7895494 2.8067703 1.9685777 1 15
-3.8110738 1.5871768 -1.1061926 4 0
-3.8939121 1.6240699 -0.97403812 7 1
-6.670126 2.784703 0.37880769 26 9
-4.3293452 1.8092281 -0.91206706 10 2
-4.9692144 2.0796852 -0.8531937 7 3
-6.9080691 2.8939588 0.91962618 5 11
-5.7029057 2.3902547 -0.75924611 7 4
-6.8199248 2.8612313 1.1713815 1 12
-6.8978596 2.89676 -0.65453959 16 5
-6.8833718 2.8920891 1.4512933 13 13
-6.8879514 2.8996742 1.7253746 7 14
-6.6665416 2.8105752 1.9385546 2 15
-3.7874537 1.6084586 -1.1025692 6 0
-6.7466135 2.8679366 0.12796104 6 8
-3.8358536 1.6313843 -0.96234065 9 1
-6.558639 2.7920854 0.37357411 30 9
-4.3148026 1.8386399 -0.91168547 10 2
-6.7427945 2.8746538 0.64129192 4 10
-4.5693998 1.9499573 -0.78686547 4 3
-6.801897 2.9054639 0.9081704 2 11
-4.5798945 1.957271 -0.61154038 2 4
-6.6889968 2.8613799 1.1522964 2 12
-6.7968812 2.9103372 -0.6468699 8 5
-6.8666224 2.9416196 1.4520565 10 13
-6.7385402 2.8895323 -0.38425064 6 6
-6.8532147 2.9415395 1.7217753 3 14
-6.7140079 2.8831768 -0.1275422 3 7
-6.7603478 2.9058719 1.9716836 9 15
-3.7601769 1.627952 -1.0979104 7 0
-6.6512003 2.8823669 0.12652995 7 8
-3.8011279 1.6480465 -0.95649189 6 1
-6.4730291 2.809181 0.3698059 37 9
-4.3684869 1.8976589 -0.92580527 8 2
-6.8468165 2.9756591 0.65314513 8 10
-4.5122023 1.9628973 -0.7793566 7 3
-6.88519 2.9980524 0.92206353 3 11
-4.6825924 2.0399368 -0.62713969 2 4
-6.7666364 2.9506454 1.1691914 5 12
-5.8907719 2.571167 -0.56232882 0 5
-6.5670443 2.8677065 1.3929057 3 13
-6.6486597 2.9061103 -0.3802731 10 6
-6.6896853 2.9268219 1.6857833 1 14
-6.6021214 2.8898861 -0.12579694 6 7
-6.4904022 2.8436828 1.8986967 9 15
-3.7263169 1.6427242 -1.0911812 9 0
-6.5532684 2.8917027 0.12502904 8 8
-3.784766 1.6708583 -0.9551422 2 1
-6.3738737 2.8165305 0.36520034 39 9
-4.2139635 1.863853 -0.89565748 10 2
-6.5080857 2.8799107 0.62264061 3 10
-4.4268384 1.9607805 -0.76684189 6 3
-6.9123383 3.0645678 0.92840075 4 11
-4.2697487 1.8938752 -0.5735172 6 4
-6.5988722 2.9297302 1.1435361 2 12
-6.5782027 2.9233029 -0.62978739 6 5
-6.8402925 3.0412052 1.4551095 4 13
-6.5471268 2.9135985 -0.37556285 10 6
-6.7929554 3.0258379 1.7168264 1 14
-6.5115752 2.9018626 -0.12443566 7 7
-6.395535 2.8528259 1.8764381 3 15
-3.6812749 1.653659 -1.0813459 6 0
-6.4544969 2.9021192 0.12352814 10 8
-3.757014 1.690046 -0.95109308 3 1
-6.2866731 2.8306186 0.36132747 36 9
-4.3905764 1.9787314 -0.93610895 7 2
-6.4151702 2.8925161 0.61566812 1 10
-4.3356209 1.956696 -0.75338852 9 3
-6.7731848 3.0596335 0.91255772 1 11
-4.6182103 2.0871415 -0.62226492 3 4
-6.7186422 3.0392318 1.1679399 2 12
-6.4686985 2.9288881 -0.6212461 5 5
-6.4558649 2.9244349 1.377641 1 13
-5.0313959 2.2812831 -0.28952253 1 6
-6.4628944 2.9330585 1.6385435 1 14
-6.4165049 2.9133561 -0.12300456 7 7
-6.2892833 2.8582423 1.8510739 7 15
-3.6186986 1.6560054 -1.0663346 3 0
-6.3613572 2.9137993 0.12213194 8 8
-3.7522101 1.7194802 -0.95289266 2 1
-6.1796193 2.8344698 0.35630322 40 9
-4.1125927 1.8881032 -0.87962949 8 2
-6.3278303 2.9064624 0.6092186 5 10
-4.1585283 1.9118305 -0.72491741 7 3
-6.7137899 3.0894167 0.90743923 2 11
-5.2003794 2.3941071 -0.70294243 1 4
-6.6685562 3.0728338 1.1629339 1 12
-6.3997593 2.9503295 -0.61653972 0 5
-6.5422492 3.018786 1.4005381 2 13
-6.3353667 2.9260085 -0.3657237 7 6
-6.5913787 3.0456421 1.6763352 1 14
-6.3288555 2.9270227 -0.12171309 7 7
-6.2253485 2.8817899 1.8381329 7 15
-3.5632746 1.6608242 -1.0533936 2 0
-6.2706957 2.9240732 0.12077066 8 8
-3.7242222 1.7382151 -0.9488436 5 1
-6.0787468 2.8384418 0.35159299 31 9
-4.088974 1.9110645 -0.87733978 7 2
-6.2640724 2.9303069 0.60503519 1 10
-4.4066324 2.0623417 -0.77059627 4 3
-6.3852096 2.9910498 0.86575991 1 11
-4.6946621 2.2011385 -0.63664556 3 4
-6.1807127 2.8992038 1.0812751 1 12
-6.5103536 3.0593777 1.3982484 2 13
-6.2556572 2.9410207 -0.36226952 3 6
-6.4676852 3.0434618 1.6502409 0 14
-6.2413297 2.9396086 -0.1204216 9 7
-6.1409287 2.89363 1.8189803 2 15
-3.5012705 1.6610272 -1.0383821 2 0
-6.1905179 2.9394724 0.11961879 7 8
-3.7263858 1.7702143 -0.95244277 1 1
-5.9992595 2.8525066 0.34813881 28 9
-3.8645763 1.8391703 -0.83192724 8 2
-6.1234555 2.9154909 0.59335625 1 10
-4.0015974 1.9069495 -0.70207798 5 3
-6.5379691 3.1184509 0.88940257 2 11
-5.4642768 2.6074965 -0.74340308 9 4
-6.4883022 3.0989318 1.1388431 1 12
-4.7369456 2.2634673 -0.45931077 0 5
-6.0979609 2.9164197 1.3139107 1 13
-6.1719193 2.9544404 -0.35860601 4 6
-6.2868791 3.0108175 1.6092998 0 14
-6.1310143 2.9388061 -0.11867636 6 7
-6.3173981 3.0308568 1.8774734 1 15
-3.4426208 1.6627451 -1.0244058 1 0
-6.0929437 2.9441314 0.11811788 6 8
-3.7034106 1.7910955 -0.94974333 1 1
-5.9185762 2.8636997 0.34457996 26 9
-3.938549 1.9073616 -0.85062653 7 2
-6.1011586 2.9573019 0.59318197 1 10
-3.9423118 1.9117324 -0.69394338 5 3
-6.052268 2.9375184 0.82603049 1 11
-5.0888295 2.4720988 -0.6946553 4 4
-6.0761914 2.9530616 1.0700119 0 12
-6.1185246 2.9762759 -0.59527373 5 5
-6.2010136 3.019079 1.3406241 1 13
-6.0888219 2.965771 -0.3549425 3 6
-5.990695 2.9205623 1.5386652 1 14
-6.0528402 2.9534745 -0.11755942 6 7
-6.0379515 2.9475143 1.8003453 2 15
-3.4034817 1.6725075 -1.0161237 1 0
-5.9986715 2.9504116 0.11668679 5 8
-3.6893849 1.8154022 -0.94929349 2 1
-5.841104 2.8767118 0.34123048 23 9
-3.9286592 1.9365475 -0.85138983 7 2
-5.9897552 2.9538212 0.58429211 1 10
-3.842073 1.8963675 -0.67861283 4 3
-6.076108 3.0016789 0.83212399 1 11
-4.4935117 2.2208307 -0.61544025 5 4
-6.064281 2.9997873 1.0715762 2 12
-4.8481421 2.3992605 -0.47325566 2 5
-6.0307827 2.9871478 1.3081865 3 13
-5.9892335 2.9691734 -0.35033691 3 6
-5.9427443 2.9474168 1.5314667 1 14
-5.9734883 2.965265 -0.11640756 4 7
-5.9739742 2.9681058 1.7874043 1 15
-3.3502553 1.6754885 -1.0037004 1 0
-5.9194341 2.961648 0.11553493 7 8
-3.6853335 1.8454764 -0.95154291 5 1
-5.7392454 2.8752525 0.33641556 20 9
-3.8978376 1.9544436 -0.84757364 7 2
-5.9226894 2.9723289 0.57976002 4 10
-3.8220146 1.9189295 -0.67736137 6 3
-5.9366946 2.9832494 0.81579345 1 11
-4.5577021 2.2922845 -0.62640852 3 4
-5.9184361 2.9779568 1.0493625 1 12
-4.4789386 2.2556098 -0.43874201 0 5
-5.8660226 2.9567194 1.2768939 2 13
-5.8904171 2.9703026 -0.34573138 3 6
-5.9324603 2.9941027 1.5341661 1 14
-5.8794608 2.9699278 -0.11497645 2 7
-5.8932867 2.9782043 1.7692871 2 15
-3.3043349 1.6807374 -0.99334759 1 0
-5.8398066 2.9729614 0.11438307 7 8
-3.6518486 1.8599062 -0.94614416 7 1
-5.654974 2.8825951 0.33264738 22 9
-3.7581832 1.9173694 -0.82009715 7 2
-5.8668284 2.9944594 0.5762738 4 10
-3.8437068 1.9635392 -0.68361872 4 3
-5.8379545 2.9848609 0.80506897 1 11
-3.9181316 2.0041461 -0.54036868 0 4
-5.9027767 3.021903 1.0503011 2 12
-5.8679619 3.0053723 -0.57679671 4 5
-5.8911858 3.0198629 1.286816 3 13
-3.9272404 2.0148621 -0.23132494 2 6
-5.795785 2.9747927 1.5040227 1 14
-5.7737293 2.9660208 -0.11330102 3 7
-5.7538047 2.9583223 1.7335701 2 15
-3.2410481 1.6771297 -0.97781837 1 0
-5.7590566 2.9813859 0.11319631 9 8
-3.6197414 1.8754948 -0.94119519 11 1
-5.5855722 2.8952844 0.32971656 26 9
-3.7049632 1.9221119 -0.81131989 6 2
-5.7502947 2.9857652 0.56686091 4 10
-3.5971065 1.8685474 -0.64200711 6 3
-5.7611403 2.9952271 0.79726928 1 11
-3.6715987 1.9104978 -0.50819516 0 4
-5.790957 3.0145812 1.0340319 1 12
-3.6346164 1.8936732 -0.35855874 1 5
-5.7359185 2.9910212 1.2574313 3 13
-3.8886447 2.0286138 -0.22985955 2 6
-5.7783308 3.0169864 1.5049226 1 14
-5.6908526 2.9738405 -0.11207936 3 7
-5.7215514 2.9911537 1.7299466 2 15
-3.2124603 1.6901571 -0.972642 1 0
-5.6673269 2.9842494 0.11180011 10 8
-3.5551679 1.8728415 -0.92769814 11 1
-5.5175219 2.9090569 0.32689041 31 9
-3.616792 1.9085313 -0.79491037 3 2
-5.7333627 3.0266979 0.56720954 3 10
-3.7883241 2.0015829 -0.67861283 7 3
-5.7278066 3.0288775 0.79556316 1 11
-3.6532452 1.9326606 -0.50746399 4 4
-5.7348552 3.0364482 1.0277746 1 12
-3.48575 1.8471678 -0.34513673 0 5
-5.7310386 3.03827 1.2608659 3 13
-5.6457367 2.9955745 -0.33495015 4 6
-5.7123785 3.0334897 1.4932251 1 14
-5.6298614 2.9909298 -0.11127654 3 7
-5.5265455 2.9385159 1.6771475 4 15
-3.1801429 1.7016053 -0.96643037 1 0
-5.5934691 2.9954221 0.11075297 12 8
-3.5626197 1.908659 -0.933097 11 1
-5.4407516 2.9173052 0.3235409 29 9
-3.7953982 2.0367806 -0.8372699 6 2
-5.7068267 3.0638216 0.56668663 4 10
-3.6385305 1.9550526 -0.65420902 3 3
-5.550921 2.9851141 0.77387041 2 11
-4.0801992 2.1951234 -0.56888616 3 4
-5.5935073 3.0117924 1.0061866 1 12
-4.8250456 2.6001914 -0.4795309 0 5
-5.6440187 3.0428045 1.2463645 3 13
-5.5491052 2.9941332 -0.33044925 6 6
-5.5778918 3.0121818 1.4635316 1 14
-5.5595818 3.0035458 -0.11029921 6 7
-5.5653729 3.009186 1.6952648 2 15
-3.1953371 1.738538 -0.97471261 1 0
-5.5144672 3.0028393 0.10960111 10 8
-3.5731657 1.9465357 -0.93939561 10 1
-5.3536181 2.9188857 0.31956339 30 9
-3.6363232 1.9842347 -0.80521399 8 2
-5.6310868 3.0739923 0.56128299 5 10
-3.6386614 1.9879837 -0.656712 5 3
-5.6135478 3.0695081 0.78556985 1 11
-3.6485448 1.9958645 -0.51063257 1 4
-5.5827408 3.0564606 1.0080638 1 12
-4.4538231 2.440419 -0.44431996 0 5
-5.5279527 3.0302279 1.2253754 3 13
-4.3653684 2.3949239 -0.26094711 2 6
-5.5464787 3.0454204 1.4608321 1 14
-5.4946604 3.0182185 -0.1094266 8 7
-5.4104915 2.9744415 1.6543714 3 15
-3.1628363 1.7495821 -0.96850091 1 0
-5.4461327 3.0151145 0.10865869 10 8
-3.5202806 1.9497167 -0.92904782 10 1
-5.2824502 2.9281106 0.3165279 33 9
-3.8180943 2.1181459 -0.84871852 7 2
-5.5572262 3.0842259 0.55605364 5 10
-3.6056988 2.0027859 -0.65327036 5 3
