# .PCD v0.7 - Point Cloud Data file format
VERSION 0.7
FIELDS x y z intensity ring
SIZE 4 4 4 4 2
TYPE F F F F U
COUNT 1 1 1 1 1
WIDTH 191
HEIGHT 1
VIEWPOINT 0 0 0 1 0 0 0
POINTS 191
DATA ascii
1.6608057 1.8451602 -0.2171921 39 5
1.6843927 1.8452929 -0.21858659 56 5
1.7012945 1.837875 -0.21910954 63 5
1.709133 1.844403 -0.13178195 23 6
1.7296152 1.8450775 -0.31052312 49 4
1.7181749 1.8303111 -0.21963248 60 5
1.7288054 1.839704 -0.13230531 62 6
1.7629697 1.8545386 -0.31417918 7 4
1.7364058 1.8240435 -0.22032972 60 5
1.7841394 1.8507615 -0.31564164 6 4
1.7657031 1.829078 -0.22242144 55 5
1.7557114 1.816823 -0.13240999 7 6
1.7955452 1.8386788 -0.40704253 68 3
1.7890099 1.8294314 -0.31417918 7 4
1.7881848 1.8266735 -0.22364163 12 5
1.7739432 1.8102283 -0.13282867 7 6
1.8169967 1.834204 -0.40891972 66 3
1.8059313 1.8211257 -0.31491041 42 4
1.8205451 1.8339409 -0.226082 53 5
1.7953 1.8059868 -0.13345671 7 6
1.9079741 1.9013247 -0.5235799 1 2
1.8423584 1.8340161 -0.41173556 55 3
1.8369008 1.8266697 -0.31807902 76 4
1.8149294 1.8029314 -0.22381593 52 5
1.8248794 1.8102883 -0.13471277 7 6
1.8237932 1.807317 -0.044817779 8 7
1.8662689 1.8346184 -0.50869679 58 2
1.8609463 1.824921 -0.32002893 51 4
1.8417038 1.8041604 -0.22555906 54 5
1.8500067 1.810397 -0.13565481 44 6
1.8306463 1.7889494 -0.044678163 39 7
1.8945373 1.8365761 -0.51289463 75 2
1.8774027 1.81806 -0.41392565 6 3
1.8628522 1.7995648 -0.22660492 54 5
1.8772895 1.8109781 -0.13670154 65 6
1.8776487 1.8094275 -0.045515876 59 7
1.9147279 1.829754 -0.51480269 65 2
1.9017951 1.8154911 -0.4164286 6 3
1.9009272 1.8121279 -0.32246631 6 4
1.8987672 1.8081722 -0.22939391 45 5
1.8844112 1.7919927 -0.13628285 22 6
1.8963479 1.8014542 -0.045655496 16 7
1.9221835 1.813277 -0.61006725 40 1
1.9277723 1.8160058 -0.51480269 64 2
1.9320005 1.8180804 -0.42018303 47 3
1.9207636 1.805611 -0.32368499 5 4
1.9290891 1.8109022 -0.23148565 9 5
1.9027026 1.7842592 -0.13670154 6 6
1.9015803 1.7813367 -0.045480974 5 7
1.9476382 1.8117582 -0.61411637 7 1
1.9533482 1.8145297 -0.51823723 59 2
1.9518851 1.8112676 -0.42174736 68 3
1.9464239 1.8043041 -0.32587865 6 4
1.9504572 1.8055112 -0.23253153 75 5
1.9341756 1.78856 -0.13806225 8 6
1.9169079 1.7707314 -0.045550782 6 7
1.9551834 1.7941096 0.046318687 10 8
1.9631114 1.8007516 -0.61501622 5 1
1.97755 1.8114573 -0.52129018 63 2
1.970312 1.8029311 -0.42299888 62 3
1.9721606 1.8027246 -0.32807231 56 4
1.9541854 1.7837913 -0.23148565 62 5
1.9573117 1.7828912 -0.046213973 6 7
1.9862255 1.7984751 -0.71796405 29 0
1.9735923 1.7857829 0.046458308 57 8
1.9915317 1.801383 -0.61996508 6 1
2.0120027 1.8173457 -0.52701449 10 2
1.9887182 1.7944241 -0.42425033 20 3
1.988803 1.7900995 -0.23410031 49 5
1.9856919 1.7854183 -0.13994636 68 6
1.9801248 1.7785368 -0.046458308 6 7
2.0145843 1.798718 -0.72365808 69 0
1.9979483 1.7826115 0.046737548 64 8
2.0171483 1.7991099 -0.62401426 7 1
2.0290394 1.8071723 -0.52815932 64 2
2.023334 1.8001922 -0.42894334 6 3
2.0104921 1.7868813 -0.33026594 6 4
2.0146642 1.7880735 -0.23566914 54 5
2.0130539 1.784761 -0.14099309 62 6
2.007463 1.7779278 -0.046807356 24 7
2.0357926 1.7922689 -0.7267639 49 0
2.0193536 1.7765437 0.046946973 58 8
2.0355124 1.7901314 -0.62581384 59 1
2.0371799 1.7890774 -0.52701449 60 2
2.0566409 1.8042618 -0.43332353 12 3
2.0393393 1.7871947 -0.33294708 6 4
2.0344868 1.7785509 -0.14162111 62 6
2.0198262 1.7638698 -0.046807356 9 7
2.0483224 1.7768174 0.047330927 60 8
2.0597396 1.7860898 -0.62941307 44 1
2.062978 1.7863781 -0.53044903 63 2
2.0736687 1.7937366 -0.4342621 71 3
2.0742972 1.7923824 -0.33660313 6 4
2.0484831 1.7675802 -0.23671499 6 5
2.0544171 1.770825 -0.14214447 12 6
2.0472438 1.7627746 -0.047156405 5 7
2.0694244 1.7712069 -0.72986972 6 0
2.091413 1.7881306 -0.63526177 6 1
2.0813704 1.7770323 -0.53197551 63 2
2.0756199 1.7702429 -0.43207204 64 3
2.0988491 1.7881552 -0.33855307 7 4
2.0729132 1.7635645 -0.23810948 34 5
2.0834706 1.7706668 -0.14329587 51 6
2.0686469 1.7562042 -0.047365833 5 7
2.0979798 1.7704211 -0.73556381 7 0
2.08516 1.7583588 0.047610167 6 8
2.1038456 1.7734863 -0.63526177 6 1
2.1018698 1.770566 0.14402856 23 9
2.1147542 1.7801578 -0.53731817 56 2
2.1045589 1.7696941 -0.43551362 55 3
2.1067207 1.7696296 -0.33782184 37 4
2.0989132 1.7605739 -0.23967829 51 5
2.1003742 1.7599266 -0.14360988 65 6
2.1007926 1.7584043 -0.047819596 6 7
2.138505 1.7792072 -0.74539888 9 0
2.1127615 1.756543 0.047959212 6 8
2.1266665 1.7674744 -0.6384111 6 1
2.115715 1.757126 0.14413324 58 9
2.1396737 1.7738695 -0.44020665 25 3
2.1465433 1.7776693 -0.34220913 5 4
2.128042 1.7598444 -0.24159572 51 5
2.1264675 1.7566683 -0.14455192 57 6
2.1268976 1.7551509 -0.048133738 44 7
2.1538606 1.7666854 -0.74643415 43 0
2.149719 1.7620318 0.048517693 7 8
2.1495049 1.7612309 -0.64156044 7 1
2.1561167 1.7641327 -0.54151595 58 2
2.1749477 1.7776397 -0.44489968 6 3
2.1619768 1.7651511 -0.34269661 5 4
2.1541662 1.7543925 -0.14559864 66 6
2.1390989 1.7402596 -0.048133738 63 7
2.1736526 1.7576791 -0.74902231 47 0
2.1619678 1.746981 0.048517693 54 8
2.1738765 1.7559768 -0.6451596 52 1
2.1836605 1.7613641 -0.54533213 70 2
2.1949952 1.7686105 -0.446464 61 3
2.1912572 1.7637074 -0.34537774 6 4
2.1710417 1.7449386 -0.24368747 6 5
2.1788208 1.7493141 -0.14643602 68 6
2.1699159 1.7402967 -0.048552595 64 7
2.1788027 1.7355837 0.048622403 12 8
2.209734 1.7570734 -0.54876673 59 2
2.207289 1.7532434 -0.446464 64 3
2.2069321 1.7504489 -0.34586522 7 4
2.1956632 1.7396387 -0.24508193 6 5
2.2168806 1.7395055 -0.65055847 4 1
2.2420349 1.7573473 -0.55372775 51 2
2.2306671 1.7459263 -0.44865409 63 3
2.2363014 1.7484487 -0.34854636 67 4
2.2297378 1.741437 -0.24752231 7 5
2.2080569 1.7220237 -0.14675003 38 6
2.2148077 1.7254244 -0.049006358 6 7
2.2443845 1.7359099 -0.65505749 5 1
2.2521865 1.7375494 -0.4505313 66 3
2.2456107 1.7299784 -0.34805888 55 4
2.2595112 1.7388028 -0.24943975 57 5
2.2580285 1.7357802 -0.14926216 55 6
2.2366157 1.7168372 -0.049215786 33 7
2.2691486 1.7292545 -0.65865672 5 1
2.2932096 1.7456933 -0.56021523 9 2
2.2787154 1.7321486 -0.45334715 40 3
2.2827079 1.7314134 -0.25065991 4 5
2.2815366 1.7280189 -0.14999487 62 6
2.305794 1.7324984 -0.66585511 46 1
2.3069115 1.7308195 -0.56059688 58 2
2.3078406 1.729629 -0.45678869 58 3
2.2997432 1.7210543 -0.35268989 5 4
2.294739 1.7154359 -0.25065991 5 5
2.299648 1.7172278 -0.15041354 62 6
2.3299885 1.7228427 -0.56326818 56 2
2.3233366 1.7154168 -0.45741442 57 3
2.3372636 1.7238095 -0.35658973 8 4
2.3162835 1.7064644 -0.2517058 5 5
2.3692343 1.725776 -0.56975567 50 2
2.3464372 1.7072906 -0.45960453 54 3
2.3669045 1.7202883 -0.35927087 63 4
2.3445601 1.7015482 -0.2534489 5 5
2.3839843 1.7092854 -0.4646104 52 3
2.3724005 1.6991 -0.35829589 55 4
2.3725884 1.6967285 -0.25519201 22 5
2.4155388 1.7084001 -0.57509834 6 2
2.4168332 1.7074178 -0.4686777 20 3
2.411777 1.7019536 -0.36243945 37 4
2.4419043 1.7015954 -0.57853287 61 2
2.4368014 1.6961449 -0.47024205 62 3
2.4366398 1.6941392 -0.36438939 6 4
2.4502127 1.6802088 -0.47055492 58 3
2.4631474 1.6871831 -0.36658302 49 4
2.4766142 1.673015 -0.47337076 54 3
2.5046794 1.6666274 -0.47649944 54 3
2.5426884 1.6664255 -0.48150533 27 3
