# .PCD v0.7 - Point Cloud Data file format
VERSION 0.7
FIELDS x y z intensity ring
SIZE 4 4 4 4 2
TYPE F F F F U
COUNT 1 1 1 1 1
WIDTH 123
HEIGHT 1
VIEWPOINT 0 0 0 1 0 0 0
POINTS 123
DATA ascii
3.6669297 -0.13574193 -0.064050332 33 7
3.6598995 -0.16107467 -0.063945621 60 7
3.6426766 -0.18644227 -0.063666381 56 7
3.5432444 -0.20430218 -0.186002 34 6
3.6412861 -0.2118682 -0.063666381 54 7
3.5417318 -0.2290335 -0.186002 25 6
3.6417139 -0.23741388 -0.063701279 16 7
3.5321221 -0.25256601 -0.18558332 62 6
3.6260061 -0.26182374 -0.063456953 5 7
3.4582462 -0.26974076 -0.30347627 0 5
3.5163348 -0.27612403 -0.1848506 62 6
3.6341071 -0.28728685 -0.063631475 6 7
3.4344418 -0.29202032 -0.30155888 42 5
3.5183015 -0.30100626 -0.18505996 62 6
3.6240437 -0.31196451 -0.063491859 12 7
3.414463 -0.31434602 -0.29999006 8 5
3.5220807 -0.32611352 -0.18537398 15 6
3.4121852 -0.33817565 -0.29999006 61 5
3.4918942 -0.34792188 -0.18390857 6 6
3.7016535 -0.38318166 0.064957857 20 8
3.3501244 -0.35329464 -0.41362458 8 4
3.4057789 -0.36156812 -0.29964143 63 5
3.4695203 -0.37017229 -0.18286185 6 6
3.5988209 -0.38587359 -0.063177712 6 7
3.7227392 -0.41165188 0.065376714 12 8
3.3002329 -0.37134698 -0.40777487 26 4
3.407131 -0.38578427 -0.29999006 64 5
3.4787583 -0.39573941 -0.18348989 44 6
3.5900791 -0.41030735 -0.063072994 7 7
3.7177887 -0.43739766 0.065341808 6 8
3.305444 -0.39532059 -0.40874982 6 4
3.410289 -0.41027483 -0.300513 26 5
3.4937561 -0.42217225 -0.18443193 67 6
3.5831568 -0.43487874 -0.06300319 6 7
3.6948011 -0.46086669 0.064992763 6 8
3.3262362 -0.421381 -0.41167468 8 4
3.389554 -0.43180692 -0.29894418 6 5
3.5780501 -0.45962834 -0.062968284 31 7
3.6736507 -0.48429754 0.064678617 36 8
3.2112346 -0.42789972 -0.51310509 21 3
3.3231356 -0.44517204 -0.41167468 70 4
3.3884315 -0.45572534 -0.29911849 6 5
3.4776247 -0.46957526 -0.18390857 7 6
3.5786326 -0.48575827 -0.063038096 7 7
3.6860256 -0.51213408 0.064957857 59 8
3.2041779 -0.45031786 -0.51247936 16 3
3.2943938 -0.46475595 -0.4085061 52 4
3.3772767 -0.47825235 -0.29842126 16 5
3.470221 -0.49388549 -0.18369922 7 6
3.5573375 -0.50818461 -0.06272395 5 7
3.6862237 -0.53907603 0.065027662 58 8
3.2048645 -0.47325322 -0.51310509 5 3
3.294996 -0.48832566 -0.40899354 42 4
3.3816507 -0.50358105 -0.29911849 61 5
3.4627378 -0.51750958 -0.18348989 6 6
3.563591 -0.53448993 -0.062898472 6 7
3.676441 -0.56388795 0.064922951 10 8
3.2014825 -0.49561569 -0.51310509 6 3
3.3819897 -0.52779132 -0.29946712 17 5
3.4669333 -0.54290724 -0.18390857 9 6
3.5301411 -0.55469912 -0.062374901 6 7
3.6921587 -0.59270996 0.065272003 9 8
3.2057443 -0.51921725 -0.51435655 6 3
3.3015726 -0.53651226 -0.41069973 6 4
3.370357 -0.55010515 -0.29876989 6 5
3.4551749 -0.56580657 -0.18348989 6 6
3.5498617 -0.58322084 -0.062793761 47 7
3.6445434 -0.61119527 0.064504094 38 8
3.7973495 -0.63886547 0.20180747 5 9
3.178669 -0.53763151 -0.51060218 34 3
3.2899179 -0.55821997 -0.40972477 6 4
3.3448298 -0.56993985 -0.29685244 6 5
3.4432654 -0.58856815 -0.1830712 7 6
3.5457036 -0.60798913 -0.062793761 55 7
3.6520066 -0.63869095 0.064713523 61 8
3.1748378 -0.55980963 -0.51060218 34 3
3.260529 -0.57667965 -0.40655616 20 4
3.3525395 -0.59536725 -0.29789832 5 5
3.4390728 -0.6125921 -0.1830712 7 6
3.6494262 -0.6645292 0.064748429 56 8
3.2642326 -0.60086566 -0.40753111 63 4
3.3483014 -0.61875772 -0.29789832 5 5
3.426857 -0.63513041 -0.1826525 7 6
3.5211408 -0.65451199 -0.062514521 5 7
3.6446979 -0.68999052 0.064748429 56 8
3.3419433 -0.64174229 -0.29772401 31 5
3.4282229 -0.66017163 -0.18296652 7 6
3.4988146 -0.67566556 -0.062200375 6 7
3.6299815 -0.71348995 0.064573906 24 8
3.2613664 -0.64754272 -0.40826234 6 4
3.3393357 -0.66544694 -0.29789832 6 5
3.4274478 -0.68487161 -0.18317586 59 6
3.4900908 -0.69928956 -0.062130567 42 7
3.2606549 -0.67109573 -0.40874982 6 4
3.3189991 -0.68551946 -0.29650384 6 5
3.4128044 -0.70675778 -0.1826525 6 6
3.5086193 -0.72851622 -0.062549427 57 7
3.2442417 -0.69136041 -0.40728739 6 4
3.3258226 -0.7111733 -0.29754972 5 5
3.3804467 -0.72470492 -0.18118709 6 6
3.5034478 -0.75299305 -0.062549427 63 7
3.2353342 -0.71370256 -0.40679988 7 4
3.312995 -0.73265356 -0.29685244 6 5
3.3870044 -0.75088084 -0.18181513 6 6
3.2283373 -0.73583078 -0.40655616 67 4
3.2844913 -0.75043917 -0.29476073 17 5
3.3795974 -0.774652 -0.18171045 7 6
3.4788105 -0.79931045 -0.062305093 6 7
3.2153921 -0.75653207 -0.40558121 25 4
3.2926109 -0.77712673 -0.2959809 47 5
3.3935432 -0.80282503 -0.18275717 67 6
3.4653628 -0.82173193 -0.062165473 32 7
3.279362 -0.79820967 -0.29528365 6 5
3.3742735 -0.82318318 -0.18202448 65 6
3.2756419 -0.82156897 -0.29545796 5 5
3.2794719 -0.84690785 -0.29632953 6 5
3.3431158 -0.86521101 -0.18097776 6 6
3.2677028 -0.86824727 -0.29580659 8 5
3.3350637 -0.88801515 -0.18087308 7 6
3.2692497 -0.893139 -0.29650384 76 5
3.3441939 -0.91549522 -0.18171045 31 6
3.2341611 -0.90786362 -0.29388916 60 5
3.2277441 -0.9304201 -0.29388916 52 5
