# .PCD v0.7 - Point Cloud Data file format
VERSION 0.7
FIELDS x y z intensity ring
SIZE 4 4 4 4 2
TYPE F F F F U
COUNT 1 1 1 1 1
WIDTH 208
HEIGHT 1
VIEWPOINT 0 0 0 1 0 0 0
POINTS 208
DATA ascii
2.9890454 0.5853442 -0.15962468 2 6
2.9894302 0.54327285 -0.265825 67 5
2.9989865 0.54338765 -0.15972935 76 6
2.987262 0.5213604 -0.26530206 11 5
2.9948363 0.52106667 -0.15931067 88 6
2.9986894 0.50180805 -0.26599932 10 5
2.9905212 0.49883169 -0.15889199 81 6
2.9986286 0.48245052 -0.37292022 6 4
2.9962175 0.47991711 -0.26547641 12 5
2.99808 0.46037793 -0.37243277 70 4
2.9857087 0.45687824 -0.26425621 11 5
2.9991686 0.457331 -0.15899664 12 6
3.0012209 0.43943614 -0.37243277 83 4
2.9888256 0.43602297 -0.26425621 12 5
3.0102708 0.43700552 -0.15941535 13 6
3.0577116 0.44225806 -0.053927936 0 7
3.0042155 0.41847298 -0.37243277 78 4
3.0017366 0.41599172 -0.26512775 102 5
2.9934635 0.41324791 -0.15836863 11 6
2.9882226 0.39659083 -0.47743803 61 3
2.9913201 0.39540827 -0.37048283 81 4
2.9848135 0.3924298 -0.26338464 92 5
3.0022159 0.39311883 -0.15868263 20 6
3.0041018 0.39176315 -0.052880794 91 7
2.9850385 0.37498078 -0.47649944 8 3
2.9940076 0.3745153 -0.37048283 74 4
3.0052752 0.37379414 -0.26495346 74 5
3.0029056 0.37190297 -0.15857796 17 6
2.9928706 0.36906925 -0.052636456 114 7
2.9993534 0.35552871 -0.47837666 10 3
3.0044348 0.35453603 -0.37145779 48 4
2.9895585 0.34907657 -0.15774059 14 6
2.9933882 0.34793523 -0.052601553 108 7
3.0065796 0.33671135 -0.58807337 15 2
2.9762404 0.33173591 -0.47430936 68 3
2.9930837 0.33149806 -0.36975163 90 4
2.9824755 0.32874256 -0.2625131 11 5
3.0038924 0.32897946 -0.15836863 16 6
3.0050066 0.31477904 -0.58731008 35 2
2.9824677 0.3108395 -0.47493511 99 3
2.9973536 0.31027594 -0.36999539 78 4
2.9847515 0.30739206 -0.2625131 19 5
3.0021956 0.30706924 -0.15815927 16 6
2.9980609 0.30506033 -0.052601553 15 7
3.0071821 0.29326767 -0.58731008 12 2
2.9865816 0.28968018 -0.47524795 76 3
2.9876416 0.28767785 -0.36853293 81 4
3.0205915 0.28925309 -0.26547641 113 5
3.0082927 0.28595617 -0.15836863 18 6
3.0061395 0.28416345 -0.052706268 18 7
3.0170224 0.27510312 0.052880794 63 8
2.9935613 0.2703287 -0.58425713 11 2
2.9944806 0.26883119 -0.47618657 19 3
2.9975326 0.26699445 -0.36950788 81 4
2.9908299 0.2648192 -0.26268741 87 5
2.9923553 0.26285052 -0.15742657 34 6
2.9881747 0.26090679 -0.052357223 13 7
3.0048766 0.25338286 0.052636456 77 8
2.9730141 0.25017354 -0.6888001 61 1
2.9875064 0.24929428 -0.58273071 11 2
3.0021467 0.24893327 -0.4771252 11 3
2.9952805 0.24678499 -0.3690204 83 4
2.9786625 0.24332102 -0.26146722 86 5
2.9980142 0.24332175 -0.15763591 72 6
2.9998055 0.24188623 -0.052531745 22 7
2.9985974 0.23178369 0.052496839 81 8
2.9805171 0.22986142 -0.69014984 90 1
2.9930892 0.22872923 -0.58349395 11 2
2.9900239 0.22692043 -0.47493511 12 3
3.014746 0.22720921 -0.37121406 26 4
2.9723411 0.22192813 -0.26076996 76 5
3.007607 0.2229764 -0.15805461 76 6
2.9854667 0.21976335 -0.052252505 48 7
3.0041318 0.21112424 0.052566648 93 8
2.9781611 0.20877677 -0.68925005 99 1
3.0044055 0.20850758 -0.58540201 13 2
2.97774 0.20509046 -0.472745 12 3
3.0043759 0.2053446 -0.36975163 12 4
3.0016482 0.20305306 -0.26321036 58 5
2.985177 0.20036881 -0.15679854 11 6
2.9729614 0.19798537 -0.052008174 11 7
3.0055325 0.19014488 0.052566648 90 8
2.9698219 0.18736666 -0.68700051 91 1
2.9959908 0.18691801 -0.58349395 97 2
2.9790993 0.18429692 -0.472745 10 3
2.9997919 0.18400049 -0.3690204 67 4
2.9831052 0.18088675 -0.26146722 78 5
2.9944777 0.18000284 -0.15721723 15 6
3.0082057 0.17924738 -0.052601553 20 7
2.9625809 0.16770948 -0.79509211 65 0
2.9710574 0.16662885 -0.68700051 94 1
2.9854612 0.16534609 -0.58120424 95 2
2.9822855 0.16360402 -0.4730579 68 3
2.9871283 0.16230106 -0.36731425 104 4
2.9922533 0.16048315 -0.26216447 86 5
3.007628 0.15972856 -0.15784526 19 6
2.9854205 0.15698172 -0.052182697 17 7
2.9598207 0.14683126 -0.79405683 12 0
3.0058973 0.14806527 0.052531745 13 8
2.9799337 0.14626361 -0.6888001 73 1
2.998322 0.14611854 0.1573219 6 9
2.9892745 0.14306307 -0.47399649 9 3
3.0000861 0.14200617 -0.36877668 78 4
2.9773788 0.13884829 -0.26076996 80 5
2.9847283 0.13762496 -0.1565892 70 6
2.9844458 0.1360461 -0.052147791 17 7
2.951123 0.125753 -0.79146868 74 0
2.9968681 0.12665437 0.052357223 15 8
3.0052557 0.12543261 0.15763591 47 9
2.9874787 0.12364466 -0.58120424 11 2
2.9803319 0.12178582 -0.47243217 12 3
3.0049713 0.12121675 -0.36926416 74 4
2.9742939 0.11790106 -0.26042137 77 5
3.0035782 0.11748687 -0.15753125 86 6
2.9873211 0.11528455 -0.052182697 14 7
2.9577212 0.10535353 -0.79302156 9 0
2.9976795 0.10573063 0.052357223 18 8
2.9485774 0.10348213 -0.68115181 68 1
2.9961176 0.1030565 -0.58273071 11 2
2.9751868 0.10077701 -0.47149354 12 3
2.9790273 0.097262308 -0.26076996 77 5
2.9843631 0.09587235 -0.15648453 101 6
2.9923477 0.084629282 0.052252505 87 8
2.960916 0.08322458 -0.68385124 100 1
2.9908764 0.081975766 -0.58158582 65 2
2.9817417 0.080163106 -0.47243217 12 3
2.9885247 0.078257732 -0.3670705 12 4
2.9876006 0.076668277 -0.26146722 78 5
2.9789693 0.074886084 -0.15617052 81 6
2.9806559 0.072845012 -0.052043077 71 7
3.0008624 0.063906983 0.052392125 84 8
2.9711771 0.062237266 -0.68610072 94 1
2.9815617 0.060893074 -0.57967776 100 2
2.9842138 0.058863156 -0.472745 16 3
2.990983 0.0574301 -0.36731425 12 4
2.9694445 0.053387642 -0.15564716 40 6
2.9690955 0.051826354 -0.051833645 16 7
2.9754364 0.041548859 -0.68700051 94 1
2.9819212 0.039555959 -0.57967776 100 2
2.9904778 0.03810348 -0.47368363 61 3
2.9932959 0.036571953 -0.36755794 10 4
2.9883859 0.034425512 -0.26146722 61 5
2.9797306 0.032765511 -0.15617052 14 6
2.9813824 0.031222545 -0.052043077 21 7
2.9795511 0.020801175 -0.6879003 91 1
2.9821246 0.018738681 -0.57967776 98 2
2.9748681 0.017135482 -0.47118065 99 3
2.9974484 0.015696134 -0.36804545 67 4
2.9566755 0.013417144 -0.25867823 77 5
2.9718976 0.011930203 -0.15575182 70 6
2.9855273 0.010421772 -0.052112885 20 7
2.956239 -0 -0.68250149 21 1
2.9861093 -0.0020846978 -0.580441 96 2
2.9650381 -0.0036224793 -0.46961632 24 3
2.9855745 -0.005210815 -0.36658302 44 4
2.9686518 -0.0072537996 -0.25972411 76 5
2.9858894 -0.0088593382 -0.15648453 90 6
3.0035243 -0.01048432 -0.052427031 25 7
2.9600642 -0.020665482 -0.68340129 29 1
2.9708669 -0.024370708 -0.47055492 9 3
2.9775252 -0.02598447 -0.36560807 9 4
2.9645441 -0.027940994 -0.25937548 76 5
2.9737718 -0.029585177 -0.15585649 101 6
2.9793832 -0.031201163 -0.052008174 45 7
2.9637449 -0.041384373 -0.68430108 78 1
2.9700849 -0.043546837 -0.57738805 88 2
2.9686489 -0.045080513 -0.47024205 10 3
2.9752862 -0.04673953 -0.36536431 12 4
2.9802134 -0.048898052 -0.26076996 42 5
2.9734929 -0.05034513 -0.15585649 101 6
2.9618571 -0.064110771 -0.57586157 100 2
2.9722118 -0.065891892 -0.47086781 10 3
2.9768724 -0.067554682 -0.36560807 10 4
2.9698405 -0.069469541 -0.25989842 15 5
2.9790587 -0.071245886 -0.15617052 93 6
2.977037 -0.085236199 -0.57891452 96 2
2.9618068 -0.086352229 -0.46930346 74 3
2.9842649 -0.088570915 -0.36658302 10 4
2.9573495 -0.089321941 -0.25885254 11 5
2.9844778 -0.092226811 -0.15648453 113 6
2.9803119 -0.10563719 -0.57967776 98 2
2.9611504 -0.10651046 -0.46930346 99 3
2.9815898 -0.10932993 -0.36633927 12 4
2.9646184 -0.11026201 -0.2595498 12 5
2.9755788 -0.12627447 -0.57891452 98 2
2.9623079 -0.1272652 -0.46961632 84 3
2.9807765 -0.1296223 -0.36633927 97 4
2.9956234 -0.13236327 -0.26233879 91 5
2.9707031 -0.14685084 -0.57815129 91 2
2.9692392 -0.14833699 -0.47086781 73 3
2.9778168 -0.15032862 -0.36609554 25 4
2.9588103 -0.1514401 -0.25920117 81 5
2.9661591 -0.16895008 -0.47055492 20 3
2.9806583 -0.17134173 -0.36658302 12 4
2.9517138 -0.17174543 -0.25867823 73 5
2.9546478 -0.1874439 -0.57547992 75 2
2.9629359 -0.18952738 -0.47024205 19 3
2.9754276 -0.19189079 -0.36609554 11 4
2.9650178 -0.20889437 -0.57776964 8 2
2.9398661 -0.20866935 -0.46680051 77 3
2.9700556 -0.21237516 -0.36560807 12 4
2.9540927 -0.23041713 -0.46930346 99 3
2.9645422 -0.23279391 -0.36512056 17 4
2.9622095 -0.2523886 -0.47086781 78 3
2.956867 -0.25349292 -0.36438939 35 4
2.9603751 -0.27306238 -0.47086781 76 3
2.9426713 -0.29216161 -0.46836486 73 3
2.9444883 -0.31311575 -0.46899059 76 3
