# .PCD v0.7 - Point Cloud Data file format
VERSION 0.7
FIELDS x y z intensity ring
SIZE 4 4 4 4 2
TYPE F F F F U
COUNT 1 1 1 1 1
WIDTH 1290
HEIGHT 1
VIEWPOINT 0 0 0 1 0 0 0
POINTS 1290
DATA ascii
-2.4949574 2.054491 -0.86600858 6 0
-3.8571017 3.1772888 0.087227128 10 8
-2.5803421 2.12707 -0.77203202 12 1
-3.8522811 3.1767046 0.2616798 7 9
-2.6347799 2.174263 -0.66401535 7 2
-3.7423551 3.0904465 0.42462277 33 10
-3.5408187 2.9250584 -0.72742033 5 3
-3.9810126 3.2910395 0.63420814 2 11
-3.6938393 3.0558093 -0.58862901 3 4
-3.8456748 3.1825504 0.79061991 1 12
-3.6996732 3.0638993 -0.42026496 8 5
-3.816843 3.1631806 0.9635855 3 13
-3.8454897 3.1880536 -0.26178449 8 6
-3.8454733 3.1903055 1.153549 1 14
-3.8341033 3.1831341 -0.086982794 7 7
-3.8179209 3.1708236 1.3298123 1 15
-2.4542224 2.0491395 -0.85669106 7 0
-3.804136 3.1784947 0.086529031 9 8
-2.6181366 2.1883259 -0.78777856 7 1
-3.8162224 3.191988 0.26073778 7 9
-3.1494663 2.6361647 -0.79834485 7 2
-3.6952627 3.0941052 0.42165947 34 10
-3.7095761 3.1082919 -0.76652896 6 3
-3.9138272 3.2817633 0.62713969 3 11
-3.5847423 3.0068884 -0.57449216 5 4
-3.9126306 3.2842505 0.80907917 3 12
-3.7132816 3.1191273 -0.42427412 6 5
-3.8869104 3.2661314 0.98686421 4 13
-3.7849226 3.1826868 -0.25916767 8 6
-3.8275793 3.2208388 1.1548988 1 14
-3.7909307 3.1911285 -0.086494125 7 7
-3.7587538 3.1662862 1.3168714 3 15
-2.4944041 2.112416 -0.87584364 7 0
-3.7604954 3.1868751 0.086040363 9 8
-2.6830649 2.2745991 -0.81207329 7 1
-3.7557697 3.1862504 0.25812095 7 9
-3.0501661 2.5894763 -0.7777375 7 2
-3.6507926 3.1004808 0.41904479 35 10
-3.6877851 3.1341147 -0.76652896 7 3
-3.8197494 3.2485616 0.61568397 1 11
-3.5062079 2.9829621 -0.56523001 7 4
-3.7707837 3.2103219 0.78436255 0 12
-3.7733123 3.2147484 -0.43368697 6 5
-3.8191876 3.2549834 0.97541571 3 13
-3.7474148 3.1960723 -0.25812095 8 6
-3.8583632 3.2930243 1.1710953 1 14
-3.745748 3.19804 -0.085970551 7 7
-3.8261526 3.2689974 1.3484472 3 15
-2.4957168 2.1436243 -0.88153768 9 0
-3.7184408 3.196106 0.0855866 11 8
-2.5769844 2.2157736 -0.78462929 13 1
-3.7107246 3.192853 0.25655088 7 9
-2.9516766 2.541532 -0.75713015 7 2
-3.6064146 3.1063881 0.41643015 34 10
-3.4309044 2.9572992 -0.7174086 9 3
-3.8225303 3.2971923 0.61982757 3 11
-3.3936198 2.9282596 -0.55036199 5 4
-3.8095784 3.289501 0.79719013 3 12
-3.6814301 3.1810906 -0.42566866 5 5
-3.8008261 3.2854185 0.97656047 5 13
-3.702353 3.2025571 -0.25655088 8 6
-3.7910779 3.2816176 1.1575981 1 14
-3.6885607 3.1940045 -0.085167743 7 7
-3.7608993 3.2589402 1.3334358 3 15
-2.5549796 2.2257118 -0.90793723 7 0
-3.6734266 3.2022769 0.085063025 9 8
-2.5922959 2.2606072 -0.79407722 9 1
-3.6748004 3.2068622 0.25560883 7 9
-3.1601124 2.7596552 -0.81551766 8 2
-3.5561311 3.106585 0.41311821 32 10
-3.3982778 2.9707775 -0.71490556 9 3
-3.7755136 3.3028846 0.61592776 3 11
-3.2595613 2.8525262 -0.53183788 8 4
-3.6720941 3.215807 0.77309924 1 12
-3.6111834 3.1646924 -0.42009068 6 5
-3.6286936 3.1811574 0.93801707 5 13
-3.6618886 3.2125196 -0.25529483 9 6
-3.6626332 3.2154377 1.1252052 2 14
-3.6436355 3.1998842 -0.084644176 8 7
-3.6625974 3.2188032 1.3065187 3 15
-2.4423792 2.1577961 -0.87325549 9 0
-3.6240156 3.2040024 0.084434748 9 8
-2.5706122 2.2734849 -0.79227757 10 1
-3.6239064 3.207288 0.25362006 8 9
-2.8365388 2.5122066 -0.73652273 7 2
-3.5090044 3.1088746 0.41015494 34 10
-3.3375461 2.9590478 -0.70645815 9 3
-3.7226653 3.3028138 0.61105299 2 11
-3.610738 3.2046361 -0.59277254 8 4
-3.7071555 3.2925231 0.78530115 3 12
-3.6163685 3.2130198 -0.42322829 5 5
-3.6401424 3.2364163 0.94679433 4 13
-3.62445 3.22473 -0.25424811 13 6
-3.6755986 3.2713871 1.1360028 1 14
-3.601794 3.2079544 -0.084190413 7 7
-3.6212893 3.2275839 1.2997893 1 15
-2.4243782 2.1722162 -0.87222022 10 0
-3.5782969 3.2072411 0.083876267 9 8
-2.6417191 2.3694472 -0.81927174 10 1
-3.5707731 3.2038705 0.25142196 7 9
-2.6060939 2.3399572 -0.68080652 7 2
-3.4709125 3.1186485 0.40823749 36 10
-2.5680635 2.3082402 -0.54689491 1 3
-3.6159706 3.252408 0.5971598 1 11
-3.5248342 3.1726596 -0.58229178 6 4
-3.5774939 3.2211902 0.76246166 1 12
-3.5864494 3.2315192 -0.42235672 6 5
-3.5766332 3.2249391 0.93610895 6 13
-3.5742381 3.2239089 -0.25225934 17 6
-3.622292 3.2695479 1.126555 3 14
-3.5585356 3.2142549 -0.083701737 8 7
-3.5978026 3.2508636 1.2992717 4 15
-2.3880863 2.1691847 -0.86445564 10 0
-3.5351033 3.2133129 0.083387598 8 8
-2.5217199 2.2929797 -0.78687876 11 1
-3.5276377 3.2099013 0.24995655 6 9
-2.5795338 2.3488412 -0.67813522 8 2
-3.4363477 3.1301272 0.40666869 37 10
-2.5548067 2.3287733 -0.5475207 6 3
-3.6225092 3.3043277 0.60203457 5 11
-3.4914255 3.1858742 -0.58034182 7 4
-3.6263974 3.3113544 0.77779222 3 12
-3.5408328 3.2343566 -0.41956773 6 5
-3.6111138 3.3008673 0.95099211 4 13
-3.5280638 3.2272153 -0.25058457 18 6
-3.6358953 3.3270156 1.1378024 1 14
-3.5115027 3.215445 -0.083108358 7 7
-3.577868 3.2785115 1.3003069 3 15
-2.3970399 2.2080536 -0.87325549 9 0
-3.4969728 3.2223949 0.08300364 9 8
-2.5901749 2.3884711 -0.81342304 11 1
-3.4822178 3.2121727 0.24828181 6 9
-2.5259783 2.331722 -0.66821313 7 2
-3.3895323 3.1310575 0.40370542 35 10
-2.813097 2.5994892 -0.60665292 5 3
-3.6086783 3.3369956 0.60349703 1 11
-3.5128086 3.2506187 -0.58765399 6 4
-3.5559359 3.2916791 0.76746756 1 12
-3.4977036 3.2400424 -0.41712737 6 5
-3.4742365 3.2205594 0.92084426 2 13
-3.4899063 3.2362161 -0.24943319 18 6
-3.4840176 3.2330196 1.0973113 0 14
-3.4699204 3.2221913 -0.082654595 8 7
-3.5611305 3.308049 1.3023775 3 15
-2.3339484 2.1794896 -0.85565579 9 0
-3.4553962 3.2289815 0.082549877 10 8
-2.5012543 2.3381763 -0.79047799 9 1
-3.4465804 3.2241251 0.24733976 7 9
-2.5182381 2.3573501 -0.67050284 8 2
-3.3405099 3.1281817 0.40039349 33 10
-3.2431567 3.0391419 -0.70395517 7 3
-3.4998615 3.2819917 0.58911645 1 11
-3.4674366 3.2527246 -0.58375424 5 4
-3.5861573 3.3664477 0.77904367 3 12
-3.4465206 3.2364979 -0.41364115 6 5
-3.6110401 3.3933661 0.96320391 5 13
-3.4468584 3.2413461 -0.24796779 17 6
-3.6194847 3.4048717 1.1472504 2 14
-3.4216986 3.2210639 -0.08202631 7 7
-3.5590429 3.3526986 1.310142 6 15
-2.3481319 2.2236261 -0.86652619 7 0
-3.4057555 3.2262969 0.081886694 9 8
-2.3901131 2.2657561 -0.76033455 13 1
-3.4042664 3.2282693 0.24587436 10 9
-2.5875793 2.4555213 -0.69339991 5 2
-3.2998085 3.13359 0.39812744 31 10
-3.4200349 3.2488973 -0.74713105 13 3
-3.4112582 3.2428243 0.57790446 1 11
-3.4331384 3.2659059 -0.58180428 6 4
-3.3928721 3.2287307 0.74181229 1 12
-3.4036427 3.2412434 -0.41120079 6 5
-3.3712313 3.2126245 0.90519798 6 13
-3.4073684 3.2481947 -0.24671172 12 6
-3.4066799 3.2498107 1.0869635 1 14
-3.389003 3.2352078 -0.081781976 8 7
-3.5026085 3.344826 1.2977188 3 15
-2.0876629 2.004096 -0.77542186 7 0
-3.358633 3.226444 0.081293307 8 8
-2.3366981 2.2455146 -0.74818724 10 1
-3.3701286 3.2408817 0.24503697 8 9
-2.8136897 2.7076735 -0.75903821 7 2
-3.2597423 3.1380157 0.39586139 30 10
-3.1340818 3.019156 -0.68925035 10 3
-3.5343103 3.4070871 0.6027658 3 11
-3.3793921 3.2588835 -0.576442 7 4
-3.5450873 3.4210591 0.78029525 3 12
-3.3700335 3.2532661 -0.40980628 6 5
-3.5286105 3.40873 0.95366341 6 13
-3.3544524 3.2427533 -0.24451362 10 6
-3.479739 3.3650427 1.1175569 1 14
-3.3496587 3.2415137 -0.081363119 8 7
-3.3029227 3.1985197 1.2319787 2 15
-2.1802089 2.1223829 -0.81528002 12 0
-3.3251331 3.2380691 0.081014074 8 8
-2.2679298 2.2100909 -0.73109096 10 1
-3.3222487 3.2386508 0.24315289 10 9
-2.7530341 2.6856356 -0.74758971 15 2
-3.2292011 3.1523454 0.3948155 31 10
-3.2024953 3.127367 -0.70896107 7 3
-3.4528275 3.374182 0.59277254 1 11
-3.0585129 2.9909377 -0.52525693 7 4
-3.4652355 3.3898561 0.76778048 2 12
-3.3301537 3.2599897 -0.40771458 6 5
-3.2887499 3.2217054 0.89489418 2 13
-3.3080516 3.2417464 -0.24273418 10 6
-3.3949413 3.3292186 1.0977612 1 14
-3.3069665 3.2452106 -0.080874451 9 7
-3.446507 3.3833275 1.2940953 4 15
-1.9745796 1.9485594 -0.74332833 10 0
-3.2896397 3.2485588 0.080699928 10 8
-2.2389705 2.2117815 -0.72659194 7 1
-3.2825122 3.2449169 0.24189681 13 9
-2.4676352 2.4410763 -0.67470068 8 2
-3.192091 3.1588373 0.39289808 17 10
-3.1651444 3.1343591 -0.7055195 6 3
-3.2783148 3.2486942 0.56669247 2 11
-3.2946646 3.2660377 -0.56961739 7 4
-3.4302671 3.4028351 0.7652775 3 12
-3.2903466 3.2663143 -0.40562281 6 5
-3.4506297 3.4266226 0.94526786 6 13
-3.2683396 3.2478676 -0.24147813 9 6
-3.4420893 3.4229176 1.1207062 5 14
-3.257864 3.2408495 -0.080211259 9 7
-3.4063745 3.3909507 1.2878836 6 15
-1.9459068 1.9472654 -0.7376343 9 0
-3.2470992 3.2516353 0.080211259 9 8
-2.1408689 2.1446083 -0.69959778 10 1
-3.2386208 3.2465429 0.24032672 18 9
-2.8261526 2.8350441 -0.77811909 7 2
-3.1404271 3.1514072 0.38923752 32 10
-3.2560899 3.2697566 -0.73086196 6 3
-3.3843758 3.4009557 0.58911645 1 11
-3.2633827 3.280515 -0.56815493 11 4
-3.3841438 3.4042857 0.76027155 3 12
-3.2365716 3.2581089 -0.40178797 6 5
-3.4100227 3.4339123 0.94068843 6 13
-3.2287035 3.2535934 -0.24022207 9 6
-3.3975263 3.4261086 1.1139576 2 14
-3.2168574 3.2450526 -0.079757497 8 7
-3.3663032 3.3981793 1.2816719 5 15
-2.0176914 2.0474913 -0.77024549 9 0
-3.1934507 3.2428789 0.07944335 10 8
-2.1217432 2.1553359 -0.69824809 12 1
-3.2046716 3.2576833 0.23948936 24 9
-2.7347236 2.781903 -0.75827497 7 2
-3.1071782 3.1618865 0.38784304 39 10
-1.9764495 2.0126538 -0.4467769 1 3
-3.2826896 3.3451564 0.57546705 2 11
-3.1681149 3.2295284 -0.55548048 6 4
-3.3132796 3.3798664 0.74963403 5 12
-3.1947963 3.2601416 -0.3993476 6 5
-3.2953084 3.3650568 0.91550165 4 13
-3.1947351 3.2646348 -0.2393847 9 6
-3.3468728 3.421294 1.1049596 2 14
-3.180146 3.2531321 -0.079408452 8 7
-3.2749994 3.3525028 1.2557901 2 15
-2.1379821 2.2000704 -0.82200933 7 0
-3.1517963 3.2444606 0.078954689 9 8
-2.0129862 2.0736156 -0.6672048 8 1
-3.1629503 3.2593551 0.23802395 18 9
-2.0487528 2.1126714 -0.57204539 9 2
-3.0614572 3.1591783 0.38487977 34 10
-3.1790864 3.2817068 -0.72366595 9 3
-2.7890232 2.8810654 0.49235216 0 11
-3.1813765 3.2886631 -0.56181771 7 4
-2.7724988 2.8669975 0.63168246 9 12
-3.152576 3.2623074 -0.39690727 8 5
-2.7507668 2.8485026 0.76972359 19 13
-3.139148 3.2518175 -0.23687255 9 6
-2.7546558 2.8555205 0.91600066 22 14
-3.1379285 3.2550983 -0.078919783 8 7
-2.7293007 2.8322029 1.0539112 41 15
-2.0881984 2.1783135 -0.80855072 7 0
-2.7514234 2.8721657 0.069425672 36 8
-2.3735201 2.4785445 -0.79227757 9 1
-2.7576158 2.8816485 0.20902982 53 9
-2.5305688 2.646239 -0.71171761 3 2
-2.7411263 2.8674214 0.34705415 33 10
-2.7863171 2.916733 -0.63887841 7 3
-2.740057 2.8703129 0.48723367 43 11
-2.7697062 2.9023857 -0.49259594 20 4
-2.7387829 2.8719876 0.62855375 42 12
-2.7723556 2.9092255 -0.35158628 38 5
-2.717773 2.8529449 0.76590741 28 13
-2.7486849 2.8874116 -0.20892516 32 6
-2.7145071 2.8535028 0.90925217 26 14
-2.7463892 2.8880279 -0.069565296 31 7
-2.701478 2.8427854 1.0508054 44 15
-2.0463979 2.1647613 -0.79819798 10 0
-2.7313049 2.8913043 0.069425672 48 8
-2.1447601 2.2711937 -0.72119308 7 1
-2.71824 2.8804936 0.20756441 50 9
-2.724849 2.8895171 -0.77201319 17 2
-2.7060072 2.8705413 0.34513673 36 10
-2.7509878 2.9202969 -0.63543689 22 3
-2.7022631 2.8705819 0.48406506 39 11
-2.7425747 2.914422 -0.4913772 40 4
-2.6875415 2.85794 0.62135774 35 12
-2.726054 2.9009228 -0.34827435 46 5
-2.6924126 2.8661251 0.76438087 35 13
-2.7257261 2.9036186 -0.20871581 48 6
-2.67452 2.8510656 0.90250361 28 14
-2.7111142 2.8910849 -0.069181338 48 7
-2.6643925 2.8432512 1.0440761 49 15
-2.0602152 2.2100835 -0.80958605 7 0
-2.7028749 2.9015226 0.069216244 55 8
-2.0730743 2.2262137 -0.70229721 10 1
-2.6871793 2.8877034 0.20672706 49 9
-2.6939139 2.8969688 -0.7689603 21 2
-2.665554 2.8674734 0.34252208 37 10
-2.7197769 2.9278536 -0.63293391 45 3
-2.6767552 2.8835571 0.48309013 39 11
-2.6978557 2.9073067 -0.48698995 44 4
-2.6567791 2.8650446 0.61885482 47 12
-2.6800058 2.8921161 -0.34496242 43 5
-2.667001 2.8790908 0.7628544 49 13
-2.6863947 2.9020567 -0.20725042 49 6
-2.6479349 2.8625145 0.90025413 37 14
-2.6800039 2.8981953 -0.068902098 47 7
-2.6339893 2.8504312 1.039935 63 15
-2.0094371 2.1860111 -0.79560977 9 0
-2.662262 2.8982306 0.068692669 62 8
-2.2630982 2.4645519 -0.77248192 7 1
-2.6615524 2.9005067 0.20630836 56 9
-2.5754368 2.8086267 -0.74072057 10 2
-2.649509 2.8904185 0.343045 39 10
-2.6685822 2.9132664 -0.62573791 48 3
-2.6525381 2.8977814 0.4823589 43 11
-2.6748137 2.9231408 -0.48650244 49 4
-2.6473768 2.895185 0.62135774 41 12
-2.6543732 2.9048731 -0.34426519 46 5
-2.6428642 2.8932905 0.76170951 28 13
-2.6674147 2.9222162 -0.20735508 54 6
-2.664659 2.921243 0.91285133 28 14
-2.6623998 2.9197907 -0.06897191 60 7
-2.6400495 2.8973091 1.0502877 39 15
-1.8942254 2.0897727 -0.75575161 9 0
-2.648675 2.9241571 0.068867192 44 8
-2.0483291 2.2621644 -0.70454669 12 1
-2.661339 2.941232 0.20787844 43 9
-2.092279 2.3139455 -0.60639101 7 2
-2.65465 2.9369285 0.34635693 30 10
-2.6428831 2.9259615 -0.62448645 25 3
-2.6482041 2.933912 0.48528376 37 11
-2.6609905 2.9491124 -0.48772117 36 4
-2.6548793 2.9444053 0.62792808 44 12
-2.6585505 2.9495115 -0.34740278 40 5
-2.6462519 2.9379284 0.76857871 43 13
-2.6469493 2.9407663 -0.20735508 40 6
-2.6551406 2.9509022 0.91645062 50 14
-2.6432884 2.9397929 -0.069006816 36 7
-2.6339605 2.9314773 1.0559818 64 15
-1.9529717 2.1850467 -0.78525704 9 0
-2.6646826 2.9823806 0.069809623 58 8
-1.9091879 2.1383123 -0.66180599 5 1
-2.6532264 2.9726896 0.20882049 79 9
-1.8739282 2.1010342 -0.5472402 7 2
-2.6552927 2.979187 0.34914589 48 10
-2.6675844 2.9940298 -0.63512403 40 3
-2.6453335 2.9711432 0.4884524 42 11
-2.6601293 2.9898636 -0.4913772 45 4
-2.6479044 2.9771681 0.63105673 47 12
-2.6564248 2.9888492 -0.34984317 39 5
-2.6374102 2.9695418 0.77201319 36 13
-2.6613479 2.9975479 -0.21007656 62 6
-2.6267149 2.9606204 0.91375118 34 14
-2.6598444 3.0000718 -0.069984153 61 7
-2.611383 2.9464457 1.0549464 52 15
-1.8856736 2.1388767 -0.76403385 9 0
-2.637188 2.9934082 0.069635101 52 8
-2.010505 2.2828784 -0.70229721 10 1
-2.6297703 2.9881411 0.20861115 52 9
-1.9460816 2.2128398 -0.57280862 3 2
-2.6191664 2.9792356 0.34705415 36 10
-2.6635656 3.0318723 -0.63919127 50 3
-2.6166677 2.9805887 0.48698995 43 11
-2.6501923 3.0198369 -0.49332717 42 4
-2.6010056 2.9658785 0.62479931 46 12
-2.6399589 3.0113552 -0.35036606 37 5
-2.5990243 2.9667513 0.76667058 38 13
-2.6206234 2.9935124 -0.20850646 47 6
-2.5846846 2.9535012 0.9061029 32 14
-2.6117187 2.9864955 -0.06925115 45 7
-2.5742235 2.9456944 1.0482172 55 15
-1.8491495 2.1272032 -0.755234 11 0
-2.6023233 2.9946859 0.06925115 51 8
-2.2193968 2.5558255 -0.78147995 7 1
-2.5949678 2.9893811 0.20745975 52 9
-2.3130524 2.6664965 -0.68614918 8 2
-2.5787282 2.9748659 0.34443948 34 10
-2.607939 3.0096252 -0.6307438 31 3
-2.5807259 2.9803219 0.48406506 40 11
-2.616056 3.0232539 -0.49088979 37 4
-2.5329411 2.9282362 0.61322314 26 12
-2.5928133 2.9995658 -0.34687987 45 5
-2.502532 2.8971651 0.74415511 22 13
-2.5975749 3.0082583 -0.20829713 49 6
-2.4876168 2.8829491 0.87910873 32 14
-2.5751352 2.9864829 -0.068832293 44 7
-2.4658229 2.8607185 1.0119824 50 15
-1.8421724 2.1485395 -0.75833982 11 0
-2.4902775 2.9064822 0.066807814 41 8
-2.0447576 2.3873446 -0.72569209 10 1
-2.4961116 2.916383 0.20117943 52 9
-2.0940375 2.4483385 -0.62623513 11 2
-2.4742603 2.893918 0.33310926 37 10
-2.5637681 3.0007246 -0.62511224 25 3
-2.4760756 2.9001353 0.46822205 46 11
-2.5322716 2.9670041 -0.47894657 21 4
-2.4637275 2.8887336 0.60133415 46 12
-2.495559 2.9281285 -0.33659548 38 5
-2.4534707 2.87976 0.73537791 39 13
-2.4962368 2.9320321 -0.20180747 51 6
-2.4623783 2.8943086 0.87730908 37 14
-2.4847896 2.921684 -0.06694743 47 7
-2.43203 2.861671 1.0062885 47 15
-1.9044534 2.2528181 -0.79043341 9 0
-2.4647641 2.9176865 0.06666819 52 8
-1.9349999 2.2913845 -0.69239932 10 1
-2.4666753 2.9230521 0.20044672 56 9
-2.1540971 2.5544498 -0.64951384 10 2
-2.4462929 2.9019797 0.33206338 37 10
-2.4803967 2.9445212 -0.60978162 41 3
-2.4404278 2.8991265 0.46529719 46 11
-2.4846559 2.9527135 -0.47382805 42 4
-2.4422276 2.9043527 0.60102129 46 12
-2.4583945 2.9256485 -0.33432943 47 5
-2.4269912 2.8893032 0.73346978 41 13
-2.4590149 2.9294994 -0.20044672 52 6
-2.4320934 2.8994846 0.87370992 37 14
-2.4591937 2.9328294 -0.066807814 51 7
-2.4045477 2.8696954 1.0031826 47 15
-1.9468117 2.3358066 -0.81476241 13 0
-2.432817 2.9209938 0.066354051 52 8
-1.9501282 2.3422782 -0.7036469 11 1
-2.4283252 2.9187067 0.19898133 50 9
-2.0383117 2.4516733 -0.61974764 7 2
-2.4208798 2.9128585 0.33136615 38 10
-2.4244416 2.9192162 -0.60102129 17 3
-2.4112544 2.9054008 0.46359101 47 11
-2.443702 2.9455435 -0.46992823 44 4
-2.4118073 2.9091649 0.59851831 46 12
-2.4333379 2.936178 -0.33363217 46 5
-2.3967447 2.8940785 0.73041683 43 13
-2.4270415 2.9327483 -0.19950469 56 6
-2.3949118 2.8949494 0.86741126 42 14
-2.4220941 2.9298913 -0.066354051 53 7
-2.3807638 2.8819442 1.0016297 52 15
-1.8863044 2.2956076 -0.79612744 10 0
-2.412878 2.9374857 0.066354051 56 8
-1.9807116 2.4130745 -0.72074318 20 1
-2.4008002 2.925904 0.19835329 67 9
-2.1709542 2.64767 -0.66554183 11 2
-2.3979597 2.9266059 0.33101749 44 10
-2.3131406 2.8240933 -0.57818186 12 3
-2.3977087 2.9294269 0.46480972 48 11
-2.4079971 2.9440928 -0.46700338 46 4
-2.3819463 2.9132798 0.59601539 50 12
-2.4001741 2.9376655 -0.33188906 51 5
-2.3901398 2.9274688 0.73461467 40 13
-2.4095497 2.9522943 -0.19971403 60 6
-2.3808012 2.9191494 0.86966079 26 14
-2.3876853 2.9296772 -0.0659701 58 7
-2.3708534 2.9100647 1.0057708 26 15
-1.8596884 2.2948856 -0.79146868 9 0
-2.3860195 2.9464891 0.066179529 49 8
-1.9213262 2.3734875 -0.70499659 7 1
-2.3840837 2.947252 0.19866732 47 9
-2.1610563 2.673449 -0.66821313 8 2
-2.3779833 2.9428606 0.33101749 28 10
-2.3938897 2.9646616 -0.60352427 28 3
-2.3971443 2.970813 0.46870953 32 11
-2.3903942 2.9635055 -0.46749085 49 4
-2.3875828 2.9621356 0.60258561 30 12
-2.3821068 2.9574537 -0.33223769 48 5
-2.3873954 2.9650788 0.73995733 25 13
-2.3813682 2.9597075 -0.199086 39 6
-2.3847854 2.966074 0.87865883 22 14
-2.3676882 2.9458621 -0.0659701 37 7
-2.3686266 2.9491372 1.0135354 28 15
-1.7302805 2.1659324 -0.74281067 8 0
-2.3890948 2.992768 0.06684272 44 8
-1.9995205 2.505651 -0.740089 7 1
-2.3920901 2.9997399 0.20107476 44 9
-2.2206433 2.7867365 -0.69263667 8 2
-2.3809667 2.9890001 0.33432943 31 10
-2.3792851 2.9890294 -0.60508859 20 3
-2.39241 3.0076718 0.47187814 31 11
-2.4005337 3.0189657 -0.47358429 35 4
-2.3914227 3.0096633 0.60884303 30 12
-2.3948526 3.0161412 -0.3369441 36 5
-2.3849452 3.0047398 0.74568158 27 13
-2.3991225 3.0247693 -0.20233083 36 6
-2.397913 3.0254126 0.89125609 21 14
-2.3880448 3.0140426 -0.067121953 41 7
-2.375561 3.0004375 1.0254411 30 15
-1.7246777 2.1901019 -0.74695182 11 0
-2.3916404 3.0392311 0.067505911 40 8
-1.8434203 2.3434114 -0.68835026 11 1
-2.4007127 3.0540516 0.20358689 44 9
-1.9597986 2.494935 -0.61669469 7 2
-2.3895726 3.0431581 0.3385129 31 10
-2.3839688 3.0382011 -0.61165881 24 3
-2.3921771 3.0508568 0.47602168 29 11
-2.397769 3.0590851 -0.47724038 28 4
-2.3983686 3.0620534 0.61603898 32 12
-2.3939195 3.0574725 -0.33973309 40 5
-2.3929446 3.0584259 0.75484043 30 13
-2.3927095 3.0603256 -0.20358689 33 6
-2.4036646 3.0754437 0.90115386 21 14
-2.3891003 3.0590088 -0.067750245 39 7
-2.3830819 3.0534995 1.0378644 31 15
-1.7283003 2.226505 -0.755234 10 0
-2.4015453 3.0949364 0.06837853 37 8
-1.7004387 2.1929812 -0.64066058 11 1
-2.3908811 3.0845292 0.20452894 41 9
-2.1483488 2.773629 -0.6819514 8 2
-2.3963192 3.0960033 0.34252208 28 10
-2.261693 2.9231222 -0.58537781 8 3
-2.3980694 3.1016181 0.48138395 30 11
-2.3957715 3.1008852 -0.4811402 27 4
-2.4016192 3.1095755 0.62229639 30 12
-2.3992965 3.1088107 -0.34356794 38 5
-2.4003096 3.1123683 0.76399928 26 13
-2.3998702 3.1129222 -0.20599434 32 6
-2.4035428 3.1199374 0.90925217 20 14
-2.3945222 3.1104734 -0.068518147 35 7
-2.3964095 3.114049 1.052876 31 15
-1.7483299 2.28424 -0.77076316 8 0
-2.4102509 3.1513362 0.06925115 36 8
-1.8073847 2.3639603 -0.68700051 10 1
-2.3971784 3.1376472 0.20693639 39 9
-1.9192562 2.513917 -0.61478662 12 2
-2.4078259 3.1550064 0.34722847 30 10
-2.3370595 3.0645003 -0.61040735 11 3
-2.4088445 3.1609139 0.4879649 22 11
-2.4022765 3.15344 -0.48674619 24 4
-2.4085677 3.1639886 0.62980521 27 12
-2.4070368 3.1631227 -0.34775141 36 5
-2.4099655 3.1692665 0.77392131 23 13
-2.4070821 3.1677656 -0.20850646 32 6
-2.4081826 3.1703653 0.91914994 20 14
-2.3986852 3.1601484 -0.06925115 35 7
-2.3956249 3.1584084 1.0621934 24 15
-1.7369937 2.3025587 -0.7728337 8 0
-2.4200487 3.2091808 0.070158668 35 8
-1.8107744 2.4029782 -0.69464886 12 1
-2.4082117 3.1969647 0.20976254 36 9
-2.0331571 2.701031 -0.65714622 7 2
-2.4084969 3.2019916 0.3505404 31 10
-2.1831856 2.9035048 -0.57536602 9 3
-2.4111204 3.2089789 0.49283966 23 11
-2.3384881 3.1145723 -0.47821537 18 4
-2.4083195 3.2087481 0.63543689 24 12
-2.4016328 3.2021632 -0.35019177 23 5
-2.4136856 3.2205751 0.78231698 21 13
-2.4189947 3.2288327 -0.21143727 35 6
-2.4163573 3.2276595 0.93084741 19 14
-2.4029164 3.2120454 -0.070019051 38 7
-2.4018393 3.2117708 1.0746168 31 15
-1.8342648 2.4662404 -0.82356226 10 0
-2.415478 3.2500727 0.07068225 32 8
-1.8327271 2.4668691 -0.7094956 13 1
-2.42155 3.2618084 0.21290269 35 9
-1.9253522 2.5953262 -0.62814325 15 2
-2.3961401 3.2311146 0.35193488 36 10
-1.9840935 2.6774364 -0.52780992 2 3
-2.417012 3.2640195 0.49868938 21 11
-2.403451 3.2468908 -0.49600828 22 4
-2.4199281 3.2715378 0.64451009 28 12
-2.4159322 3.2685211 -0.35559544 28 5
-2.4127083 3.2653515 0.78918606 20 13
-2.4236794 3.2825968 -0.21384473 29 6
-2.4250016 3.2867911 0.94299489 16 14
-2.4154196 3.2749968 -0.071031295 35 7
-2.4068639 3.265785 1.0870401 28 15
-1.6502631 2.2514989 -0.74798709 8 0
-2.4246321 3.3104146 0.071624674 28 8
-1.6819201 2.2972109 -0.65730697 9 1
-2.4258435 3.3157086 0.21531016 32 9
-1.8759024 2.565913 -0.61783957 12 2
-2.3652949 3.2365036 0.35071471 34 10
-1.8872983 2.5843396 -0.50684774 4 3
-2.41991 3.316092 0.50405163 21 11
-1.9525453 2.6766257 -0.40679988 1 4
-2.4261193 3.328259 0.65233177 23 12
-2.4247274 3.3287897 -0.36030185 33 5
-2.4198997 3.3233807 0.79910809 19 13
-2.4230304 3.3301222 -0.2158335 35 6
-2.4329395 3.3461959 0.9551422 11 14
-2.4289427 3.3419244 -0.072113343 41 7
-2.4135234 3.3231478 1.1004987 15 15
-1.6186695 2.2410395 -0.74074018 8 0
-2.4061434 3.3337471 0.07176429 10 8
-1.7217128 2.3863335 -0.67935222 6 1
-2.4073083 3.3390439 0.21572883 9 9
-1.8269583 2.535938 -0.6075359 16 2
-2.339149 3.2480874 0.35019177 30 10
-2.2199757 3.0848758 -0.60195988 7 3
-2.4106076 3.3522451 0.50697654 6 11
-2.4204504 3.3671722 -0.50917011 10 4
-2.3866906 3.3226542 0.6479516 3 12
-2.4002669 3.3440175 -0.36012751 8 5
-2.4008865 3.3485804 -0.21593818 10 6
-2.3766057 3.3171599 0.94209504 3 14
-2.3950737 3.3441691 -0.071799204 9 7
-2.3576601 3.294358 1.0854871 2 15
-1.5895414 2.2333989 -0.73452848 8 0
-2.3770161 3.3423159 0.071589775 7 8
-2.0042336 2.8191888 -0.79857624 10 1
-2.3746853 3.3427429 0.21489146 10 9
-2.033088 2.8640075 -0.68271458 6 2
-2.3048861 3.24809 0.34844866 39 10
-1.8384624 2.5927136 -0.50340617 9 3
-2.356159 3.3252609 0.5003956 3 11
-2.3831155 3.3645494 -0.50624532 6 4
-2.3622949 3.3376236 0.6476388 5 12
-2.3331449 3.2988796 -0.3535037 5 5
-2.3857286 3.3744776 0.80330586 7 13
-2.3578591 3.3375289 -0.21415874 12 6
-2.3803627 3.3718791 0.95289266 5 14
-2.3578329 3.341202 -0.07138034 10 7
-2.3958359 3.3975713 1.1139573 11 15
-1.4496847 2.0672896 -0.67655301 8 0
-2.3490341 3.3522782 0.071450152 9 8
-1.6300887 2.3271418 -0.65595728 3 1
-2.3444188 3.349422 0.21426344 16 9
-1.9387783 2.771951 -0.6575278 12 2
-2.2673128 3.2428746 0.34618258 35 10
-2.0658166 2.9568777 -0.57129872 3 3
-2.3840215 3.4148743 0.5113638 6 11
-2.366385 3.3908722 -0.50770777 7 4
-2.3976924 3.4382901 0.663908 7 12
-2.341399 3.3588147 -0.35821009 7 5
-2.3677232 3.3991058 0.80521399 4 13
-2.3402066 3.3621047 -0.21468212 9 6
-2.3907461 3.4359922 0.96638966 3 14
-2.3241756 3.3428049 -0.071066193 10 7
-2.3213539 3.3412342 1.0901459 4 15
-1.6164025 2.3396139 -0.76196331 9 0
-2.3102536 3.3451529 0.070961483 9 8
-1.7222737 2.4956467 -0.70004767 13 1
-2.3147626 3.3554373 0.2136354 9 9
-1.896466 2.7511389 -0.64951384 10 2
-2.2367077 3.2471378 0.34496242 37 10
-2.2809019 3.3125372 -0.63700122 5 3
-2.3280902 3.3835964 0.50429535 4 11
-2.320163 3.3745937 -0.50283301 7 4
-2.388778 3.4756939 0.66797519 8 12
-2.3077433 3.3602965 -0.35664126 11 5
-2.3805938 3.4689715 0.81780744 7 13
-2.3093603 3.3664265 -0.21394941 17 6
-2.3832271 3.4767094 0.97313827 6 14
-2.300782 3.3589492 -0.071066193 20 7
-2.3574941 3.4430332 1.1180983 8 15
-1.623273 2.384095 -0.7728337 8 0
-2.2800949 3.3512805 0.070752062 7 8
-1.6986719 2.497643 -0.6973483 16 1
-2.2856674 3.363256 0.21311203 7 9
-1.9764794 2.9104846 -0.68385947 7 2
-2.2100756 3.2556949 0.34426519 37 10
-1.7808945 2.6254306 -0.50246757 4 3
-2.2609763 3.3356819 0.4947896 2 11
-2.2860043 3.3738747 -0.5003956 6 4
-2.4076478 3.5560784 0.68017709 5 12
-2.2775278 3.3664262 -0.35559544 8 5
-2.4185162 3.5761662 0.83917803 7 13
-2.2656705 3.3526807 -0.21206531 8 6
-2.4177878 3.5804729 0.99743295 6 14
-2.2644393 3.3546431 -0.070647344 8 7
-2.3787718 3.5266743 1.1398392 5 15
-1.6334914 2.4354796 -0.78577471 7 0
-2.2488496 3.3554888 0.07050772 8 8
-1.710479 2.5531538 -0.7094956 5 1
-2.246577 3.3558953 0.21164663 7 9
-2.1787946 3.2571023 -0.76170951 10 2
-2.1850796 3.2677312 0.34391654 36 10
-1.8393446 2.7527723 -0.52436841 4 3
-2.2409401 3.3563378 0.49552077 3 11
-2.1643169 3.2428014 -0.47870281 5 4
-2.3838596 3.5744443 0.68049002 8 12
-2.2484469 3.3739529 -0.35472387 7 5
-2.2389317 3.3609488 0.78498828 2 13
-2.2344637 3.3567772 -0.2113326 9 6
-2.2491901 3.3814621 0.93759602 2 14
-2.2409658 3.370369 -0.070647344 9 7
-2.3273659 3.5029681 1.1268982 5 15
-1.5685304 2.3742898 -0.76248091 9 0
-2.2209625 3.3644311 0.070368104 9 8
-1.6368008 2.4804537 -0.68610072 7 1
-2.2120993 3.3548238 0.21059991 7 9
-1.8179125 2.7591033 -0.64226311 26 2
-2.1512539 3.2662671 0.34217343 38 10
-1.7961904 2.7292442 -0.51748526 5 3
-2.2065463 3.3553145 0.49308339 3 11
-2.2070513 3.3573589 -0.49332717 4 4
-2.34041 3.562932 0.6751712 7 12
-2.2177742 3.3775215 -0.3535037 6 5
-2.3381944 3.5636232 0.82849264 7 13
-2.1989274 3.3539231 -0.21018122 8 6
-2.3297377 3.5547912 0.98123646 7 14
-2.1932781 3.3491292 -0.069879435 9 7
-2.3240116 3.5514596 1.1372509 8 15
-1.6604347 2.5519669 -0.81579769 10 0
-2.1914685 3.3694129 0.070158668 8 8
-1.6927172 2.6045649 -0.71714395 6 1
-2.1848602 3.3631041 0.21018122 8 9
-1.7445717 2.6874311 -0.62280059 11 2
-2.1132193 3.2578049 0.33973309 39 10
-1.8560253 2.8624008 -0.54032475 2 3
-2.1814978 3.3669248 0.49259594 2 11
-2.1911108 3.3843496 -0.49503332 6 4
-2.594079 4.0082998 0.75620425 5 12
-2.1768298 3.3661532 -0.35071471 6 5
-2.3132584 3.5798602 0.82849264 2 13
-2.1749649 3.3671343 -0.21007656 9 6
-2.2932394 3.5529592 0.97628754 5 14
-2.1655095 3.3576367 -0.069739819 8 7
-2.2788484 3.5347235 1.1268982 8 15
-1.5210497 2.3729212 -0.755234 8 0
-2.1549497 3.3644238 0.069739819 10 8
-1.7295901 2.7013671 -0.74053884 6 1
-2.1591752 3.3749101 0.20997187 7 9
-1.8484321 2.8914244 -0.66706824 11 2
-2.0877767 3.267077 0.33921015 39 10
-1.7860304 2.7970378 -0.52561986 7 3
-2.1429906 3.358644 0.4891836 2 11
-2.1573486 3.3824492 -0.49259594 5 4
-2.2793841 3.5765383 0.67172968 6 12
-2.1495845 3.374171 -0.35001746 6 5
-2.2519379 3.5375576 0.81513608 6 13
-2.1449733 3.3721251 -0.20944853 9 6
-2.2616825 3.5569751 0.97313827 7 14
-2.1372426 3.3638597 -0.069565296 9 7
-2.2427261 3.5326064 1.1212041 9 15
-1.4363916 2.275661 -0.72106987 10 0
-2.120261 3.3604109 0.069355868 12 8
-1.6327424 2.5897408 -0.70679623 9 1
-2.1276338 3.3760118 0.2091345 9 9
-1.815109 2.8823416 -0.66210729 7 2
-2.0574894 3.2697687 0.33798996 38 10
-1.8489872 2.9395542 -0.55002367 7 3
-2.1137412 3.3630688 0.48772117 4 11
-2.1104555 3.3604443 -0.48723367 6 4
-2.1152973 3.3694592 0.63011813 3 12
-2.1238587 3.3857203 -0.34966883 6 5
-2.24804 3.5864627 0.82276845 10 13
-2.1092443 3.3663375 -0.20819245 9 6
-2.2481701 3.590847 0.97808713 9 14
-2.1126459 3.3770032 -0.06953039 8 7
-2.1028829 3.3627026 1.0627111 2 15
-1.4810488 2.3821824 -0.75161052 9 0
-2.0956955 3.3734317 0.069320954 12 8
-1.4937661 2.4054451 -0.65370774 5 1
-2.0892718 3.3670228 0.20766909 12 9
-1.7442482 2.8131847 -0.643408 5 2
-2.0299387 3.2752295 0.33711842 41 10
-1.8253 2.9473526 -0.54908502 9 3
-2.0818543 3.3642395 0.48577127 5 11
-2.1042414 3.4017432 -0.49113351 7 4
-2.1062627 3.4076693 0.6344983 4 12
-2.0897005 3.3835137 -0.34792572 11 5
-2.2132623 3.5849762 0.81895226 9 13
-2.0919833 3.3911798 -0.20882049 18 6
-2.1995275 3.5682995 0.9677394 7 14
-2.0917084 3.3947103 -0.069600195 23 7
-2.185703 3.5500319 1.117063 9 15
-1.4795101 2.4171796 -0.75937515 8 0
-2.0700066 3.384568 0.06925115 10 8
-1.5175954 2.4823205 -0.67170382 3 1
-2.0657129 3.3815277 0.20766909 9 9
-1.645806 2.6962609 -0.61402339 8 2
-2.0039091 3.2842197 0.33659548 42 10
-1.8365581 3.0123084 -0.55878401 6 3
-2.0541856 3.3719103 0.48479629 4 11
-2.0721834 3.4027863 -0.4891836 6 4
-2.1789441 3.5809178 0.663908 11 12
-2.0680988 3.4014251 -0.34827435 8 5
-2.0964112 3.4493473 0.78460658 4 13
-2.0527067 3.3800952 -0.20725042 8 6
-2.0815549 3.4302962 0.92634839 2 14
-2.0409935 3.3647771 -0.068692669 7 7
-2.1618674 3.5668569 1.1175808 12 15
-1.3688809 2.2719073 -0.71071708 11 0
-2.0370448 3.3835187 0.068937011 11 8
-1.5323837 2.5462852 -0.68610072 7 1
-2.0297055 3.3753262 0.20641303 9 9
-2.0475795 3.4077463 -0.77277648 13 2
-1.9696491 3.2793407 0.33467805 41 10
-1.6650388 2.7743807 -0.51247936 4 3
-2.0346806 3.392978 0.48577127 4 11
-2.0483751 3.4171708 -0.4891836 6 4
-2.1528761 3.594347 0.66359508 9 12
-2.0305691 3.3914914 -0.34583399 8 5
-2.0924377 3.4975948 0.79223901 7 13
-2.0208626 3.3806279 -0.20641303 8 6
-2.1431227 3.5865774 0.96459007 8 14
-2.0164297 3.3772261 -0.068657771 7 7
-2.1240463 3.5602951 1.1108514 8 15
-1.4998146 2.5289905 -0.78784519 11 0
-2.0037696 3.3801045 0.068587959 11 8
-1.5433714 2.6055443 -0.69914788 6 1
-2.0066833 3.3890638 0.20641303 9 9
-1.7474285 2.953562 -0.66706824 7 2
-1.9375817 3.2775755 0.33310926 39 10
-1.6169733 2.7363305 -0.50340617 6 3
-1.9994264 3.3862367 0.48284638 4 11
-2.0244708 3.4313869 -0.4891836 6 4
-2.1183257 3.5919032 0.66046637 8 12
-2.0007751 3.3952847 -0.3447881 8 5
-2.0590053 3.4968903 0.78880447 5 13
-1.9978045 3.3943052 -0.20641303 8 6
-2.1219847 3.60817 0.96638966 8 14
-1.9907753 3.387774 -0.068587959 7 7
-2.0958493 3.5680079 1.1087809 8 15
-1.3997679 2.397336 -0.74384594 8 0
-1.9700458 3.3767385 0.068238907 11 8
-1.5854856 2.7186763 -0.72659194 9 1
-1.9789521 3.3960876 0.20599434 9 9
-1.9579237 3.3626986 -0.75636691 7 2
-1.9142247 3.2889664 0.33293492 39 10
-1.9771789 3.3998613 -0.62292212 5 3
-1.9657638 3.3829491 0.480409 4 11
-1.9885048 3.4248364 -0.48625872 7 4
-2.0505621 3.5331385 0.64701301 4 12
-1.9710259 3.3988287 -0.34374225 8 5
-2.0758827 3.5825245 0.8048324 7 13
-1.9660491 3.3943446 -0.20557566 8 6
-1.9874157 3.4339926 0.91600066 2 14
-1.9620718 3.3929331 -0.068413429 8 7
-2.0650878 3.5725172 1.105675 8 15
-1.4585851 2.5396333 -0.78473938 10 0
-1.9454284 3.3886757 0.068204008 10 8
-1.5213865 2.6521952 -0.70589644 13 1
-1.9406949 3.3859024 0.20452894 9 9
-1.6962597 2.9606376 -0.66325212 15 2
-1.8837115 3.2904763 0.33171475 39 10
-1.6438433 2.8737993 -0.52436841 5 3
-1.9322451 3.3793576 0.47797161 3 11
-1.9566686 3.4248462 -0.48430881 7 4
-2.0565653 3.6026189 0.65702486 8 12
-1.9432995 3.4055841 -0.343045 8 5
-2.049849 3.5952239 0.80445075 8 13
-1.9377548 3.4013846 -0.20515697 8 6
-2.0492196 3.5984972 0.95604193 7 14
-1.9363575 3.4030731 -0.068343624 8 7
-1.9840933 3.4897966 1.075652 5 15
-1.4113569 2.4976156 -0.76869255 8 0
-1.917197 3.3955448 0.068064384 11 8
-1.489424 2.6389923 -0.69959778 9 1
-1.909161 3.3854511 0.20369156 9 9
-1.7646612 3.1317687 -0.69874257 8 2
-1.8548272 3.2931311 0.33066887 39 10
-1.9298871 3.4291942 -0.62323499 7 3
-1.9021755 3.3827159 0.47650915 4 11
-1.9249295 3.4245789 -0.4823589 8 4
-2.0226581 3.6013873 0.65420902 9 12
-1.9175261 3.4155934 -0.34269637 8 5
-2.0266206 3.6128716 0.80521399 12 13
-1.9061511 3.4008911 -0.2043196 8 6
-1.9869002 3.546412 0.93849587 5 14
-1.8988789 3.3920794 -0.067854956 8 7
-2.0087211 3.5912368 1.1025692 11 15
-1.4032724 2.5242929 -0.77386898 8 0
-1.8882138 3.3980277 0.067854956 10 8
-1.5154241 2.7294023 -0.72074318 6 1
-1.8802574 3.3878899 0.20306353 9 9
-1.6461883 2.9685805 -0.65981752 2 2
-1.8240664 3.2920578 0.32927439 36 10
-1.8978868 3.4266987 -0.62041914 8 3
-1.8733391 3.3851643 0.47504675 5 11
-1.7991538 3.2537901 -0.45652261 7 4
-1.9398077 3.5096107 0.63512403 4 12
-1.8801495 3.4044797 -0.34025604 8 5
-1.9690995 3.5684888 0.79223901 5 13
-1.8819929 3.4120378 -0.20421492 9 6
-1.9837271 3.5994513 0.9488436 6 14
-1.8703285 3.3964949 -0.067680433 9 7
-1.970256 3.5794401 1.0948045 9 15
-1.4370508 2.6270018 -0.80233908 10 0
-1.8558115 3.3953354 0.06754081 10 8
-1.5519378 2.8405521 -0.74728745 9 1
-1.8632586 3.4132054 0.20379624 10 9
-1.5859394 2.9076118 -0.64378959 8 2
-1.7958934 3.2939024 0.32822853 37 10
-1.7350039 3.1848676 -0.57442743 12 3
-1.8458658 3.391185 0.47407177 4 11
-1.8661444 3.4298694 -0.47943404 9 4
-1.9643193 3.6133132 0.65139318 9 12
-1.8563359 3.4175227 -0.34025604 8 5
-1.9578788 3.6059639 0.79758167 9 13
-1.8543169 3.4180715 -0.20379624 9 6
-1.9659791 3.6269183 0.95244277 8 14
-1.8385921 3.3933229 -0.067366287 9 7
-1.9378612 3.5795174 1.0906636 12 15
-1.4415566 2.6795025 -0.81528002 9 0
-1.8254365 3.3958786 0.067296483 9 8
-1.5523601 2.8890841 -0.75718528 9 1
-1.8318284 3.4120519 0.20295887 10 9
-1.558179 2.9047718 -0.64073664 7 2
-1.7690893 3.299335 0.32753128 36 10
-1.8237387 3.404108 -0.61165881 9 3
-1.8090287 3.379488 0.47065943 6 11
-1.7840891 3.3342962 -0.46432224 9 4
-1.9353206 3.6199708 0.65014172 9 12
-1.8258606 3.4180975 -0.33903584 8 5
-1.9289578 3.6126173 0.7960552 9 13
-1.8191277 3.4097877 -0.20254017 9 6
-1.9341938 3.6285176 0.94929349 8 14
-1.8167381 3.4096057 -0.067436099 9 7
-1.9110085 3.5895483 1.0896282 9 15
-1.2990538 2.4555566 -0.74436361 9 0
-1.7979465 3.401468 0.067156859 10 8
-1.5230503 2.8826201 -0.75268626 23 1
-1.7949092 3.4000297 0.20149344 11 9
-1.6450268 3.1187494 -0.68538594 15 2
-1.7441541 3.3080804 0.32718265 39 10
-1.7262733 3.2769423 -0.58662933 11 3
-1.7872421 3.3955476 0.47114691 5 11
-1.7995881 3.4204555 -0.47455928 9 4
-1.8144109 3.4515483 0.61760336 3 12
-1.8010269 3.4289973 -0.33886153 8 5
-1.799655 3.427834 0.75255072 7 13
-1.7860007 3.4047177 -0.20149344 9 6
-1.9024823 3.6298499 0.94614416 8 14
-1.7854664 3.4080355 -0.067156859 9 7
-1.8859022 3.6028023 1.0896282 9 15
-1.0206896 1.9623978 -0.59269565 8 0
-1.7732337 3.4121628 0.067121953 11 8
-1.4921089 2.8724308 -0.74728745 13 1
-1.7711287 3.4124775 0.20149344 10 9
-1.5726013 3.0325584 -0.66401535 15 2
-1.7164323 3.311332 0.32631108 36 10
-1.7687643 3.4152074 -0.60915589 9 3
-1.7580178 3.3973649 0.46968448 5 11
-1.7811384 3.4435136 -0.47602168 12 4
-1.870078 3.6185613 0.64513582 11 12
-1.7715609 3.4308643 -0.33781564 8 5
-1.8783294 3.6391978 0.7960552 13 13
-1.7585261 3.4100029 -0.20107476 9 6
-1.8387154 3.5685532 0.9267984 5 14
-1.7524742 3.4026396 -0.066807814 9 7
-1.8571697 3.6090086 1.0875577 9 15
-1.232523 2.4095976 -0.72521096 8 0
-1.7454166 3.4152505 0.06694743 11 8
-1.4663166 2.8703728 -0.74413806 12 1
-1.7405958 3.4102228 0.20065607 11 9
-1.5679773 3.0746739 -0.67088449 16 2
-1.6857095 3.3069627 0.32474229 36 10
-1.7311327 3.3990042 -0.60415 8 3
-1.7312523 3.4021749 0.46870953 4 11
-1.7378583 3.4166317 -0.47065943 9 4
-1.8409309 3.622401 0.6435715 8 12
-1.7373406 3.4215264 -0.33572391 8 5
-1.8410765 3.6273885 0.79071248 7 13
-1.7352741 3.4218938 -0.20107476 9 6
-1.7721056 3.4975457 0.90520304 2 14
-1.7202377 3.3966501 -0.066458762 9 7
-1.805522 3.568131 1.0715109 8 15
-1.2191417 2.4250476 -0.72728157 8 0
-1.7134531 3.4112699 0.066633284 11 8
-1.4707247 2.9293032 -0.75673532 11 1
-1.7149545 3.418721 0.20044672 11 9
-1.6449977 3.2821217 -0.71362567 10 2
-1.657227 3.3079629 0.32369643 38 10
-1.554397 3.1054118 -0.55002367 6 3
-1.702131 3.4035258 0.4672471 5 11
-1.6997617 3.4002714 -0.46675962 8 4
-1.8103011 3.6245615 0.64169425 8 12
-1.7098546 3.4264402 -0.33502665 8 5
-1.8043158 3.6173146 0.78575146 7 13
-1.705999 3.4231987 -0.20044672 9 6
-1.8110517 3.6371777 0.93804586 9 14
-1.6947021 3.4049954 -0.066388957 9 7
-1.7917483 3.603137 1.0782403 12 15
-1.2851796 2.6015065 -0.77749246 7 0
-1.6860559 3.4159765 0.066493668 11 8
-1.4519631 2.9429946 -0.75763518 12 1
-1.6892794 3.4270272 0.20023739 11 9
-1.6619446 3.3745432 -0.73118013 11 2
-1.6323328 3.3158767 0.32334781 39 10
-1.6965836 3.4494319 -0.60884303 12 3
-1.6748265 3.4081995 0.46627215 4 11
-1.694361 3.449472 -0.47187814 16 4
-1.7823418 3.6317914 0.64075565 9 12
-1.6812271 3.4272668 -0.3339808 10 5
-1.7539617 3.5786986 0.77468461 6 13
-1.6706403 3.4117067 -0.199086 9 6
-1.7853975 3.6476703 0.93759602 8 14
-1.6735251 3.422133 -0.066493668 9 7
-1.761463 3.6051424 1.0751344 9 15
-1.1564834 2.3827426 -0.70968187 11 0
-1.6610193 3.4237759 0.066423863 11 8
-1.4160819 2.921495 -0.74953693 20 1
-1.6589465 3.4240673 0.19940001 11 9
-1.1949865 2.4686487 -0.53312039 5 2
-1.6091439 3.3271918 0.32334781 39 10
-1.5621575 3.2314777 -0.56848288 5 3
-1.6446819 3.4052205 0.46432224 4 11
-1.6624732 3.4451265 -0.46968448 19 4
-1.7481397 3.6242678 0.63731414 7 12
-1.6589893 3.4425104 -0.33432943 21 5
-1.7408586 3.6156211 0.78002721 6 13
-1.6499772 3.4283984 -0.19940001 12 6
-1.7311763 3.600333 0.92229939 4 14
-1.6504593 3.4355354 -0.066528574 16 7
-1.7017605 3.5439067 1.0533936 4 15
-1.2076043 2.5317957 -0.75161052 10 0
-1.6370779 3.4352877 0.066423863 9 8
-1.2360986 2.5950315 -0.66360557 5 1
-1.6264205 3.4175303 0.19835329 10 9
-1.4930187 3.1400466 -0.6758455 10 2
-1.583038 3.3308697 0.32265055 38 10
-1.6412363 3.4564362 -0.60602719 9 3
-1.6157638 3.4058585 0.46285981 5 11
-1.6324296 3.4440923 -0.46797833 15 4
-1.650906 3.4846447 0.61072022 7 12
-1.6280962 3.4396017 -0.33293492 16 5
-1.6442319 3.4768283 0.74758971 6 13
-1.6174668 3.421777 -0.19835329 10 6
-1.6527385 3.4995553 0.89350557 3 14
-1.6136346 3.4198465 -0.066004999 9 7
-1.6357745 3.4683373 1.0275117 3 15
-1.1804464 2.5211267 -0.74591655 8 0
-1.6062725 3.4321444 0.066144623 11 8
-1.3669002 2.9233284 -0.74503791 12 1
-1.602769 3.4308908 0.19845797 9 9
-1.4702301 3.1486144 -0.67546391 7 2
-1.5490558 3.3204448 0.32055882 39 10
-1.4078313 3.0204809 -0.52780992 5 3
-1.5969785 3.4278514 0.46432224 6 11
-1.6066701 3.4518054 -0.46749085 14 4
-1.6292599 3.5035336 0.61197168 7 12
-1.5956455 3.4328165 -0.33119181 18 5
-1.6306689 3.5113704 0.75255072 7 13
-1.5937804 3.4350758 -0.19845797 9 6
-1.6299064 3.5145442 0.89440536 5 14
-1.5804728 3.4110703 -0.065621048 9 7
-1.6101022 3.4782004 1.026994 7 15
-1.1111718 2.4169707 -0.71278769 11 0
-1.5758289 3.4308305 0.065900289 12 8
-1.1862818 2.58391 -0.65640718 8 1
-1.5762781 3.4365509 0.19814396 11 9
-1.571982 3.4303398 -0.73346978 7 2
-1.5225166 3.3239334 0.31986156 39 10
-1.5502893 3.3876843 -0.59007084 6 3
-1.5691069 3.4319701 0.46334729 5 11
-1.5817094 3.4611316 -0.4672471 13 4
-1.6105057 3.5274005 0.61416179 6 12
-1.5658509 3.4311848 -0.32997164 18 5
-1.6020429 3.5137377 0.75064266 6 13
-1.5647926 3.4352131 -0.19782993 10 6
-1.574645 3.4584422 0.87730908 2 14
-1.5574485 3.4238412 -0.065655954 9 7
-1.5514114 3.4137301 1.0047356 2 15
-0.99573117 2.2063258 -0.64860052 8 0
-1.5499742 3.4360082 0.065795571 12 8
-1.3099366 2.9065952 -0.73603982 12 1
-1.5512105 3.4435577 0.1979346 10 9
-1.5614876 3.4696054 -0.73957568 7 2
-1.4976417 3.3308465 0.31951293 38 10
-1.5498672 3.4486082 -0.59883118 7 3
-1.5375787 3.4244616 0.46090987 5 11
-1.557506 3.4720905 -0.4672471 12 4
-1.5896908 3.5454912 0.61541325 7 12
-1.5451164 3.449306 -0.33066887 23 5
-1.5774734 3.5248363 0.75064266 7 13
-1.5356647 3.4330225 -0.19709724 10 6
-1.5949882 3.5689836 0.90250361 4 14
-1.5335093 3.4346299 -0.065655954 9 7
-1.5604179 3.4965415 1.0259588 7 15
-0.97599411 2.2024553 -0.64549476 8 0
-1.5210915 3.4357743 0.065586142 12 8
-1.3137794 2.9689062 -0.74953693 15 1
-1.5158262 3.4287298 0.1964692 10 9
-1.0874811 2.4621561 -0.52319831 7 2
-1.4765438 3.3446088 0.31986156 39 10
-1.5217677 3.4503074 -0.59726685 5 3
-1.505628 3.4169478 0.45847249 6 11
-1.5242363 3.4608104 -0.46432224 9 4
-1.5338707 3.4859884 0.60321134 4 12
-1.5193963 3.4563603 -0.33032027 23 5
-1.5107974 3.4384325 0.73003525 3 13
-1.5108591 3.4418304 -0.19699256 11 6
-1.5559469 3.5479071 0.89440536 5 14
-1.5052764 3.434001 -0.065446526 9 7
-1.5444957 3.5268149 1.0316528 7 15
-1.0930899 2.5139344 -0.73452848 8 0
-1.4986616 3.4499779 0.065655954 11 8
-1.2992293 2.9923058 -0.7531361 11 1
-1.488673 3.4318993 0.19605052 11 9
-1.4644916 3.3793836 -0.71591538 7 2
-1.4468229 3.3402097 0.31846708 36 10
-1.3038673 3.0130584 -0.51998824 6 3
-1.4833137 3.4310193 0.45896 6 11
-1.4984633 3.4677229 -0.46383476 9 4
-1.5290716 3.5419509 0.61103308 6 12
-1.4936512 3.4632244 -0.32997164 22 5
-1.531057 3.5516591 0.75178748 7 13
-1.4836339 3.444957 -0.19657388 10 6
-1.534219 3.5658443 0.89620501 5 14
-1.4781076 3.437077 -0.065306902 9 7
-1.52441 3.5481622 1.0347586 7 15
-1.2248265 2.8715653 -0.83650321 11 0
-1.4714041 3.4529982 0.065516338 11 8
-1.3096161 3.0748117 -0.77158207 9 1
-1.4693695 3.4532354 0.19667853 12 9
-1.419358 3.3389356 -0.70523006 11 2
-1.4164563 3.3337255 0.31689829 35 10
-1.3993485 3.2966573 -0.56723142 5 3
-1.4546745 3.4303257 0.45749757 8 11
-1.4618226 3.4488566 -0.45993495 8 4
-1.5027664 3.5489018 0.61040735 6 12
-1.4607242 3.4512932 -0.32787988 24 5
-1.5046952 3.5586448 0.75102425 7 13
-1.4595473 3.4552305 -0.19657388 11 6
-1.5068812 3.5690229 0.89440536 5 14
-1.4494131 3.4362574 -0.065097481 9 7
-1.4838499 3.5213318 1.0238881 7 15
-1.2450085 2.976285 -0.86445564 10 0
-1.4409238 3.4463291 0.065202191 11 8
-1.2776027 3.0587053 -0.76528347 14 1
-1.4427521 3.4557848 0.19625986 11 9
-1.4570565 3.4934769 -0.7357595 8 2
-1.390849 3.3380153 0.31637534 36 10
-1.4399105 3.4574614 -0.59319955 7 3
-1.4297662 3.4364824 0.45701009 6 11
-1.4483761 3.4846406 -0.46334729 7 4
-1.4384085 3.4623649 0.59382528 4 12
-1.4350666 3.4577265 -0.32753128 22 5
-1.4527446 3.5037749 0.73728597 4 13
-1.4390531 3.4724658 -0.19699256 17 6
-1.4789462 3.5722539 0.89260578 4 14
-1.4230953 3.4407489 -0.064992763 12 7
-1.4568945 3.5242095 1.0218177 6 15
-0.9137736 2.2269008 -0.64497709 7 0
-1.413038 3.4470527 0.065027662 12 8
-1.2345881 3.0132332 -0.75178647 13 1
-1.4163229 3.460227 0.19594584 10 9
-1.434118 3.5071986 -0.73652273 7 2
-1.3658344 3.3418725 0.3158524 36 10
-1.4202178 3.4784021 -0.5950768 7 3
-1.4027411 3.439028 0.45603511 6 11
-1.4216255 3.487066 -0.46237233 7 4
-1.4544371 3.5711133 0.61072022 7 12
-1.411643 3.4695065 -0.32770559 19 5
-1.4406948 3.5426803 0.74339187 7 13
-1.4072582 3.4639237 -0.19594584 17 6
-1.4481083 3.5680463 0.88900656 5 14
-1.4003936 3.452209 -0.065027662 9 7
-1.3959774 3.4447734 0.99593574 5 15
-1.2211546 3.0361834 -0.87687898 13 0
-1.3874459 3.4531233 0.064957857 11 8
-1.1815678 2.9422109 -0.73199075 4 1
-1.3817186 3.4440801 0.19448043 9 9
-1.4030266 3.5007231 -0.7330882 8 2
-1.3446931 3.3568747 0.31637534 37 10
-1.3959011 3.4882319 -0.5950768 7 3
-1.372803 3.433991 0.4540852 6 11
-1.3928272 3.4858453 -0.46090987 7 4
-1.4258091 3.5720074 0.60915589 6 12
-1.3829591 3.4681728 -0.32665971 20 5
-1.4195615 3.5617707 0.74529999 7 13
-1.375653 3.4551079 -0.19489913 17 6
-1.3835511 3.4784772 0.86426198 2 14
-1.3747811 3.458185 -0.064957857 9 7
-1.3626248 3.4310944 0.98920643 2 15
-1.1843448 3.0050941 -0.86549091 13 0
-1.3596436 3.4534211 0.064783335 10 8
-1.2423483 3.1571138 -0.78327954 7 1
-1.358373 3.4555006 0.1945851 10 9
-1.3749629 3.5012965 -0.73118013 8 2
-1.3183147 3.3587615 0.31567809 38 10
-1.3715129 3.4978929 -0.5950768 7 3
-1.3473479 3.4397945 0.45359772 6 11
-1.3655629 3.4880905 -0.45993495 8 4
-1.3922031 3.559798 0.60540146 6 12
-1.3593198 3.4775062 -0.32665971 18 5
-1.3875198 3.5533066 0.74148381 6 13
-1.3529516 3.4683483 -0.19510846 18 6
-1.388865 3.5622547 0.88270795 3 14
-1.3462504 3.4565184 -0.064748429 9 7
-1.3673581 3.5143394 1.0104296 5 15
-1.1410717 2.9556186 -0.84892654 7 0
-1.3339456 3.4569991 0.064678617 11 8
-0.88103884 2.2856393 -0.56552696 1 1
-1.3312305 3.455348 0.19406174 9 9
-1.008389 2.6201048 -0.54571378 1 2
-1.2876825 3.3492873 0.31393498 38 10
-1.3427136 3.4942391 -0.59288669 8 3
-1.3253254 3.4525926 0.4540852 5 11
-1.3369153 3.4864171 -0.45847249 9 4
-1.3318858 3.4751201 0.58944511 4 12
-1.3307365 3.4757464 -0.32561383 14 5
-1.3584731 3.5519037 0.7391941 6 13
-1.3293103 3.4774778 -0.19510846 19 6
-1.3681331 3.582787 0.88540733 4 14
-1.3213738 3.4639645 -0.064713523 9 7
-1.3502873 3.5416164 1.015606 5 15
-0.92954898 2.4573846 -0.70398778 8 0
-1.3048309 3.4531336 0.064434282 10 8
-1.317125 3.487509 -0.86066276 11 1
-1.3084852 3.4682949 0.19427109 9 9
-1.3182505 3.4978755 -0.72660065 7 2
-1.2634518 3.3542449 0.31358635 39 10
-1.3168951 3.4998305 -0.59226096 8 3
-1.2956036 3.4468951 0.45213532 4 11
-1.3131529 3.4954367 -0.45847249 9 4
-1.3409086 3.5731061 0.6044628 7 12
-1.2987441 3.464431 -0.32369643 11 5
-1.3390863 3.5739374 0.7418654 7 13
-1.3015 3.4773207 -0.1945851 14 6
-1.3376274 3.5776484 0.8818081 4 14
-1.2935648 3.4616394 -0.064504094 9 7
-1.3221513 3.5419075 1.0130178 7 15
-1.0056202 2.7156305 -0.77593952 8 0
-1.2786103 3.4565322 0.064329572 11 8
-1.2717966 3.4399569 -0.84671575 13 1
-1.2807804 3.4679775 0.19374773 10 9
-1.2985553 3.5198867 -0.72927201 8 2
-1.2393147 3.3611143 0.31341204 34 10
-1.2828712 3.4829879 -0.58788079 8 3
-1.2646537 3.4372261 0.44969791 5 11
-1.2859778 3.4970665 -0.45749757 8 4
-1.3097992 3.5656929 0.60164702 6 12
-1.275214 3.4752834 -0.32387072 10 5
-1.3080173 3.5666106 0.73843086 6 13
-1.2689493 3.4638171 -0.19332905 18 6
-1.3166381 3.5978792 0.88450754 4 14
-1.2652469 3.459317 -0.064294666 9 7
-1.2967305 3.5492363 1.0125002 7 15
-0.76745749 2.1177678 -0.60356599 3 0
-1.2537675 3.4634943 0.064294666 11 8
-1.0481898 2.8971715 -0.71129525 10 1
-1.2497498 3.458051 0.19270101 12 9
-1.1979531 3.3183532 -0.68576753 7 2
-1.2137909 3.3640621 0.3128891 37 10
-1.2498168 3.4677002 -0.58381349 8 3
-1.2392818 3.4422359 0.44921044 6 11
-1.2521229 3.479809 -0.4540852 8 4
-1.2775259 3.5543008 0.59820545 4 12
-1.2482278 3.4766004 -0.32317349 10 5
-1.278446 3.5627196 0.7357595 5 13
-1.2433884 3.4688311 -0.19311969 17 6
-1.2796636 3.5739591 0.87640929 5 14
-1.2410655 3.468066 -0.064294666 9 7
-1.2556623 3.5127254 0.99955922 3 15
-1.0024629 2.8277309 -0.80389202 9 0
-1.2295573 3.4721627 0.064294666 10 8
-1.0630479 3.0036209 -0.73558998 5 1
-1.2242461 3.4629257 0.19249167 12 9
-1.2211725 3.4580719 -0.71286243 15 2
-1.1902758 3.3724542 0.3128891 38 10
-1.23937 3.5154641 -0.59038377 8 3
-1.2125826 3.4433143 0.44823548 6 11
-1.231753 3.4997008 -0.45554763 8 4
-1.2585776 3.5799053 0.60102129 6 12
-1.2265669 3.4927497 -0.32387072 10 5
-1.2554927 3.5771155 0.73690438 6 13
-1.2184803 3.4755423 -0.19301502 18 6
-1.2495288 3.5680921 0.87281007 3 14
-1.210878 3.4596586 -0.06398052 9 7
-1.2330226 3.5268762 1.0011121 5 15
-0.87449414 2.5225372 -0.7153759 3 0
-1.2039782 3.4768825 0.064224854 12 8
-1.1987355 3.467613 0.19228233 12 9
-1.2110983 3.5073392 -0.72125804 7 2
-1.1641026 3.3731477 0.31219187 37 10
-1.2135097 3.5202959 -0.58975804 8 3
-1.1898068 3.4554496 0.44872296 6 11
-1.2047067 3.5007064 -0.45457271 8 4
-1.2322702 3.5848684 0.60039556 6 12
-1.1975853 3.4859433 -0.32247624 10 5
-1.2343125 3.596935 0.7391941 6 13
-1.1948345 3.4858537 -0.19311969 16 6
-1.2226864 3.5691404 0.87101048 4 14
-1.1866956 3.4680278 -0.06398052 9 7
-1.2121191 3.5463665 1.0042179 6 15
-0.92568254 2.7316728 -0.7728337 8 0
-1.1745124 3.4679508 0.063910715 11 8
-0.77371711 2.2871642 -0.55742872 8 1
-1.1751059 3.4756913 0.19228233 11 9
-0.85804784 2.5408335 -0.52129018 1 2
-1.134794 3.3642018 0.31062305 36 10
-1.1806849 3.5022681 -0.58537781 8 3
-1.1719601 3.4804001 0.45091662 8 11
-1.1815034 3.5127947 -0.45506018 8 4
-1.2059519 3.5875559 0.59945697 5 12
-1.1694145 3.4828866 -0.32143039 10 5
-1.173589 3.4993668 0.71744186 4 13
