# .PCD v0.7 - Point Cloud Data file format
VERSION 0.7
FIELDS x y z intensity ring
SIZE 4 4 4 4 2
TYPE F F F F U
COUNT 1 1 1 1 1
WIDTH 171
HEIGHT 1
VIEWPOINT 0 0 0 1 0 0 0
POINTS 171
DATA ascii
3.0906065 -0.075532794 -0.053962842 0 7
3.1072552 -0.11882559 -0.054276984 65 7
3.1083479 -0.14060561 -0.05431189 67 7
3.0138321 -0.15583849 -0.15815927 30 6
3.1012993 -0.16198947 -0.054207176 65 7
3.0106771 -0.17675799 -0.15805461 6 6
3.0761387 -0.18221752 -0.053788319 61 7
3.0133555 -0.19803393 -0.15826395 11 6
3.0727963 -0.20355624 -0.053753413 53 7
3.0218596 -0.21979055 -0.15878731 67 6
2.9593868 -0.23446797 -0.25972411 63 5
2.9963603 -0.23897615 -0.15753125 60 6
3.0796208 -0.24723944 -0.053927936 45 7
3.1644719 -0.26461577 0.055428844 45 8
2.9298875 -0.25272539 -0.25728375 7 5
2.9846699 -0.25902528 -0.15700789 70 6
3.0738358 -0.26838517 -0.053858127 67 7
3.1645391 -0.28688183 0.05546375 55 8
2.9280517 -0.27317354 -0.25728375 7 5
2.9808004 -0.27966914 -0.15690321 57 6
3.0539188 -0.28868034 -0.053543981 63 7
3.1604691 -0.30877289 0.055428844 60 8
2.9062488 -0.29161918 -0.25554064 7 5
3.0498402 -0.30979145 -0.053509079 58 7
3.1442571 -0.3299199 0.05518451 63 8
2.864007 -0.30657962 -0.35366488 63 4
2.900126 -0.31198198 -0.25519201 7 5
2.9666204 -0.32070655 -0.15637985 8 6
3.1279664 -0.35030481 0.054940179 55 8
2.8617969 -0.32656652 -0.35366488 58 4
2.8958979 -0.331994 -0.2550177 7 5
2.9543293 -0.34078252 -0.15585649 7 6
3.047142 -0.35310528 -0.053543981 7 7
2.9212606 -0.35506344 -0.25745806 66 5
2.9638362 -0.36233816 -0.15648453 28 6
3.0387135 -0.37310711 -0.053439267 6 7
3.1248231 -0.39364883 0.054975081 7 8
2.7688303 -0.35273081 -0.44208387 22 3
2.8196111 -0.36120048 -0.34903383 7 4
2.8811643 -0.37061912 -0.25414613 7 5
2.9573395 -0.38199207 -0.15627518 50 6
3.0281026 -0.39328182 -0.053299651 32 7
3.1239812 -0.41571826 0.055009987 7 8
2.7604268 -0.37126216 -0.44114524 68 3
2.8328249 -0.38250947 -0.35098374 7 4
2.8804812 -0.39099222 -0.25432047 7 5
2.9565794 -0.4028984 -0.15637985 10 6
3.0253556 -0.41388422 -0.053299651 65 7
3.0853567 -0.43252042 0.054381698 32 8
2.7519002 -0.3896935 -0.44020665 72 3
2.8379469 -0.40339434 -0.35195872 6 4
2.8816259 -0.4116556 -0.25466907 6 5
2.9438097 -0.42211181 -0.15585649 7 6
3.0283303 -0.43584952 -0.053404365 53 7
3.1079805 -0.45783812 0.054835461 61 8
2.7373891 -0.407152 -0.4383294 66 3
2.829098 -0.42281148 -0.35122749 11 4
2.8826227 -0.432354 -0.2550177 6 5
2.9249909 -0.44027475 -0.15501912 7 6
3.1894045 -0.49488598 0.16914983 64 9
2.6985209 -0.41920003 -0.53083062 41 2
2.7422128 -0.42794809 -0.43958092 64 3
2.8103876 -0.44009495 -0.34927759 63 4
2.8834705 -0.45308632 -0.25536633 6 5
2.9257112 -0.46181697 -0.15522847 7 6
3.0179162 -0.47799098 -0.053334557 7 7
3.0913274 -0.50013214 0.054660939 7 8
2.6857631 -0.43692309 -0.52892256 32 2
2.7411077 -0.44739994 -0.43989375 73 3
2.8170416 -0.46130824 -0.35049626 60 4
2.8840866 -0.47435498 -0.25571495 39 5
2.9184747 -0.4815805 -0.15501912 7 6
2.9987228 -0.49643534 -0.053055316 7 7
3.0956476 -0.52303386 0.054800555 7 8
3.182184 -0.53936869 0.16914983 6 9
2.6942606 -0.45763499 -0.53121227 7 2
2.7379174 -0.4665255 -0.43989375 61 3
2.8098392 -0.48029462 -0.35000879 68 4
2.8551769 -0.49009609 -0.2534489 51 5
2.9268513 -0.50397694 -0.15564716 8 6
3.0070071 -0.5194003 -0.053264745 7 7
3.0801046 -0.54255122 0.05459113 7 8
3.1704738 -0.5601812 0.16873114 7 9
2.681334 -0.47472191 -0.52930421 14 2
2.7287593 -0.48459205 -0.43895519 21 3
2.9409542 -0.52757162 -0.1565892 11 6
3.0032134 -0.54090452 -0.053264745 8 7
3.0762417 -0.56404096 0.05459113 7 8
3.1742411 -0.5843004 0.16914983 6 9
2.6721623 -0.49236217 -0.52815932 67 2
2.7252216 -0.5041061 -0.43895519 85 3
2.7988648 -0.51924425 -0.34952128 7 4
2.8500144 -0.53027725 -0.25362319 6 5
2.9096177 -0.54346895 -0.1551238 6 6
2.9993639 -0.56185752 -0.053264745 13 7
3.0583768 -0.58341658 0.054346792 34 8
3.1504676 -0.60269362 0.16810311 7 9
2.7080569 -0.52050924 -0.43676507 69 3
2.7971208 -0.5391469 -0.34976503 10 4
2.8520153 -0.55179316 -0.25414613 7 5
2.8881063 -0.56034482 -0.15418173 7 6
2.9914424 -0.58201939 -0.053194933 6 7
3.0503061 -0.60397685 0.054276984 7 8
3.1520603 -0.62584007 0.16841713 37 9
2.6591582 -0.52893949 -0.52701449 10 2
2.712106 -0.54094774 -0.43801656 66 3
2.7777164 -0.55554664 -0.34781513 63 4
2.8539538 -0.57286668 -0.25466907 6 5
2.8978298 -0.58325243 -0.15491444 7 6
2.9677048 -0.59893328 -0.052845888 7 7
3.0538504 -0.62686545 0.054416601 6 8
2.7043943 -0.55906874 -0.43739083 73 3
2.7854333 -0.57734245 -0.34927759 69 4
2.8264773 -0.58790815 -0.25257733 39 5
2.8956428 -0.60387647 -0.15501912 8 6
2.9693234 -0.62086481 -0.052950602 6 7
3.0454879 -0.64733845 0.054346792 6 8
2.6926987 -0.57628155 -0.43613935 64 3
2.7813346 -0.59677422 -0.34927759 66 4
2.8242519 -0.60804552 -0.25275165 51 5
2.8933086 -0.62449837 -0.1551238 8 6
2.959053 -0.64031053 -0.052845888 7 7
3.0330822 -0.66686636 0.054207176 6 8
2.6751091 -0.59207779 -0.43394926 66 3
2.7693486 -0.61445689 -0.3483026 66 4
2.8277173 -0.62947929 -0.2534489 63 5
2.861588 -0.63859195 -0.15365838 38 6
2.9564624 -0.66138941 -0.052880794 6 7
3.0283527 -0.68802482 0.054207176 6 8
2.7649915 -0.63377553 -0.3483026 57 4
2.821312 -0.64875841 -0.25327459 49 5
2.8745761 -0.6625914 -0.15460044 23 6
3.0273695 -0.71006304 0.054276984 32 8
2.69542 -0.63617688 -0.43864229 61 3
2.8601651 -0.68033248 -0.15407708 6 6
2.6889935 -0.65451163 -0.4383294 19 3
2.7520161 -0.67137808 -0.34781513 63 4
2.8003671 -0.68524545 -0.25222871 6 5
2.8631051 -0.70218641 -0.15449576 6 6
2.9322534 -0.72077316 -0.052706268 7 7
2.7511122 -0.69154209 -0.3483026 69 4
2.7993789 -0.70575297 -0.25257733 36 5
2.8581331 -0.72215736 -0.15449576 6 6
2.9368424 -0.74368089 -0.052880794 6 7
2.7462175 -0.71073145 -0.3483026 66 4
2.7828128 -0.72227573 -0.25153148 54 5
2.8491559 -0.74108762 -0.15428641 9 6
2.9296439 -0.76366115 -0.052845888 7 7
2.7218795 -0.72525358 -0.34586522 66 4
2.7911773 -0.74528366 -0.25275165 63 5
2.8322041 -0.75835699 -0.15365838 44 6
2.9183104 -0.78305078 -0.05274117 8 7
2.724278 -0.74681151 -0.3468402 64 4
2.7800088 -0.76365435 -0.25222871 60 5
2.8555882 -0.78656006 -0.15522847 67 6
2.9107046 -0.80338156 -0.052706268 31 7
2.7207749 -0.76682532 -0.3470839 68 4
2.7668037 -0.78136212 -0.25153148 56 5
2.8441215 -0.80534136 -0.15491444 64 6
2.7171247 -0.78682703 -0.34732765 43 4
2.725168 -0.80878383 -0.34903383 34 4
2.7670822 -0.82332575 -0.25257733 21 5
2.8155212 -0.83934337 -0.1539724 7 6
2.7574556 -0.84146023 -0.25222871 54 5
2.803863 -0.85722685 -0.15365838 8 6
2.7534156 -0.86128509 -0.25240302 60 5
2.8187747 -0.88335037 -0.15480977 24 6
2.7302597 -0.87501383 -0.25083423 61 5
2.7242405 -0.89357764 -0.25083423 67 5
2.7254908 -0.91511124 -0.25153148 67 5
2.7228043 -0.93541092 -0.25188008 57 5
