# .PCD v0.7 - Point Cloud Data file format
VERSION 0.7
FIELDS x y z intensity ring
SIZE 4 4 4 4 2
TYPE F F F F U
COUNT 1 1 1 1 1
WIDTH 168
HEIGHT 1
VIEWPOINT 0 0 0 1 0 0 0
POINTS 168
DATA ascii
2.8275583 1.4807273 -0.27924702 0 5
2.8363099 1.4595441 -0.27907267 71 5
2.8286514 1.4307148 -0.27732956 60 5
2.82073 1.4020628 -0.27558646 58 5
2.776562 1.3578211 -0.37950116 18 4
2.8268683 1.3805888 -0.27523783 57 5
2.7895525 1.3401233 -0.37998864 9 4
2.8474541 1.3654939 -0.27628368 57 5
2.7880688 1.3155333 -0.37852621 7 4
2.862325 1.3481284 -0.27680662 42 5
2.7881784 1.2918653 -0.37730753 20 4
2.8951757 1.3389852 -0.27907267 5 5
2.743228 1.2495836 -0.47743803 57 3
2.8115849 1.2789444 -0.37925744 63 4
2.8808684 1.3080338 -0.27680662 7 5
2.8222585 1.2600926 -0.37950116 57 4
2.9099486 1.2968109 -0.27872407 71 5
2.9761322 1.3244382 -0.17071991 4 6
2.7459364 1.2048107 -0.47493511 7 3
2.8364408 1.24275 -0.38023239 44 4
2.9006772 1.2684797 -0.27698094 60 5
2.9743245 1.2988315 -0.17009188 37 6
2.7151263 1.1704421 -0.57471669 1 2
2.7579093 1.1871731 -0.47556084 7 3
2.9167852 1.2513417 -0.27767819 52 5
2.9872146 1.2790868 -0.17030121 60 6
2.7143903 1.1471617 -0.57280862 92 2
2.7772536 1.1720158 -0.47743803 6 3
2.8374708 1.1950948 -0.37803873 6 4
2.7134607 1.1239522 -0.57090056 85 2
2.7764421 1.1483372 -0.47587368 8 3
2.8530841 1.1782874 -0.37901369 7 4
2.9251845 1.2056743 -0.27680662 6 5
3.0105386 1.2390113 -0.17061524 6 6
2.7303362 1.1086743 -0.57280862 78 2
2.7862222 1.1296682 -0.47618657 61 3
2.8722806 1.16281 -0.38047612 7 4
2.9353781 1.1859698 -0.27698094 6 5
3.0320807 1.223194 -0.17134793 7 6
2.6645179 1.0624968 -0.66225594 6 1
2.7940402 1.1101906 -0.47618657 27 3
2.869257 1.1383383 -0.37901369 9 4
2.9547007 1.1698487 -0.27802682 6 5
3.0256872 1.1961222 -0.17051056 7 6
2.6537197 1.0367762 -0.65775687 69 1
2.7510366 1.0725853 -0.57395351 8 2
2.8035636 1.091374 -0.47649944 6 3
2.8752837 1.1175601 -0.37876993 8 4
2.9516501 1.144871 -0.27698094 16 5
3.0209262 1.1699222 -0.16977786 7 6
2.6572526 1.0168328 -0.65685707 73 1
2.7419517 1.0470487 -0.57051897 7 2
2.8092692 1.0710698 -0.47618657 7 3
2.9015687 1.1045206 -0.38120735 6 4
2.9651585 1.1263592 -0.27750388 13 5
3.049562 1.1565945 -0.17092925 51 6
2.6679361 0.99962437 -0.65775687 62 1
2.7491941 1.0278821 -0.57051897 67 2
2.8314829 1.0569592 -0.47868952 7 3
2.9092083 1.0842383 -0.38120735 6 4
2.9804196 1.1084075 -0.27820113 6 5
3.0687969 1.139446 -0.17155728 36 6
2.6148915 0.96053874 -0.74643415 6 0
2.6821685 0.98365825 -0.65955651 71 1
2.7544591 1.0079893 -0.57013732 75 2
2.8258049 1.0324208 -0.47649944 9 3
2.916707 1.0639018 -0.38120735 7 4
2.9693625 1.0807604 -0.27645802 6 5
3.0654142 1.1139015 -0.17092925 6 6
2.5960817 0.9331131 -0.73918724 53 0
2.6779644 0.96096128 -0.65685707 69 1
2.7669742 0.99072045 -0.57128215 74 2
2.8273633 1.010673 -0.47556084 61 3
2.9240634 1.0435133 -0.38120735 7 4
2.9862199 1.0633457 -0.27732956 6 5
3.0655878 1.089799 -0.17051056 6 6
3.1678939 1.1243005 -0.058674991 42 7
2.6227407 0.92155653 -0.74488121 7 0
2.6829333 0.94112861 -0.65640718 67 1
2.781405 0.97348922 -0.57280862 77 2
2.8494418 0.99562782 -0.47806379 64 3
2.9258327 1.0206012 -0.38047612 63 4
3.0105047 1.0483691 -0.27889836 8 5
3.0940609 1.0750451 -0.17166196 7 6
2.6309378 0.90385169 -0.74539888 7 0
2.7115588 0.92996037 -0.66180599 48 1
2.7712502 0.94881094 -0.56937408 69 2
2.8542833 0.9755702 -0.47775093 64 3
2.9310069 0.99951071 -0.38023239 57 4
3.0252943 1.0298961 -0.27959561 73 5
3.0918508 1.0507476 -0.1711386 44 6
3.1683209 1.0742673 -0.058395755 8 7
2.6333666 0.88469189 -0.74436361 10 0
2.7067401 0.90776533 -0.65910655 39 1
2.8001482 0.93691617 -0.57395351 37 2
2.8666453 0.95749724 -0.47868952 40 3
2.9435639 0.98090547 -0.38096359 60 4
3.0097249 1.0012022 -0.27750388 60 5
3.0992911 1.0285945 -0.1711386 62 6
2.6249449 0.86100852 -0.74022251 58 0
2.7187226 0.89019227 -0.6604563 80 1
2.7955835 0.9131971 -0.57166374 85 2
2.8471308 0.92838597 -0.47430936 6 3
3.0092316 0.97717947 -0.27680662 52 5
3.1160727 1.0094678 -0.17166196 57 6
2.6494379 0.84809232 -0.74539888 15 0
2.7138853 0.86715591 -0.65775687 69 1
2.8113995 0.89615023 -0.57357186 80 2
2.8687606 0.91278011 -0.4768123 57 3
2.9665964 0.94219929 -0.3821823 6 4
3.1097133 0.98347473 -0.17092925 60 6
2.6903293 0.84052092 -0.755234 1 0
2.7180128 0.84760815 -0.65730697 67 1
2.8213367 0.87766755 -0.5743351 76 2
2.8901553 0.89741641 -0.47931525 64 3
2.9560368 0.9161765 -0.37998864 46 4
3.0493948 0.94277859 -0.27924702 6 5
2.7331858 0.83144802 -0.65955651 69 1
2.8048506 0.85110992 -0.56975567 65 2
2.894459 0.87664622 -0.47900239 66 3
2.95666 0.89379537 -0.37925744 58 4
3.0595558 0.92315263 -0.27959561 71 5
3.1384423 0.94456339 -0.17176662 26 6
2.7538698 0.81678081 -0.66315573 32 1
2.8181086 0.83422863 -0.57128215 65 2
2.9022534 0.857485 -0.47931525 69 3
2.9742525 0.876499 -0.38071984 57 4
3.039166 0.89389956 -0.27715525 58 5
2.759366 0.79801553 -0.66315573 7 1
2.8427277 0.81997395 -0.57509834 62 2
2.8967795 0.83392239 -0.47743803 73 3
2.9936552 0.85954833 -0.38242605 63 4
3.0415018 0.8715626 -0.27680662 52 5
2.7612543 0.77719355 -0.66225594 8 1
2.9045749 0.81370503 -0.47775093 67 3
2.9957592 0.83755863 -0.38193855 58 4
3.059027 0.85352051 -0.27785251 55 5
2.7496972 0.75326359 -0.65820676 19 1
2.8578231 0.78073972 -0.57586157 67 2
2.9139965 0.79444665 -0.47837666 60 3
2.9977028 0.81558162 -0.38145107 30 4
3.068902 0.83265215 -0.27820113 58 5
2.7737191 0.73906744 -0.66270578 55 1
2.8423324 0.75522351 -0.57166374 75 2
2.9309282 0.77712131 -0.48025388 63 3
2.9975665 0.79311061 -0.38071984 58 4
3.0919785 0.81578141 -0.27976993 37 5
2.8570397 0.73781782 -0.57357186 72 2
2.932456 0.75565624 -0.47962815 66 3
3.0107203 0.7741431 -0.38169482 53 4
2.8583126 0.71689868 -0.57280862 75 2
2.9299948 0.73324716 -0.47837666 61 3
3.0218294 0.75454819 -0.38242605 58 4
2.8918614 0.70388967 -0.57853287 42 2
2.9388819 0.71370494 -0.47900239 61 3
3.0347407 0.73530179 -0.38340098 60 4
2.9418697 0.69271898 -0.47868952 33 3
3.0320699 0.71228296 -0.38242605 58 4
2.8784411 0.65819395 -0.57395351 7 2
2.9466341 0.67216396 -0.47868952 6 3
3.0409608 0.69144803 -0.38291353 55 4
2.9002178 0.6419009 -0.57738805 8 2
2.9610136 0.65318877 -0.48025388 15 3
2.902817 0.62072045 -0.57700646 71 2
2.9655015 0.63250113 -0.48025388 64 3
2.9737141 0.61258107 -0.4808796 62 3
2.9779181 0.5918057 -0.4808796 63 3
2.9936185 0.57322913 -0.48275682 55 3
