# .PCD v0.7 - Point Cloud Data file format
VERSION 0.7
FIELDS x y z intensity ring
SIZE 4 4 4 4 2
TYPE F F F F U
COUNT 1 1 1 1 1
WIDTH 1333
HEIGHT 1
VIEWPOINT 0 0 0 1 0 0 0
POINTS 1333
DATA ascii
2.2301383 3.6292932 -0.37267792 15 5
2.066108 3.3597231 0.76667058 46 13
2.140166 3.4787891 -0.21405408 15 6
2.0689261 3.3603616 0.91105175 42 14
2.0906579 3.3930087 -0.069565296 34 7
2.0608494 3.3433213 1.0523583 67 15
1.590564 2.5643184 -0.80855072 9 0
2.3975785 3.8638868 0.079373546 23 8
2.0499432 3.3010728 -0.8971048 31 1
2.3562355 3.7913492 0.23394175 11 9
2.2742693 3.6580355 -0.8372699 35 2
2.3345773 3.752116 0.38662288 53 10
2.4266233 3.8970146 -0.72710747 10 3
2.4248555 3.8896356 -0.56279266 9 4
2.4147143 3.8688548 -0.39899898 23 5
2.4254386 3.8800087 -0.23980337 18 6
2.1067991 3.3689687 0.91735035 6 14
2.4166398 3.8614335 -0.079513162 26 7
2.1021535 3.3563218 1.0611582 20 15
1.7937778 2.8473687 -0.90172559 11 0
2.443295 3.8753893 0.079966925 26 8
2.4423442 3.8693895 0.23980337 10 9
2.4524186 3.8823433 -0.89260459 25 2
2.3702919 3.7508852 0.38819164 46 10
2.4685504 3.9033532 -0.73148763 12 3
2.5404494 4.0139403 0.58326674 5 11
2.4668159 3.8960941 -0.56620502 10 4
2.5396225 4.0079885 0.75151128 7 12
2.4626102 3.8834462 -0.40231091 13 5
2.5492592 4.0185423 0.92504203 7 13
2.4631734 3.8798418 -0.24085009 13 6
2.4485478 3.8538346 1.0541207 3 14
2.4531946 3.8596559 -0.079827309 13 7
2.4303646 3.8207943 1.2133437 5 15
1.8292277 2.8591871 -0.90949017 25 0
2.4821532 3.8767612 0.080350876 28 8
2.0432789 3.1900806 -0.87460971 30 1
2.482234 3.872421 0.24105945 21 9
2.4572012 3.8304255 -0.88459057 20 2
2.4071827 3.7510128 0.38993478 48 10
2.4957407 3.8860242 -0.73148763 31 3
2.5523105 3.9710577 0.57961065 4 11
2.512207 3.9071629 -0.57034856 17 4
2.5076818 3.8971343 0.73399061 7 12
2.4972107 3.8778861 -0.40353107 18 5
2.4879413 3.8620107 0.89298618 9 13
2.5140073 3.8994825 -0.24315289 15 6
2.4901841 3.8595715 1.0604193 4 14
2.4995983 3.8726785 -0.080455594 15 7
2.5576065 3.9595184 1.263037 6 15
1.9186054 2.9532673 -0.9436543 25 0
2.521148 3.87778 0.080734834 27 8
2.5266407 3.8817797 0.24273418 20 9
2.1977756 3.3739545 -0.78269857 12 2
2.4528909 3.764163 0.3930724 46 10
2.5346792 3.8867071 -0.73492926 12 3
2.6016703 3.9863901 0.58448541 4 11
2.5524454 3.9094753 -0.57327342 10 4
2.5402303 3.8878005 0.73555493 5 12
2.54494 3.8920412 -0.40684301 23 5
2.5750268 3.9365537 0.91435677 3 13
2.5444515 3.8868496 -0.2434669 13 6
2.5864828 3.9480479 1.0896629 1 14
2.5474002 3.8869114 -0.081118785 15 7
2.595782 3.9577203 1.2682134 6 15
1.9285405 2.9236739 -0.93847787 42 0
2.5635798 3.8834498 0.081223503 20 8
2.1155431 3.2035198 -0.88630718 24 1
2.5624886 3.8773758 0.24357156 15 9
2.1757882 3.2897549 -0.76667058 10 2
2.493402 3.768548 0.39533845 43 10
2.5999193 3.9265642 -0.74587959 10 3
2.5691288 3.8771179 0.57107979 5 11
2.5818682 3.894871 -0.57376093 10 4
2.5520222 3.8469265 0.73117477 4 12
2.5874774 3.897418 -0.40928334 26 5
2.5622582 3.8579698 0.9002369 4 13
2.5847912 3.8889515 -0.24472295 12 6
2.5988727 3.9071786 1.0833644 1 14
2.5866594 3.8873453 -0.081502736 14 7
2.6115704 3.9218147 1.2625194 2 15
1.9274052 2.8780358 -0.92812514 28 0
2.6051016 3.8870525 0.081677265 19 8
2.0597215 3.0721321 -0.8539142 34 1
2.5983956 3.8726611 0.24440894 16 9
2.3563008 3.5091903 -0.82162356 8 2
2.5307581 3.7675891 0.39708155 42 10
2.583189 3.842741 -0.73336488 18 3
2.696965 4.0089707 0.59325999 6 11
2.6322734 3.9113345 -0.57887942 8 4
2.691371 3.9961364 0.76308739 6 12
2.6368928 3.9123034 -0.41276959 26 5
2.6999822 4.004396 0.93878025 6 13
2.6308677 3.8989577 -0.24650237 22 6
2.6904297 3.9842248 1.1099085 4 14
2.6215687 3.8807926 -0.08174707 17 7
2.6183293 3.8730783 1.2526842 5 15
1.9528803 2.872499 -0.93071336 30 0
2.6501727 3.8952239 0.082235746 19 8
2.1315553 3.1317847 -0.87460971 14 1
2.645607 3.8841393 0.24629304 12 9
2.4813685 3.6402776 -0.85635084 15 2
2.565979 3.7629976 0.39847603 43 10
2.6556056 3.8915117 -0.74619251 13 3
2.734961 4.0047998 0.59545368 6 11
2.6852708 3.9305618 -0.58448541 7 4
2.7303507 3.9935582 0.7662161 6 12
2.668644 3.9003754 -0.41346684 25 5
2.7267616 3.98383 0.93839866 6 13
2.6704409 3.8986206 -0.24765378 12 6
2.7380121 3.9942775 1.1180067 4 14
2.6587777 3.8772378 -0.082061216 11 7
2.7152631 3.9566474 1.2858131 5 15
1.9520383 2.8285851 -0.92087817 23 0
2.687531 3.8914347 0.082549877 19 8
1.9861047 2.8747282 -0.80667448 29 1
2.686291 3.8852873 0.24754909 14 9
2.1872361 3.1611288 -0.74720806 7 2
2.6114662 3.7728412 0.40143937 46 10
2.7153263 3.9199698 -0.75526565 31 3
2.7651148 3.9888713 0.59594113 5 11
2.6187532 3.7763271 -0.56425512 8 4
2.7412708 3.9500558 0.76152301 6 12
2.7094464 3.9012866 -0.41555858 24 5
2.6693745 3.8421605 0.90939575 5 13
2.712415 3.9012001 -0.24901451 11 6
2.6890311 3.8646927 1.0869635 6 14
2.7086294 3.8914065 -0.082759313 11 7
2.6820867 3.8504107 1.2573429 8 15
1.9019111 2.7152054 -0.88826698 29 0
2.727257 3.8905909 0.082933836 24 8
2.1650045 3.0873582 -0.87056059 22 1
2.7282631 3.8876936 0.24890982 15 9
2.0479019 2.916034 -0.69263667 10 2
2.6537752 3.777343 0.4038797 45 10
2.7642133 3.9316208 -0.7612102 37 3
2.7986083 3.9775863 0.5971598 4 11
2.7718787 3.9381399 -0.59131008 7 4
2.7744703 3.9388957 0.76308739 3 12
2.7607207 3.9164755 -0.41921914 16 5
2.7504423 3.900444 0.92771345 6 13
2.7568562 3.9066479 -0.25058457 12 6
2.7530432 3.8983552 1.1018102 2 14
2.7576511 3.9034345 -0.083422504 11 7
2.7947755 3.9530549 1.297201 6 15
1.9935803 2.8042037 -0.9219135 19 0
2.7717407 3.8958972 0.083457403 13 8
2.0565581 2.8895848 -0.81882185 25 1
2.7715592 3.8913274 0.25037524 11 9
2.2117879 3.1031036 -0.74072057 18 2
2.7020586 3.7895465 0.40719163 41 10
2.8133943 3.9427791 -0.76715469 46 3
2.827461 3.9595687 0.59740359 6 11
2.6700706 3.7377803 -0.56401139 7 4
2.8731244 4.0190644 0.78248531 6 12
2.8065436 3.9230332 -0.42200807 13 5
2.8632965 4.0008879 0.95633471 6 13
2.8026695 3.9132864 -0.25225934 11 6
2.8642008 3.9962497 1.135103 3 14
2.8011479 3.9068394 -0.083911166 13 7
2.8054135 3.9099021 1.2894366 4 15
1.9577229 2.7134514 -0.89654922 37 0
2.8222833 3.9088771 0.0841555 15 8
2.1942077 3.0378718 -0.86516178 24 1
2.8232284 3.9058754 0.25257334 16 9
2.2472053 3.1066756 -0.74529999 12 2
2.7623203 3.8173993 0.41224664 33 10
2.1804578 3.0110784 -0.58881938 9 3
2.8620236 3.9493766 0.59886599 5 11
2.8568873 3.9408412 -0.59764731 7 4
2.8929932 3.9877162 0.78029525 7 12
2.8549328 3.9323652 -0.42514572 13 5
2.8946192 3.9855659 0.9574796 7 13
2.8522315 3.9243212 -0.25424811 18 6
2.8966134 3.9824617 1.1369027 3 14
2.842473 3.9065921 -0.08433003 20 7
2.8860855 3.9636228 1.3137655 6 15
1.8944496 2.5874891 -0.85927927 34 0
2.8719575 3.919728 0.084818691 14 8
2.266052 3.0916364 -0.88495749 28 1
2.8693261 3.9118392 0.25424811 17 9
2.2514136 3.0671716 -0.73957568 17 2
2.8113074 3.8285358 0.41555858 26 10
2.8868861 3.9285824 -0.77216065 40 3
2.9389195 3.9964674 0.60910302 6 11
2.9078565 3.9527807 -0.60252208 7 4
2.9195907 3.965831 0.77998233 7 12
2.894134 3.9283793 -0.42688882 14 5
2.8734536 3.8988831 0.94145161 6 13
2.9008977 3.9332459 -0.25613219 10 6
2.8734272 3.8931537 1.1171069 4 14
2.8708644 3.8882613 -0.084364928 12 7
2.8333251 3.8346167 1.2775309 6 15
2.039196 2.744781 -0.91621947 11 0
2.9028337 3.9043956 0.084923409 12 8
2.1654663 2.9115567 -0.83771771 13 1
2.9120705 3.9125397 0.25560883 18 9
2.3970821 3.218276 -0.78002721 15 2
2.912966 3.9094672 0.4265402 10 10
2.6485596 3.5520213 -0.70176506 9 3
2.9928644 4.0108552 0.6144653 1 11
2.3760912 3.183131 -0.48772117 2 4
2.9720306 3.9785872 0.78655261 1 12
2.9369967 3.9288235 -0.42915487 16 5
2.9488072 3.9431913 0.95709801 3 13
2.9378598 3.9256907 -0.25696957 10 6
2.9612806 3.9541082 1.1405019 2 14
2.9303124 3.9113345 -0.08530736 10 7
2.9411454 3.92294 1.3137655 7 15
2.0838921 2.764416 -0.92760748 12 0
2.9504936 3.9111736 0.085516788 21 8
1.9943999 2.6428192 -0.76438367 23 1
2.962184 3.9223971 0.25759763 18 9
2.4455311 3.2359216 -0.78842276 30 2
2.9534051 3.906518 0.42845765 7 10
2.4444585 3.2309842 -0.64169425 1 3
2.9740624 3.9281385 0.60495949 4 11
3.0066025 3.9682386 -0.61129665 6 4
2.9770646 3.927829 0.78060806 4 12
2.9920464 3.9447346 -0.43316403 13 5
3.0730939 4.0486565 0.9880091 6 13
2.9821043 3.9273541 -0.25843498 10 6
3.1067133 4.0885015 1.1854922 2 14
2.9836447 3.9236925 -0.086040363 11 7
3.0129044 3.9607401 1.3334358 4 15
2.0613601 2.6941991 -0.9089725 22 0
2.9983864 3.9174762 0.086110167 12 8
2.1969304 2.8682764 -0.83411849 30 1
2.9962509 3.9090254 0.25812095 14 9
2.4835927 3.2390237 -0.79338378 23 2
2.9897742 3.8963482 0.42967781 7 10
2.5144362 3.2745125 -0.65389615 10 3
3.0110877 3.9198737 0.60690933 1 11
3.0414898 3.9565961 -0.61275911 6 4
2.9942553 3.8923335 0.77779222 6 12
3.0438132 3.9553306 -0.43665028 11 5
3.0090499 3.9073308 0.95862442 5 13
3.0296381 3.9312263 -0.26010972 10 6
3.0138206 3.9092903 1.1396021 2 14
3.0292869 3.9265163 -0.08656393 10 7
3.0718648 3.978837 1.3468944 4 15
1.9889077 2.5622356 -0.8691144 19 0
3.0606909 3.9401381 0.087087512 14 8
2.2527747 2.8990307 -0.84761554 29 1
3.0479875 3.9195466 0.26021439 13 9
2.4958556 3.2072241 -0.7899493 11 2
3.0266919 3.8879597 0.43107229 6 10
2.5433054 3.2646701 -0.65546048 13 3
3.2001677 4.1048799 0.63908291 6 11
2.4269083 3.1118968 -0.48455253 2 4
3.2194579 4.1251674 0.82878989 7 12
3.091661 3.9585724 -0.43943924 10 5
3.2260208 4.129118 1.0185385 7 13
3.0840716 3.9445963 -0.26241252 14 6
3.2278457 4.1255178 1.2093369 5 14
3.0800428 3.9351919 -0.087227128 19 7
3.2055883 4.0926495 1.3929642 9 15
1.9708897 2.5027566 -0.85358524 31 0
3.1079276 3.9438043 0.087645985 12 8
2.3284543 2.9536314 -0.86831105 16 1
3.1037288 3.9342375 0.26262185 17 9
2.4975045 3.1635261 -0.78346181 25 2
3.072284 3.8901882 0.43368697 5 10
3.1368115 3.9690411 -0.80125743 33 3
3.2718441 4.1369348 0.6476137 5 11
2.4214787 3.0606277 -0.47919029 1 4
3.2751527 4.1366649 0.83567303 5 12
3.1365435 3.958755 -0.4418796 10 5
3.273061 4.1295743 1.0242627 3 13
3.1363578 3.9542654 -0.26450595 10 6
3.2820122 4.1349349 1.2187848 2 14
3.1186299 3.9276891 -0.087541275 11 7
3.2569168 4.0989084 1.4027992 7 15
1.973845 2.4708238 -0.8473736 27 0
3.1478713 3.9376304 0.087995037 12 8
2.1055963 2.63292 -0.77833068 11 1
3.1535823 3.9405422 0.26450595 16 9
2.568619 3.207309 -0.7987265 15 2
3.1105797 3.8826396 0.4352558 6 10
2.912374 3.6326392 -0.73743218 9 3
3.185117 3.9699945 0.62494606 3 11
2.4656866 3.0710855 -0.48357758 1 4
3.1703591 3.9473646 0.80188316 3 12
3.1790826 3.9553971 -0.44397137 14 5
3.2065527 3.9867208 0.99449658 5 13
3.1876776 3.9618373 -0.26649469 11 6
3.238693 4.0223665 1.1922406 1 14
3.1742585 3.9395292 -0.088309184 11 7
3.2115002 3.9843221 1.3712233 3 15
2.047436 2.5256681 -0.87118495 25 0
3.1891375 3.9326441 0.088378988 13 8
2.2877026 2.8190367 -0.83816761 13 1
3.2043629 3.9457819 0.26639003 14 9
2.713501 3.3401539 -0.83650672 10 2
3.1671906 3.8958387 0.43926495 6 10
2.8634984 3.5197649 -0.71866006 23 3
3.3869255 4.1616726 0.6588257 5 11
3.250488 3.9911757 -0.63201445 12 4
3.3932066 4.1634507 0.85069072 6 12
3.2318001 3.9639888 -0.44745758 10 5
3.3757904 4.1376553 1.0380009 7 13
3.2273128 3.9528508 -0.26743674 10 6
3.3801033 4.1385159 1.2336316 4 14
3.2206662 3.9404972 -0.088832751 10 7
3.352452 4.0988131 1.4188461 9 15
2.0453868 2.4874382 -0.8629027 28 0
3.2451508 3.9436934 0.089146897 14 8
2.1079288 2.5607626 -0.76573336 27 1
3.2445283 3.9387321 0.26743674 10 9
2.7023668 3.2782335 -0.82582134 16 2
3.2234638 3.9089885 0.44327411 6 10
3.2073517 3.8866816 -0.79812872 24 3
3.4431636 4.1694741 0.66394424 5 11
3.274478 3.9637959 -0.63128328 15 4
3.4410698 4.162498 0.85538375 7 12
3.2880232 3.974535 -0.45129246 11 5
3.4446483 4.1623869 1.0502127 8 13
3.2815843 3.9625258 -0.26963487 18 6
3.4419618 4.153234 1.245329 5 14
3.2800062 3.9564018 -0.08970537 11 7
3.4093537 4.1095066 1.4307518 9 15
2.0874488 2.5027699 -0.87325549 25 0
3.3059211 3.960856 0.090054423 16 8
2.2993612 2.7539122 -0.82826978 12 1
3.2962804 3.9451046 0.26942554 12 9
2.6433313 3.1613889 -0.80101627 13 2
3.2775207 3.9184809 0.44693464 6 10
3.0530984 3.6475823 -0.75338852 9 3
3.4874818 4.1635971 0.6668691 5 11
3.3058953 3.9454041 -0.63201445 22 4
3.4890835 4.161078 0.86007679 6 12
3.3387408 3.9789574 -0.45443004 10 5
3.4912949 4.1592894 1.0555553 6 13
3.3477042 3.9854002 -0.27277502 18 6
3.4834123 4.144021 1.2498281 4 14
3.321702 3.9502435 -0.090089321 11 7
3.4541302 4.1048203 1.437481 9 15
2.064944 2.4409397 -0.85669106 18 0
3.3593335 3.9682043 0.090752512 18 8
2.2014079 2.5994902 -0.78642887 11 1
3.3456933 3.9478989 0.27120495 16 9
2.7339058 3.2237139 -0.82162356 13 2
3.3163974 3.9091783 0.44850346 6 10
3.0951085 3.6457553 -0.75745571 6 3
3.3943665 3.9954262 0.64371389 5 11
3.3841891 3.9806302 -0.64152032 7 4
3.3670371 3.9590547 0.8231582 6 12
3.3793509 3.9707241 -0.45617315 13 5
3.3516669 3.9354117 1.0048002 6 13
3.398761 3.9892974 -0.27465913 25 6
3.3618047 3.9431314 1.1962898 3 14
3.3706508 3.9507132 -0.090647802 11 7
3.3297 3.9013357 1.3743292 6 15
2.1440113 2.497931 -0.88205534 32 0
3.4025855 3.9628632 0.091171376 28 8
2.294883 2.670877 -0.81297308 9 1
3.4129229 3.9692893 0.2743451 21 9
2.1789591 2.5332756 -0.64951384 7 2
3.3715808 3.917057 0.45216399 6 10
3.2165174 3.7342696 -0.78060806 9 3
3.5932217 4.1701388 0.67588747 5 11
3.4572675 4.0095253 -0.65005112 7 4
3.5965965 4.1681714 0.87196583 9 12
3.4343283 3.978708 -0.45983368 9 5
3.601079 4.1689477 1.0708202 10 13
3.4442 3.9845173 -0.27601984 30 6
3.6059391 4.1701584 1.2727731 5 14
3.4282453 3.9618649 -0.091450609 12 7
3.5737798 4.1271405 1.4628453 9 15
2.1778874 2.5018444 -0.88878465 25 0
3.447933 3.9580128 0.091625139 15 8
2.2353773 2.56517 -0.78552908 21 1
3.4615536 3.9694505 0.27601984 20 9
2.6591566 3.0471764 -0.78613311 11 2
3.4289811 3.9279451 0.45617315 6 10
3.0085788 3.4439447 -0.72429162 7 3
3.6556332 4.1816826 0.68198091 5 11
3.4838665 3.9837985 -0.64980739 9 4
3.6555307 4.1771493 0.87916183 6 12
3.4915895 3.9870059 -0.46366853 4 5
3.6391516 4.1540427 1.0734915 5 13
3.4929988 3.9844046 -0.27769461 28 6
3.6523926 4.1632943 1.2786218 4 14
3.4887965 3.97541 -0.092323236 11 7
3.6254497 4.1282201 1.4721627 6 15
2.1109159 2.390996 -0.85462052 24 0
3.504607 3.9668164 0.092393041 15 8
2.1938674 2.4823327 -0.76483357 21 1
3.509027 3.9676309 0.27758995 21 9
2.8599231 3.2314205 -0.83879644 16 2
3.4827321 3.9337473 0.45965937 6 10
2.6212227 2.9585907 -0.62605083 6 3
3.5293412 3.9807858 0.6532197 2 11
3.5300357 3.9801695 -0.6532197 6 4
3.560035 4.0111732 0.84943926 3 12
1.7345306 1.9529637 -0.22852236 36 5
3.5128915 3.9538834 1.0280789 4 13
3.5472698 3.9897759 -0.27978805 25 6
3.5129759 3.9484239 1.2201345 1 14
3.5470409 3.9853144 -0.093126044 10 7
3.5398295 3.9744141 1.426093 4 15
2.2100291 2.4683137 -0.88774931 18 0
3.5695789 3.9839542 0.093370378 15 8
2.3724263 2.6469002 -0.82062149 21 1
3.5619786 3.9712856 0.27957872 26 9
2.6922643 2.9995229 -0.78346181 8 2
3.5393944 3.9419522 0.46349424 6 10
2.7223501 3.0298495 -0.64513582 14 3
3.7733872 4.1966619 0.69294918 5 11
3.5179112 3.9111512 -0.64590758 6 4
3.7650347 4.1829648 0.89136374 6 12
1.7547896 1.9482088 -0.22939391 76 5
3.7717032 4.1859646 1.0952437 8 13
3.6031244 3.9960639 -0.28198618 17 6
3.5704813 3.9570794 1.2304822 3 14
3.5895176 3.9767811 -0.093509994 11 7
3.5700798 3.9524717 1.4271283 10 15
2.2596741 2.4885802 -0.90069032 32 0
3.6309228 3.9959376 0.09424299 27 8
2.4105089 2.6519036 -0.82736999 29 1
3.6191826 3.978826 0.28188148 32 9
2.7963955 3.0721223 -0.80750376 11 2
3.5882931 3.9407158 0.46628323 6 10
3.2197437 3.5334949 -0.7571429 6 3
3.7383921 4.0998077 0.68124968 5 11
3.5237241 3.8630321 -0.64200777 7 4
3.7235627 4.0792532 0.87478167 6 12
1.7481929 1.9138439 -0.22677925 73 5
3.7306452 4.0827169 1.0750179 6 13
1.783121 1.9500303 -0.13848096 33 6
3.7348349 4.0815768 1.2772721 1 14
3.6495976 3.9870253 -0.094347708 11 7
3.7176344 4.0585108 1.474751 3 15
2.3005478 2.4983242 -0.91000783 30 0
3.6709294 3.9837253 0.094557136 14 8
2.7419951 2.9745955 -0.93399686 14 1
3.6726019 3.9813557 0.28387025 24 9
2.8550613 3.0929174 -0.81818902 7 2
3.6468034 3.9492371 0.47029239 6 10
2.4131408 2.6114361 -0.56316411 2 3
3.7413161 4.045917 0.67661864 5 11
1.8063074 1.9526851 -0.32660985 1 4
3.6727786 3.9676306 0.85632241 5 12
1.7723421 1.9132862 -0.22817372 69 5
3.6883349 3.9802496 1.0547922 6 13
1.7899004 1.9302127 -0.1379576 65 6
3.7632389 4.0554037 1.2772721 5 14
3.7059119 3.9922283 -0.095080711 13 7
3.7314146 4.0168886 1.469057 9 15
2.466923 2.6417534 -0.96850091 24 0
3.7273231 3.9886818 0.095290139 13 8
2.5298088 2.7062516 -0.85526395 18 1
3.7153161 3.9716628 0.28502163 21 9
2.6900892 2.8736868 -0.76514411 25 2
3.7124171 3.9644015 0.47517309 6 10
3.3119893 3.5343206 -0.76715469 9 3
3.7124398 3.9588828 0.66638166 3 11
1.8076727 1.9269973 -0.32441622 67 4
3.7287798 3.9721375 0.86289263 6 12
1.7911129 1.9066751 -0.22887097 69 5
3.7348526 3.9744341 1.0601349 6 13
3.7781043 4.0148406 1.2727731 1 14
3.7665884 4.0012035 -0.095918424 12 7
3.7659903 3.9977717 1.4716451 6 15
2.392324 2.5262761 -0.93226624 31 0
3.7922168 4.0017538 0.096232571 15 8
2.4132311 2.5456829 -0.80982381 12 1
3.7347057 3.9369345 0.28439364 19 9
2.7655025 2.9132159 -0.78079039 12 2
3.8127182 4.0149589 0.4844116 1 10
3.2848718 3.4567001 -0.75526565 9 3
3.9711716 4.1759753 0.70757347 0 11
1.820047 1.9125744 -0.32417247 8 4
3.929395 4.1277142 0.90262699 0 12
1.8126256 1.9027798 -0.22991684 57 5
3.8769875 4.0669732 1.0921907 0 13
1.8097842 1.8978064 -0.13743424 10 6
3.7845151 3.9658096 1.2655747 2 14
3.8227451 4.0030718 -0.096616521 11 7
6.1424227 6.4299207 2.3826883 2 15
2.4518287 2.5522807 -0.94831306 14 0
3.8643985 4.0213227 0.097349517 17 8
2.606986 2.7109523 -0.86831105 34 1
3.7683218 3.9158652 0.2848123 26 9
2.6155784 2.7170384 -0.7330882 13 2
3.8565559 4.0033565 0.48632905 5 10
2.7350869 2.8372188 -0.62417358 1 3
3.852787 3.9952559 0.68149346 5 11
1.8361109 1.9026791 -0.32465994 10 4
3.8490543 3.9858129 0.87759745 1 12
3.869808 4.0031071 1.0822687 0 13
1.8372049 1.8991622 -0.13848096 9 6
3.8703823 3.9995086 1.2849205 0 14
3.8812029 4.0078902 -0.09738443 13 7
3.8409531 3.9635534 1.4788921 1 15
2.3954456 2.4589927 -0.9198429 24 0
3.9237847 4.0250683 0.098117426 16 8
2.5931954 2.6592016 -0.85751343 18 1
3.8164897 3.9109051 0.28638238 42 9
2.8832238 2.952486 -0.80216104 7 2
3.896939 3.9891641 0.48789781 4 10
1.8545039 1.8970656 -0.42018303 47 3
3.9284751 4.0158305 0.68978053 6 11
1.8535156 1.8940699 -0.32539117 42 4
3.9141035 3.9969506 0.88604486 4 12
1.856077 1.8940421 -0.23200859 75 5
3.9251475 4.0040331 1.0899011 3 13
1.850418 1.8862907 -0.13848096 9 6
3.9289362 4.0023046 1.2948182 1 14
3.9511201 4.0235019 -0.098431572 25 7
3.8820691 3.950423 1.4840684 6 15
2.4980855 2.5287945 -0.95245409 23 0
3.9770944 4.0231752 0.098745719 16 8
2.5308509 2.5592813 -0.83096921 18 1
3.8717968 3.9125586 0.28847581 46 9
2.8236432 2.8513756 -0.78002721 7 2
4.1448355 4.1840878 0.51526475 0 10
1.8621401 1.8784611 -0.41893157 79 3
4.1479425 4.1813817 0.72317278 0 11
1.8736849 1.8881289 -0.32660985 76 4
4.0240331 4.052228 0.90450418 0 12
1.8566158 1.8683178 -0.23043977 71 5
4.0692682 4.0934911 1.1219569 0 13
1.8663596 1.8761574 -0.13869029 9 6
4.8751736 4.897347 1.5953529 0 14
3.9988697 4.015655 -0.098920241 4 7
6.1581941 6.1797285 2.3376536 2 15
2.5402887 2.5358598 -0.96177161 22 0
4.033401 4.0235553 0.099443816 15 8
2.5596955 2.5525587 -0.83456844 10 1
3.9301434 3.9164467 0.29077861 51 9
2.9241645 2.9119432 -0.80216104 10 2
4.0412169 4.0229177 0.49887949 5 10
1.8822101 1.8723817 -0.4204959 13 3
4.2403851 4.2152996 0.73414099 4 11
1.8924524 1.8806002 -0.32758483 77 4
4.2764921 4.2467437 0.9545632 5 12
1.8879989 1.8735551 -0.23270583 71 5
4.2719707 4.2378135 1.1696591 5 13
1.8794122 1.8630821 -0.13869029 11 6
4.0411949 4.0032892 1.3132643 1 14
1.9054155 1.8868825 -0.046807356 45 7
4.1867628 4.143147 1.5782787 3 15
2.5785813 2.5383925 -0.96953619 15 0
4.1055822 4.0387735 0.10052586 16 8
2.6080215 2.5646868 -0.84446627 22 1
3.9887283 3.9197135 0.2930814 50 9
1.9316646 1.8969175 -0.52625126 2 2
4.0962157 4.0211282 0.50219136 9 10
1.9036967 1.8674957 -0.42237309 9 3
4.1463842 4.064693 0.71293575 13 11
1.9026996 1.8645637 -0.32709733 68 4
4.132442 4.0467844 0.91608036 6 12
1.9067279 1.8659039 -0.23340309 76 5
4.0993633 4.0101891 1.1147063 7 13
4.2000794 4.1029844 1.3555551 2 14
1.909958 1.8651516 -0.046597924 65 7
4.312366 4.2082648 1.6145133 12 15
2.6267347 2.5499322 -0.98092425 24 0
4.1738672 4.0489993 0.1015032 15 8
2.7125988 2.6305287 -0.87236023 29 1
4.0475492 3.9223495 0.29538417 52 9
1.9279367 1.8669966 -0.52167183 83 2
4.4004707 4.2598882 0.53583348 8 10
1.9223671 1.8596537 -0.4236246 9 3
4.2988272 4.155683 0.73414099 3 11
4.2515349 4.1056576 0.93610394 4 12
1.919708 1.8525468 -0.23340309 67 5
4.3978734 4.2410502 1.1875952 7 13
1.9296857 1.8602252 -0.14046971 76 6
4.392828 4.2317438 1.4081936 4 14
1.9275777 1.855597 -0.046702638 74 7
4.3722658 4.2075243 1.6259012 10 15
2.6253726 2.5123723 -0.97367728 15 0
4.2396026 4.0557013 0.10241073 15 8
2.6806407 2.5625741 -0.85616374 37 1
4.1130629 3.9291556 0.29810563 55 9
1.9352442 1.8480679 -0.52014536 70 2
4.4755244 4.2709312 0.54123718 8 10
1.9442027 1.8540295 -0.42550179 8 3
4.4958439 4.2858267 0.76265842 4 11
1.9461162 1.85391 -0.33002222 8 4
4.4796796 4.2644482 0.97959268 4 12
1.935481 1.8418466 -0.2337517 64 5
4.2324696 4.0248933 1.1353136 5 13
4.251307 4.0385709 1.3537554 2 14
4.2256651 4.0086079 1.5606788 9 15
2.6386347 2.4900038 -0.9721244 22 0
4.2932482 4.0485826 0.10300411 20 8
2.6913769 2.5371125 -0.8539142 16 1
4.1898222 3.9469087 0.3016645 49 9
1.9584249 1.843593 -0.52281672 73 2
4.2832351 4.0306749 0.51456749 8 10
1.9513419 1.8349993 -0.42425033 9 3
4.302175 4.0428391 0.72487891 5 11
1.9676917 1.848434 -0.33148462 7 4
4.3278718 4.0627222 0.94017124 4 12
1.9645956 1.8429438 -0.23566914 16 5
4.5368567 4.254437 1.2089659 6 13
1.96162 1.8382225 -0.14088841 9 6
4.5446706 4.2558017 1.4374373 4 14
1.9605966 1.8353364 -0.046877164 7 7
4.4976172 4.2073221 1.6502303 9 15
2.7294946 2.5399556 -0.99904156 11 0
4.3653374 4.0593662 0.10405125 15 8
1.9653981 1.8269998 -0.61951524 46 1
4.2553191 3.9529064 0.30438596 52 9
1.9841986 1.8418958 -0.52625126 77 2
4.3609233 4.0467544 0.52049404 5 10
1.974245 1.8307328 -0.42644039 74 3
4.3696079 4.0491357 0.73145986 3 11
1.9921992 1.8454429 -0.33343455 8 4
4.3822227 4.0565629 0.94580293 6 12
1.9744886 1.8264775 -0.23532049 59 5
4.6154561 4.2679787 1.2219409 7 13
1.9802728 1.829905 -0.14130709 9 6
4.6200833 4.2662783 1.4518342 4 14
1.989525 1.8365244 -0.047261119 7 7
4.3919806 4.0513859 1.6010547 4 15
2.7058806 2.4829621 -0.98403007 7 0
2.0029731 1.8366746 0.047435641 3 8
1.9766675 1.8119183 -0.61906528 27 1
4.3122673 3.9500837 0.30647939 52 9
1.9999053 1.8306499 -0.52701449 77 2
4.6815758 4.2838688 0.5551821 6 10
1.9898932 1.8195713 -0.42706612 66 3
4.6820641 4.2783098 0.77874517 3 11
1.9859806 1.8140852 -0.33026594 42 4
4.442533 4.0551686 0.95268601 4 12
2.0004396 1.8247328 -0.2368893 73 5
4.4725065 4.078238 1.1765283 3 13
1.9989049 1.8214165 -0.14172579 29 6
4.4422665 4.0449877 1.3870482 2 14
2.0037766 1.8239361 -0.047296021 8 7
4.6416659 4.2221117 1.6812886 5 15
2.7088242 2.4510491 -0.97885364 6 0
2.0127809 1.8199632 0.047365833 46 8
2.0109544 1.8176756 -0.62581384 8 1
4.3812408 3.957365 0.30941018 52 9
2.0111797 1.8153279 -0.52663285 79 2
4.6166992 4.1656561 0.54402614 18 10
2.0128174 1.8148946 -0.42925623 64 3
4.6513515 4.1910396 0.76875186 8 11
2.0133467 1.8134618 -0.33270332 67 4
4.641047 4.1773548 0.98897886 8 12
2.022018 1.8187169 -0.23793517 69 5
4.6468568 4.1781821 1.2146901 6 13
2.0204859 1.8154262 -0.1423538 75 6
4.6501994 4.1753168 1.4428362 4 14
2.0209255 1.8139099 -0.047400735 8 7
4.4927011 4.0296555 1.6171014 7 15
2.6955986 2.4050696 -0.96798331 2 0
2.0358849 1.8151833 0.047610167 70 8
2.0265048 1.8061854 -0.62671363 9 1
4.4564886 3.9691901 0.3127597 46 9
2.0340688 1.8103807 -0.52930421 70 2
4.6739502 4.1584868 0.54733807 13 10
4.6419153 4.1241832 0.76241469 3 11
4.6287317 4.1081352 0.98021847 5 12
2.0287035 1.7992682 -0.23723793 69 5
4.6553483 4.1274028 1.2093475 9 13
2.0480602 1.8145211 -0.14340053 76 6
4.6091976 4.0807467 1.4212408 2 14
2.0320425 1.7984318 -0.047365833 8 7
4.6321483 4.0967422 1.6569597 13 15
2.0320673 1.7877289 -0.72521096 53 0
2.0545149 1.8062072 0.047749784 75 8
2.0449209 1.7971385 -0.62851328 8 1
4.5396142 3.986747 0.31663257 62 9
2.0525603 1.801316 -0.53083062 73 2
4.6444545 4.0745139 0.54053992 7 10
2.0542996 1.8009392 -0.43269777 7 3
4.6885123 4.1073728 0.76533955 4 11
2.066844 1.8100235 -0.33733436 7 4
4.7450047 4.1524734 0.99867773 5 12
2.0502131 1.7929319 -0.2382838 67 5
4.7195234 4.1258135 1.2185063 4 13
2.0651894 1.8041215 -0.14371455 80 6
4.6463847 4.0561562 1.4239402 5 14
4.6184144 4.0274801 1.6419481 4 15
2.0547132 1.782361 -0.72883451 81 0
2.0685856 1.7931299 0.04778469 74 8
2.0544713 1.780267 -0.62761348 61 1
4.6020627 3.9850278 0.31904003 57 9
2.0710251 1.79208 -0.53235716 75 2
4.7149796 4.0784869 0.54542065 8 10
2.0772846 1.7955953 -0.43488789 8 3
4.8282375 4.170567 0.78337622 4 11
2.0974605 1.8111175 -0.34025922 7 4
4.8366909 4.1734486 1.0118183 5 12
4.7898483 4.1286569 1.2291917 5 13
2.0686548 1.781839 -0.14308652 65 6
4.7292366 4.0706577 1.4405866 3 14
4.7709289 4.1021972 1.6859473 8 15
2.0832553 1.7817852 -0.73452848 17 0
2.0886536 1.7851419 0.047959212 61 8
2.0757394 1.7734759 -0.63031286 92 1
4.6692624 3.9865227 0.32176149 54 9
2.0954332 1.787773 -0.53541011 77 2
4.904026 4.1825175 0.56389767 8 10
2.0912721 1.7823317 -0.43520072 77 3
4.8647923 4.1431932 0.78459489 4 11
2.0919147 1.7809894 -0.33733436 8 4
4.8882775 4.1587811 1.0165112 5 12
2.0947809 1.780907 -0.24054985 7 5
4.8469791 4.1192737 1.2364424 7 13
4.8793736 4.1409416 1.4774785 3 14
2.0951836 1.7774732 -0.047959212 6 7
4.780293 4.0525517 1.6792181 6 15
2.0912125 1.7634629 -0.73297554 7 0
2.1029742 1.7714962 -0.63481188 30 1
2.1048582 1.7705727 -0.53464681 77 2
2.1867306 1.838791 0.24996266 1 10
2.1112258 1.7740425 -0.43676507 86 3
2.11342 1.7739992 -0.33879682 8 4
4.9822698 4.179141 1.0299646 5 12
2.1163235 1.7739195 -0.24159572 44 5
4.9598889 4.1559453 1.257813 5 13
2.1055822 1.7630399 -0.14392389 53 6
4.945528 4.1380396 1.4887261 4 14
2.1090746 1.7640867 -0.047994118 7 7
4.9522481 4.139256 1.7294289 8 15
2.1064439 1.7512906 -0.73401088 8 0
2.1318326 1.771139 0.048378069 9 8
2.1212859 1.7617527 -0.63661146 8 1
2.1424568 1.7780702 0.14591266 47 9
2.1232128 1.7608483 -0.53617334 73 2
2.1473646 1.7802455 0.24403608 19 10
2.1220384 1.7579999 -0.43645221 73 3
2.1544991 1.7836242 0.34342784 10 11
2.1211653 1.7554046 -0.33806559 30 4
4.9534779 4.0964184 1.0180756 6 12
2.1225131 1.754025 -0.24089848 59 5
5.0538654 4.174983 1.2742226 5 13
2.1363223 1.763555 -0.14517996 70 6
5.0299172 4.1492953 1.5053725 3 14
2.1259673 1.7531363 -0.048098832 8 7
4.9467344 4.0763254 1.7175232 8 15
2.1231019 1.7402152 -0.73556381 7 0
2.1379576 1.7511444 0.048238453 9 8
2.1365499 1.7493685 -0.63751125 8 1
2.1625464 1.7693934 0.14643602 62 9
2.1476126 1.7559251 -0.53922629 68 2
2.1535697 1.760167 0.24333882 10 10
2.1464987 1.7531401 -0.43895519 63 3
2.1792021 1.7785809 0.34537774 9 11
2.1687446 1.7694172 -0.34367159 7 4
5.1411829 4.1915531 1.050614 5 12
2.1347067 1.7391641 -0.24089848 60 5
5.0204759 4.088768 1.2585762 7 13
2.1625237 1.7599441 -0.14612199 76 6
5.1313329 4.1730971 1.5269678 3 14
2.1552229 1.7521272 -0.048482787 28 7
5.0875287 4.1330495 1.7563461 8 15
2.1517279 1.7387066 -0.74125779 10 0
2.1672437 1.7499959 0.048622403 9 8
2.148711 1.7344099 -0.63751125 9 1
4.9917293 4.0263829 0.33610156 57 9
5.1817966 4.1752167 0.58220035 8 10
2.1725338 1.7492604 -0.44177097 11 3
5.1595364 4.15134 0.81311232 4 11
2.1810455 1.7542323 -0.34367159 7 4
5.17032 4.1555586 1.050614 4 12
2.1669898 1.7404391 -0.24316452 61 5
5.1759629 4.1556354 1.2902504 4 13
2.1700833 1.7410553 -0.14580798 84 6
5.1785865 4.1517997 1.5323665 3 14
2.1705222 1.7395403 -0.048552595 65 7
5.0936408 4.0793171 1.7485816 6 15
2.1562579 1.717625 -0.73866957 53 0
2.1794083 1.7348231 0.048622403 63 8
2.1607661 1.7193679 -0.63751125 8 1
5.0619259 4.0249982 0.33892769 52 9
2.1857545 1.7367593 -0.54266083 64 2
5.3028665 4.2120519 0.59248471 8 10
2.1831458 1.7328225 -0.44145811 7 3
5.322144 4.2213082 0.83407384 4 11
2.1904311 1.7361143 -0.34318411 7 4
5.2487493 4.1586194 1.0606258 5 12
5.2040281 4.1172724 1.2898688 6 13
2.1806197 1.724623 -0.14570332 85 6
5.2900066 4.1807947 1.5566614 3 14
2.2080235 1.743794 -0.049111072 83 7
5.1917443 4.098722 1.772393 10 15
2.1973665 1.724815 -0.7485047 63 0
2.2040529 1.7294402 0.048901644 53 8
2.1852825 1.7134814 -0.64111048 52 1
5.1519122 4.0367146 0.34300989 47 9
2.2009163 1.7238799 -0.54342401 85 2
5.3109059 4.156806 0.59004438 8 10
2.2032695 1.7232407 -0.44302243 71 3
5.3733783 4.2011676 0.83748621 4 11
2.2087553 1.7256683 -0.34415907 8 4
5.3110704 4.1464815 1.0671961 5 12
2.2162104 1.729625 -0.24595349 8 5
5.2806349 4.1182718 1.301699 6 13
2.205508 1.7187964 -0.1465407 83 6
5.37748 4.1892734 1.5737575 3 14
2.1933198 1.7074528 -0.048517693 27 7
5.2666855 4.0970511 1.787922 6 15
2.2032428 1.7047036 -0.74643415 58 0
5.3819385 4.1611366 0.11874618 21 8
2.2110686 1.7089088 -0.6451596 19 1
5.240037 4.0470381 0.34698743 52 9
2.2163043 1.7104853 -0.54418731 79 2
5.4691525 4.2194209 0.60433793 13 10
2.2324543 1.7210852 -0.446464 79 3
5.4882221 4.2280288 0.85064811 5 11
2.2333302 1.7198969 -0.34610897 9 4
5.3618064 4.1261683 1.0715762 14 12
2.2158957 1.7040057 -0.24455902 7 5
5.4042044 4.1542926 1.3249778 5 13
2.2237892 1.7082239 -0.14695938 27 6
5.4598789 4.1910295 1.5890542 3 14
2.2099459 1.6957508 -0.048622403 7 7
5.354949 4.1060276 1.80811 8 15
5.4760675 4.1731572 0.12017727 11 8
2.2260456 1.6957928 -0.64605945 6 1
5.3317289 4.0587497 0.35117432 52 9
2.2422545 1.7056683 -0.54762185 70 2
5.6523113 4.2981191 0.6212461 5 10
2.2381241 1.7006774 -0.44521254 80 3
5.511281 4.1848083 0.84967309 3 11
2.2468641 1.7054635 -0.34635273 74 4
5.5494442 4.2092032 1.103176 4 12
2.2309127 1.6909024 -0.24490763 8 5
5.6239858 4.2611055 1.3715351 3 13
2.2547681 1.7071254 -0.14821544 62 6
5.4719095 4.1398773 1.5841054 3 14
2.2392747 1.6935498 -0.049006358 7 7
5.4250946 4.0999942 1.8220862 18 15
3.0885289 2.3214631 -1.0352762 9 0
5.569025 4.1828628 0.12157347 14 8
2.240947 1.6825509 -0.64695925 6 1
5.4238381 4.0693736 0.35536119 56 9
5.817697 4.3601184 0.63606262 7 10
2.2515237 1.6861949 -0.44552541 74 3
5.5689702 4.1676397 0.85406041 3 11
2.2637799 1.6929082 -0.3470839 83 4
5.5565419 4.1538019 1.0987958 5 12
2.2682023 1.6943643 -0.24769662 66 5
5.8226714 4.3464146 1.4123683 6 13
2.2602282 1.6865649 -0.14779675 70 6
5.555357 4.1423464 1.599852 6 14
2.2737858 1.6942098 -0.049495026 44 7
5.5217576 4.1127925 1.8448622 3 15
3.1516371 2.3337941 -1.0508054 9 0
5.6607742 4.1902819 0.12293475 13 8
2.2607625 1.6722674 -0.64920872 7 1
5.5010028 4.0660725 0.35850134 49 9
2.2816401 1.6858631 -0.55143803 7 2
5.8182945 4.2958908 0.63275069 6 10
2.2762487 1.6794225 -0.44802836 71 3
5.6522479 4.1687202 0.86234754 3 11
5.657702 4.1666441 1.1128749 4 12
2.2799759 1.678488 -0.24769662 17 5
5.8418055 4.2975125 1.4096969 6 13
2.2883315 1.6821774 -0.14884347 76 6
5.6453862 4.1484632 1.6173981 2 14
5.7251759 4.2040234 -0.1239819 25 7
5.7332764 4.206893 1.9054259 9 15
3.1928225 2.3299534 -1.0590875 9 0
5.7665539 4.2050433 0.12457528 15 8
2.2881303 1.6679217 -0.65370774 8 1
5.6002879 4.0793099 0.36310691 51 9
2.3015819 1.6752696 -0.5533461 9 2
5.9947505 4.3618393 0.64861304 7 10
2.3006985 1.6727846 -0.4505313 41 3
5.7445669 4.1736727 0.87185335 9 11
2.3003368 1.6700665 -0.34903383 6 4
5.7745805 4.1908612 1.1300827 3 12
2.3161218 1.6796752 -0.25031129 6 5
5.9964056 4.3454576 1.4394631 6 13
2.3064895 1.6708478 -0.14926216 70 6
5.7364907 4.1525245 1.6349442 3 14
5.8102007 4.2027955 -0.12516867 11 7
5.6889305 4.1135588 1.8810968 6 15
3.2501967 2.3363655 -1.0725461 9 0
5.8672204 4.2160292 0.12611109 20 8
2.3095047 1.6583253 -0.65640718 9 1
5.7104731 4.0973487 0.36834049 56 9
2.3100317 1.6568712 -0.55258286 64 2
5.9027348 4.2306194 0.63536537 7 10
2.3270638 1.6666301 -0.45334715 66 3
5.8849359 4.2132006 0.88867134 3 11
2.3216262 1.6608975 -0.35049626 7 4
5.8735218 4.1988301 1.1435361 5 12
2.3164437 1.655357 -0.2490911 7 5
5.8476501 4.1757107 1.3967218 5 13
2.3297672 1.6624209 -0.14999487 66 6
5.8874998 4.1995139 1.6695868 3 14
5.9143057 4.2155209 -0.12677428 12 7
5.7685719 4.1086106 1.8976613 6 15
3.3074174 2.342648 -1.0860047 9 0
5.9592643 4.2178364 0.12743747 23 8
2.327389 1.6466634 -0.65820676 52 1
5.8074322 4.1058106 0.37273672 50 9
2.3362594 1.6504951 -0.5560174 70 2
6.1420674 4.337574 0.65785152 8 10
2.3321865 1.6457877 -0.45209566 69 3
5.934402 4.1847091 0.8915962 6 11
2.3448117 1.6522447 -0.35220242 11 4
6.1400919 4.3249416 1.1895279 5 12
2.3396356 1.6467649 -0.25031129 7 5
6.0732937 4.2715507 1.4432793 11 13
6.0975847 4.2838655 1.7204256 2 14
6.0196066 4.225944 -0.12837991 11 7
5.9125509 4.1492481 1.9354489 14 15
3.3652911 2.3476584 -1.0994633 9 0
6.0672965 4.2310333 0.1291129 38 8
3.2712402 2.2795026 -0.92049968 18 1
5.9055042 4.112083 0.37713292 51 9
2.3606167 1.6431161 -0.55907035 67 2
6.0453706 4.2047715 0.64425522 9 10
2.3503921 1.6335664 -0.45334715 64 3
6.2340941 4.3311939 0.93205678 3 11
2.3742256 1.6482884 -0.35488355 70 4
6.0507765 4.1975727 1.1663755 5 12
2.3543491 1.632663 -0.25065991 7 5
6.2078562 4.3017302 1.4680845 10 13
6.1428518 4.2535124 -0.39157766 13 6
6.0504313 4.1879549 1.6988304 3 14
6.1394176 4.2463803 -0.13029967 11 7
5.9850006 4.1364889 1.9494252 33 15
3.432133 2.3597229 -1.1160278 9 0
6.1675601 4.2372642 0.1306138 29 8
3.2304559 2.2185721 -0.90475315 8 1
5.999229 4.1169944 0.38131982 50 9
6.3088517 4.3246131 0.66918176 9 10
2.3696063 1.6231103 -0.4549115 63 3
6.2330532 4.2662659 0.92742574 4 11
2.3791218 1.6271892 -0.3539086 62 4
6.305872 4.3112607 1.2098643 6 12
2.3887219 1.6319203 -0.25310028 11 5
6.1226139 4.1796961 1.4409896 8 13
6.254149 4.26789 -0.39681125 9 6
6.3049269 4.2993169 1.7618166 3 14
6.2531896 4.2608452 -0.13207981 12 7
6.0944476 4.1511188 1.9758247 36 15
3.4969213 2.3675947 -1.1315569 9 0
6.2947011 4.2602286 0.13267319 32 8
3.5238991 2.3831701 -0.98213631 5 1
6.1079679 4.1276383 0.38634408 50 9
2.4012225 1.622086 -0.56326818 6 2
6.3000016 4.2526073 0.66499835 25 10
2.397537 1.6171584 -0.45804018 60 3
6.3104172 4.2548304 0.9344942 4 11
2.403594 1.6194137 -0.3558585 68 4
6.3431158 4.2704396 1.2111158 10 12
6.3819699 4.2949748 -0.67301667 14 5
6.3520269 4.2716074 1.4879286 13 13
6.388967 4.2932072 -0.40340558 29 6
6.3105211 4.2388992 1.7550682 7 14
6.357502 4.2672334 -0.13365053 21 7
6.1961942 4.1558251 1.9991184 35 15
3.5358658 2.35813 -1.1388038 9 0
6.3949151 4.2616506 0.1341392 64 8
3.5777533 2.3833599 -0.99248403 6 1
6.2230921 4.1424422 0.39178702 50 9
2.4193072 1.6092111 -0.56479466 6 2
6.3328567 4.2107248 0.66534692 7 10
2.4318023 1.6156864 -0.46242031 10 3
6.3605485 4.2227411 0.93741906 3 11
6.3332639 4.199851 1.2036068 4 12
6.4001718 4.2426124 -0.67179644 42 5
6.335865 4.1968012 1.4772433 5 13
6.4054599 4.2396803 -0.40256822 65 6
6.3432102 4.1968908 1.7559679 2 14
6.4004822 4.2315683 -0.13392976 75 7
6.2943649 4.158258 2.0213768 42 15
3.5651591 2.3418746 -1.1429449 9 0
6.3970284 4.2004652 0.13358071 75 8
3.612226 2.3700855 -0.99743295 9 1
6.4148111 4.2073364 0.40204483 68 9
2.4318469 1.5937823 -0.56517625 21 2
2.43448 1.5936865 -0.46085599 74 3
2.4459095 1.5987304 -0.35878339 7 4
6.4112835 4.1858463 -0.66987902 19 5
6.417439 4.1850743 -0.4015215 70 6
6.4080811 4.1725993 -0.133476 72 7
6.3775744 4.1511455 2.0389764 62 15
3.590749 2.3238487 -1.1460507 9 0
6.4094038 4.1448469 0.13323167 84 8
3.6675544 2.370832 -1.0082307 9 1
6.4205399 4.1472783 0.40057945 88 9
2.4511619 1.5820892 -0.56708437 27 2
6.4187698 4.1413741 0.66831023 79 10
2.4422262 1.5745111 -0.46023026 64 3
6.4215035 4.1367917 0.93790656 29 11
2.4686952 1.5891371 -0.36048955 53 4
6.413825 4.1270947 1.2079871 40 12
6.4219155 4.1291318 -0.6679616 57 5
6.4136648 4.1206636 1.4818227 48 13
6.4145694 4.1196632 -0.39953274 72 6
6.4143114 4.1163363 1.7595671 24 14
6.4269557 4.121284 -0.13326657 89 7
6.3901334 4.0960984 2.0338001 59 15
3.6203206 2.3063984 -1.1501919 9 0
6.4179435 4.08711 0.13281281 87 8
3.740325 2.3800972 -1.0235273 7 1
6.4197159 4.0819383 0.39869535 88 9
4.2449665 2.6980968 -0.9777053 22 2
6.4263768 4.0814505 0.66604418 70 10
2.4617696 1.5622869 -0.46179458 61 3
6.4250832 4.0759096 0.93425047 28 11
4.9577818 3.1426647 -0.72073537 7 4
6.4248366 4.0694656 1.2045455 40 12
6.4186025 4.0639477 -0.66464967 66 5
6.4207077 4.0621414 1.4768617 107 13
6.4202499 4.0587149 -0.39806733 72 6
6.4198289 4.056881 1.7532685 27 14
6.4166822 4.0517588 -0.13246377 84 7
6.4062099 4.0420194 2.029659 59 15
3.651063 2.2903068 -1.1548507 10 0
6.4266934 4.0283356 0.13239396 87 8
3.8212533 2.3942802 -1.0410734 5 1
6.4277401 4.0243058 0.3974393 84 9
4.2458568 2.656198 -0.97350752 17 2
6.4276838 4.0195866 0.66325516 73 10
2.4860184 1.5534368 -0.46429756 64 3
6.4372473 4.0193148 0.93181306 28 11
4.4962916 2.8063223 -0.65078235 6 4
6.4262724 4.0077877 1.1995395 40 12
6.4407554 4.0136981 -0.66395247 58 5
6.4289141 4.0047617 1.4722823 105 13
6.428081 4.0011292 -0.39681125 72 6
6.4222188 3.9943702 1.7460701 27 14
6.4210367 3.9920816 -0.1319751 84 7
6.4145808 3.9849639 2.0234473 64 15
3.6587441 2.2596879 -1.1522624 10 0
6.4359422 3.9718149 0.13201 90 8
3.8892889 2.3992631 -1.0550205 6 1
6.4284773 3.9625621 0.39576453 84 9
4.4331312 2.7304804 -1.012051 26 2
6.4284458 3.9578993 0.66046619 67 10
2.5102627 1.5443238 -0.46680051 58 3
6.4516201 3.9659631 0.92986321 28 11
5.0434594 3.0991178 -0.72682881 6 4
6.4305263 3.9483588 1.1951594 40 12
6.4346542 3.9477971 -0.66046619 43 5
6.434957 3.9464414 1.4673213 111 13
6.4337196 3.9425888 -0.39545053 70 6
6.4349909 3.9402788 1.742021 28 14
6.426578 3.9335856 -0.13152133 78 7
6.4125805 3.9219418 2.0141299 60 15
3.6793823 2.2371008 -1.1538154 11 0
6.4310431 3.9070597 0.13134682 87 8
3.9659076 2.4084678 -1.0712169 7 1
6.4372025 3.906189 0.39461315 82 9
4.4420109 2.6933596 -1.0097612 12 2
6.4354734 3.9005313 0.65837449 67 10
6.4502802 3.9033508 0.92571962 26 11
4.737659 2.8647091 -0.67978722 3 4
6.4427209 3.8941698 1.1923436 43 12
6.4313598 3.8842378 -0.65732861 56 5
6.4428616 3.8881204 1.4627419 108 13
6.4474058 3.8893237 -0.39461315 70 6
6.4489884 3.887213 1.7384217 28 14
6.4408579 3.8792436 -0.1312421 78 7
6.4265614 3.8691094 2.0099888 64 15
3.693639 2.209723 -1.1532978 11 0
6.4341335 3.8477015 0.13085814 87 8
4.0365715 2.4120138 -1.0856137 7 1
6.4564152 3.8549056 0.39408979 84 9
4.4236174 2.6401472 -1.0013657 3 2
6.4426861 3.8421342 0.65628272 70 10
4.5953288 2.7382808 -0.84724921 12 3
6.4517918 3.8429866 0.92206353 28 11
4.8581858 2.8914671 -0.69416779 5 4
6.4534416 3.8378727 1.1892149 43 12
6.4685936 3.845356 -0.65837449 52 5
6.442842 3.827004 1.456636 111 13
6.464767 3.8369715 -0.39398512 54 6
6.4608874 3.8331439 1.7343726 26 14
6.4643431 3.8321443 -0.13117228 78 7
6.4341383 3.8112082 2.0037773 59 15
3.7422695 2.2034864 -1.1636505 13 0
6.489079 3.817786 0.13141662 49 8
4.1171441 2.421314 -1.1027101 7 1
6.4848905 3.8107526 0.39419448 64 9
4.4203882 2.5955021 -0.99640459 2 2
6.477942 3.802108 0.65715432 63 10
4.4439368 2.6062016 -0.81596226 12 3
6.4808388 3.7977238 0.92230725 25 11
5.2311049 3.0641661 -0.74437803 6 4
6.4766703 3.7907269 1.1885892 43 12
6.7212477 3.9307313 -0.68120927 33 5
6.4643192 3.7789557 1.4554911 119 13
6.7052455 3.9166627 -0.40696445 70 6
6.4679523 3.775028 1.7289737 27 14
6.6878414 3.9018018 -0.13515143 65 7
6.4555817 3.7632778 2.0022242 62 15
3.8127217 2.209269 -1.1807325 10 0
6.7145891 3.8876166 0.13543068 80 8
4.19804 2.4296052 -1.1198063 7 1
6.7205429 3.8863671 0.40685976 84 9
4.4367008 2.5635967 -0.996023 2 2
6.7165375 3.8793595 0.67859459 70 10
4.7734075 2.7548187 -0.87290442 9 3
6.7032337 3.8654373 0.95009351 25 11
5.5584993 3.204031 -0.78776348 15 4
6.6827097 3.8489413 1.2214404 37 12
4.6003251 2.6474433 -0.46436578 13 5
6.6266837 3.8120539 1.4860206 36 13
6.7272305 3.8667698 -0.40665042 68 6
6.5803347 3.7792759 1.7519189 16 14
6.7183862 3.8570077 -0.13522124 85 7
6.5286188 3.7450294 2.0167181 37 15
3.812948 2.1739855 -1.1760738 6 0
6.7572036 3.8495538 0.13574483 59 8
4.2826357 2.4388115 -1.1378024 9 1
6.7440391 3.8373785 0.40665042 75 9
4.4749703 2.544204 -1.0006025 2 2
6.7278676 3.8235152 0.67702579 62 10
4.9557095 2.8140919 -0.90262699 7 3
6.745595 3.8273623 0.95228714 30 11
5.054585 2.8655739 -0.71342319 8 4
6.7197289 3.8080366 1.2233176 43 12
6.7392306 3.8128712 1.5051014 107 13
6.7338033 3.8051476 1.7856615 24 14
6.7211623 3.7933633 2.0679643 54 15
3.8452575 2.1560934 -1.1812501 9 0
4.3407845 2.4309561 -1.1486001 9 1
4.4994769 2.5167346 -1.002129 2 2
4.9222546 2.7487013 -0.892928 10 3
5.4662795 3.0487409 -0.76850814 9 4
7.9839339 4.4474483 -0.79956681 34 5
6.8137159 3.7924674 1.5157868 18 13
7.9489536 4.4206996 -0.47667596 10 6
6.8402557 3.8025496 1.8068069 29 14
7.9155154 4.3966789 -0.158049 12 7
6.7903633 3.7686071 2.0809052 31 15
3.8483753 2.1226647 -1.1776267 7 0
7.9808397 4.3983984 0.15906124 7 8
4.3730116 2.4090552 -1.1526492 8 1
8.1886292 4.5073271 0.48986462 8 9
4.5380135 2.4958255 -1.0067083 2 2
5.1750584 2.8426609 -0.93516535 7 3
8.0641651 4.4259844 1.1294852 5 11
5.3377562 2.9283938 -0.74754661 14 4
8.0062151 4.3887262 1.4460803 5 12
8.1588402 4.4686918 -0.8138603 24 5
8.0179157 4.3896818 1.7768134 6 13
8.1145458 4.4388995 -0.48473567 8 6
7.9633894 4.3526073 2.0951941 35 14
8.0811424 4.415132 -0.16073667 8 7
7.894938 4.3098264 2.4101231 7 15
3.8834765 2.1068027 -1.1838384 7 0
8.1537523 4.4197626 0.16188851 6 8
4.4137101 2.3914666 -1.1589478 7 1
8.2567825 4.4700141 0.49206272 4 9
4.5656881 2.4696879 -1.008998 7 2
8.4019766 4.5429316 0.83564925 1 10
5.1130939 2.7623334 -0.92046052 10 3
8.4756765 4.5751429 1.1826202 2 11
5.4978309 2.9664686 -0.76704568 9 4
8.1931477 4.4170966 1.4742386 4 12
8.1607227 4.3941026 1.8016186 14 13
8.282527 4.4559536 -0.49290007 12 6
8.1154518 4.3624163 2.1271372 32 14
8.2526894 4.4343314 -0.16352905 7 7
8.078021 4.3368459 2.4567106 6 15
3.9066119 2.0841858 -1.1864265 6 0
8.3185234 4.434216 0.16454129 6 8
4.4474964 2.3697586 -1.1634469 8 1
8.40767 4.4760847 0.49918038 2 9
4.6556158 2.4764793 -1.025026 7 2
8.5214472 4.5309329 0.84436482 2 10
5.3764796 2.8563209 -0.96426219 10 3
11.105924 5.8951888 1.5438409 5 11
5.2365704 2.7773035 -0.72780377 7 4
8.4908161 4.5013494 1.5221075 2 12
7.2468047 3.8386054 -0.71746606 1 5
8.4383612 4.4659972 1.8558085 19 13
8.4705572 4.4811449 -0.50221592 20 6
8.2697554 4.371222 2.1595302 31 14
8.4238997 4.4489379 -0.16628654 6 7
8.3455687 4.4057064 2.5286622 11 15
3.9145825 2.0525892 -1.184356 7 0
8.5015965 4.4558725 0.1675431 7 8
4.4695191 2.3405843 -1.1647966 9 1
8.5261984 4.4611773 0.50430936 2 9
4.7458582 2.4821315 -1.0410539 7 2
8.9333029 4.6682315 0.88184178 2 10
5.3407483 2.7885153 -0.9542504 10 3
8.9857321 4.689641 1.2445298 4 11
5.3896041 2.8104336 -0.74632788 7 4
8.9415026 4.6586237 1.5968832 1 12
7.5968084 3.9563332 -0.74936509 4 5
8.6678724 4.5102911 1.8993129 10 13
8.6299963 4.4867501 -0.50975227 4 6
8.4574242 4.3951602 2.2004712 33 14
8.5949564 4.4628181 -0.16904402 8 7
8.4591932 4.3885765 2.5535088 5 15
3.9374027 2.0296359 -1.1869442 7 0
6.3981705 3.2952762 0.12562242 1 8
4.4857507 2.3093243 -1.1647966 9 1
8.6814604 4.4654937 0.51163632 1 9
4.8612823 2.4983616 -1.0624245 7 2
8.6768036 4.4573555 0.85342902 2 10
5.5252805 2.8359544 -0.98365998 12 3
8.8141613 4.520143 1.2162561 4 11
5.8330574 2.9900694 -0.80482519 4 4
6.4170685 3.2837791 -0.63065898 0 5
8.6467142 4.4228425 1.8878642 9 13
6.4415889 3.2920723 -0.37912172 1 6
8.6431246 4.4134016 2.2405124 33 14
6.3923955 3.2627113 -0.12527338 1 7
8.8510303 4.5137229 2.6622128 9 15
3.9394143 1.9959844 -1.1833206 6 0
6.3871217 3.2333679 0.12495923 21 8
4.4948092 2.2744298 -1.1629969 9 1
4.9662242 2.5086219 -1.0815054 7 2
5.4250159 2.7368102 -0.96238494 11 3
8.841958 4.4567113 1.2157687 1 11
6.0097966 3.0278738 -0.82627422 7 4
6.3184433 3.1806085 1.1203837 35 12
6.3935571 3.215627 -0.62612689 9 5
8.8510332 4.4496694 1.9256444 7 13
6.4055161 3.2174408 -0.37566754 34 6
8.832222 4.4324913 2.2814536 30 14
8.8063374 4.4137301 2.639437 7 15
3.975733 1.9796294 -1.19005 7 0
6.3987966 3.1833544 0.1247498 60 8
4.5664139 2.2707632 -1.1773938 9 1
6.4177055 3.1885707 0.37556285 39 9
5.0820947 2.5227718 -1.1028761 7 2
6.441761 3.1949174 0.62909013 63 10
5.6917672 2.8217022 -1.0061866 10 3
6.4536314 3.1965957 0.88428408 16 11
6.1238251 3.0305755 -0.83894861 10 4
6.3227863 3.1276643 1.1172551 34 12
6.5194468 3.2221136 -0.63623691 0 5
6.4393044 3.1797047 1.3959587 9 13
3.9897971 1.951129 -1.19005 7 0
4.6000566 2.2465804 -1.1818929 6 1
5.1811924 2.525918 -1.1204305 7 2
5.6798429 2.7653387 -1.0005549 2 3
9.2878714 4.5179658 1.2681725 4 11
5.5115371 2.6786377 -0.75242138 14 4
8.6627712 4.2045498 -0.8424474 7 5
9.4417963 4.5745153 -0.54984158 4 6
9.3927097 4.5446625 -0.18213332 6 7
3.9914665 1.916675 -1.1864265 7 0
9.5086937 4.5619264 0.18408798 6 8
4.6300726 2.2203469 -1.1854922 6 1
9.5265112 4.5643401 0.55360979 4 9
5.3036141 2.5387907 -1.1429459 8 2
9.4759045 4.5319624 0.91897017 3 10
5.6852279 2.717808 -0.998052 7 3
9.4955072 4.5352306 1.2920588 6 11
6.5499649 3.1255777 -0.89110869 17 4
9.483489 4.5233941 1.66415 6 12
6.2285538 2.9682007 -0.60364062 18 5
9.6780949 4.6037827 -0.56166953 6 6
9.3909769 4.465188 2.4006777 6 14
9.6345129 4.5768671 -0.18618228 4 7
9.701869 4.6047144 2.8775504 4 15
4.008574 1.889713 -1.1874619 6 0
9.7129574 4.5747128 0.18740395 8 8
4.6458416 2.1871603 -1.1854922 6 1
9.7920732 4.6057129 0.56711245 4 9
5.408711 2.541688 -1.1616452 9 2
9.6758175 4.5427856 0.93518108 3 10
5.6902246 2.6703422 -0.99554908 2 3
9.8188887 4.6036844 1.3315445 6 11
6.6206994 3.1013632 -0.89768964 19 4
9.8429995 4.608705 1.721405 7 12
8.5668545 4.0075407 -0.82745659 8 5
9.666625 4.5178976 2.0740941 43 13
9.8881416 4.6172228 -0.57192737 11 6
9.6963949 4.5256271 2.4704125 5 14
9.8700008 4.6024594 -0.19009161 6 7
9.6400089 4.491117 2.8495977 4 15
4.0336161 1.8680649 -1.1910853 7 0
9.9598351 4.6084247 0.19155762 13 8
4.6570849 2.1538479 -1.1845922 6 1
9.9899969 4.6160316 0.57674229 3 9
5.4437108 2.5130417 -1.1654614 7 2
9.9933758 4.6112456 0.96289659 3 10
5.710063 2.6323752 -0.99586189 8 3
10.115044 4.6588187 1.3673741 10 11
6.3982053 2.9442027 -0.8647849 7 4
10.071554 4.6323977 1.7558208 7 12
7.2813993 3.3459911 -0.7010808 4 5
9.8862801 4.5388227 2.1145453 39 13
10.110963 4.6398387 -0.58302259 6 6
10.02635 4.5967746 2.5464458 13 14
10.101086 4.6267729 -0.19393115 3 7
9.861043 4.51474 2.9060204 5 15
4.0503974 1.8407518 -1.1921207 7 0
10.197501 4.6322298 0.19550186 13 8
4.6759272 2.1220782 -1.1854922 6 1
10.311996 4.6755638 0.5933851 9 9
5.4772158 2.4822698 -1.168896 7 2
10.276588 4.6530247 0.98695159 4 10
5.7413521 2.5971465 -0.998052 5 3
10.23595 4.6281681 1.3793174 6 11
6.6447401 3.0016112 -0.89525223 9 4
10.271891 4.6357784 1.7849175 6 12
7.3772278 3.3278463 -0.70805323 3 5
10.123562 4.562458 2.1584315 41 13
10.336947 4.6542916 -0.59411782 7 6
10.303432 4.637033 2.6085324 5 14
10.351996 4.6545501 -0.19811971 4 7
10.07813 4.5271783 2.9603724 6 15
4.0666771 1.8140055 -1.1931559 7 0
10.44957 4.6568232 0.19969043 11 8
4.7119884 2.0988996 -1.1908909 6 1
10.441096 4.6464963 0.59893274 4 9
5.5217471 2.4549761 -1.1746202 9 2
10.592853 4.7073879 1.0141442 2 10
5.7990637 2.5746355 -1.0049351 3 3
10.470227 4.6441445 1.4063724 29 11
6.7744179 3.003423 -0.90987664 23 4
10.448493 4.6279588 1.809947 6 12
7.1567078 3.1669343 -0.68469548 1 5
10.383189 4.5925322 2.206897 43 13
10.665141 4.7127843 -0.61107469 12 6
10.455794 4.6159153 2.6386759 13 14
10.592805 4.6741924 -0.20209888 5 7
10.411767 4.5899668 3.0488884 18 15
4.0243807 1.7615566 -1.1771091 9 0
10.709017 4.6831036 0.20401864 7 8
4.7229557 2.0643916 -1.1899911 6 1
10.919888 4.7685099 0.62447268 4 9
5.5315533 2.4132297 -1.1730938 9 2
10.66016 4.6484475 1.0174562 3 10
5.9581528 2.5956285 -1.029339 6 3
10.706254 4.6596599 1.4336711 13 11
6.8097816 2.9623935 -0.91182649 18 4
10.833825 4.7084379 1.8709565 7 12
8.0540419 3.4969831 -0.76819068 9 5
