# .PCD v0.7 - Point Cloud Data file format
VERSION 0.7
FIELDS x y z intensity ring
SIZE 4 4 4 4 2
TYPE F F F F U
COUNT 1 1 1 1 1
WIDTH 1297
HEIGHT 1
VIEWPOINT 0 0 0 1 0 0 0
POINTS 1297
DATA ascii
28.38492 -0.61936116 0.49557856 5 8
4.2491746 -0.093459293 -0.98123646 8 1
28.118383 -0.62827522 1.4739901 28 9
4.9206119 -0.1116643 -0.95671636 7 2
28.312422 -0.64744276 2.4776635 2 10
5.7507477 -0.13351539 -0.91107446 5 3
48.738354 -1.1485829 5.9859791 18 11
6.9776192 -0.16565521 -0.85698533 7 4
26.061487 -0.62782651 4.1289315 17 12
8.594594 -0.21004735 -0.75215399 13 5
25.606825 -0.6302892 4.9789705 16 13
11.079339 -0.27657786 -0.58082449 14 6
26.62685 -0.67399693 6.149262 3 14
15.590562 -0.3973617 -0.27222264 16 7
28.65139 -0.74025506 7.6796789 24 15
3.752069 -0.10677092 -1.0057708 9 0
28.407888 -0.81831473 0.49606723 5 8
4.2562103 -0.12334743 -0.98303616 8 1
28.151245 -0.82567424 1.4759789 18 9
4.9236369 -0.14613013 -0.9574796 7 2
28.579899 -0.8582167 2.501544 20 10
5.7713943 -0.1743156 -0.91451597 6 3
48.518818 -1.4823841 5.9601426 25 11
6.9762545 -0.21558133 -0.85698533 7 4
26.184807 -0.81374156 4.1492682 12 12
8.5889359 -0.26991817 -0.75180542 14 5
25.827318 -0.82068062 5.0228562 24 13
11.111012 -0.35694239 -0.58260393 13 6
26.339077 -0.85074729 6.0840263 22 14
15.599311 -0.50930583 -0.27243206 14 7
26.309092 -0.86816561 7.0533366 11 15
3.7454169 -0.13341089 -1.0042179 10 0
28.507219 -1.0253843 0.49791715 5 8
4.255219 -0.15380082 -0.98303616 8 1
28.809259 -1.0513527 1.5108346 7 9
4.9165797 -0.18114206 -0.95633471 8 2
28.764164 -1.0698154 2.5182779 20 10
5.7640772 -0.21538872 -0.91357738 6 3
26.458347 -0.99792904 3.2509868 1 11
6.974534 -0.26549643 -0.85698533 7 4
25.868406 -0.98924243 4.1001477 35 12
8.5887747 -0.33144873 -0.75197971 12 5
25.499054 -0.99294603 4.9602709 27 13
11.12414 -0.43706867 -0.58344132 13 6
25.987658 -1.0256006 6.0043936 14 14
15.619245 -0.62187278 -0.27285093 14 7
25.572554 -1.0270998 6.8576698 35 15
3.7405064 -0.16004372 -1.0031826 10 0
28.575071 -1.2326245 0.49924353 7 8
4.2540092 -0.18424633 -0.98303616 8 1
28.26026 -1.2338696 1.4824685 44 9
4.9269257 -0.21683735 -0.95862442 8 2
47.018353 -2.0775318 4.1175861 8 10
5.7525215 -0.25619027 -0.91201305 4 3
31.176249 -1.399348 3.8318162 16 11
6.9843531 -0.31593609 -0.85844773 7 4
26.156666 -1.1877673 4.1470785 33 12
8.576232 -0.39244428 -0.75110817 13 5
27.876081 -1.2853473 5.4243183 24 13
11.128797 -0.51508778 -0.58385998 14 6
27.673216 -1.2905142 6.3958082 3 14
15.588428 -0.73240489 -0.27239716 16 7
25.686331 -1.2113367 6.8902812 33 15
3.741195 -0.1869023 -1.0037004 9 0
28.613703 -1.4344875 0.50008124 12 8
4.256474 -0.21487887 -0.98393589 8 1
28.478098 -1.4476212 1.494401 18 9
4.9194098 -0.25092816 -0.9574796 7 2
26.674818 -1.3699589 2.3368199 4 10
5.7682953 -0.29826561 -0.91482884 5 3
26.590281 -1.379577 3.2692673 27 11
6.9899073 -0.36510223 -0.85942268 7 4
8.5792522 -0.45262253 -0.75163114 12 5
25.649111 -1.3621693 4.9927082 12 13
11.132805 -0.59513646 -0.58427864 13 6
27.74526 -1.48806 6.4147043 15 14
15.574946 -0.8407827 -0.27225754 18 7
25.41852 -1.3810672 6.8209176 15 15
3.7436562 -0.21323571 -1.0047356 9 0
28.580744 -1.6379459 0.49969733 7 8
4.2470884 -0.24414186 -0.98213631 8 1
28.385548 -1.6416712 1.4901096 39 9
4.9253278 -0.28658015 -0.95900601 8 2
26.706375 -1.5585871 2.3404803 4 10
5.7680449 -0.33864412 -0.91514176 6 3
26.563875 -1.5688797 3.2673173 6 11
6.9871883 -0.41389164 -0.85942268 7 4
25.593021 -1.5249883 4.0607266 24 12
8.5757942 -0.51400226 -0.75163114 12 5
24.811975 -1.4914868 4.8316655 24 13
11.132365 -0.67308402 -0.58448797 13 6
23.191986 -1.4103569 5.3641829 8 14
15.574687 -0.94986022 -0.27236226 14 7
25.408258 -1.5584869 6.8209176 38 15
3.7382207 -0.23911931 -1.0037004 9 0
28.353092 -1.8235737 0.4959276 15 8
4.2452807 -0.27378595 -0.98213631 9 1
28.385353 -1.8405733 1.4907376 28 9
4.9290848 -0.32134134 -0.9601509 8 2
47.274143 -3.090225 4.1447787 17 10
5.7596269 -0.37851545 -0.91420311 5 3
26.589909 -1.7567774 3.2719483 14 11
6.9841285 -0.46266094 -0.85942268 7 4
25.353115 -1.6883966 4.0244336 14 12
8.5799475 -0.5743919 -0.75232834 12 5
25.568827 -1.7162095 4.9812598 64 13
11.119424 -0.75024778 -0.58406937 14 6
30.451214 -2.0652769 7.0463667 4 14
15.581642 -1.0595176 -0.27260658 18 7
22.835302 -1.5607587 6.1329765 27 15
3.7345331 -0.26507419 -1.0031826 7 0
27.095022 -1.9326891 0.47414699 26 8
4.2510409 -0.3039726 -0.98393589 9 1
27.070957 -1.9452194 1.4223868 17 9
4.9130139 -0.35475498 -0.9574796 7 2
26.813164 -1.9408077 2.351985 22 10
5.7529035 -0.41842905 -0.91357738 6 3
25.697958 -1.8781216 3.1637285 27 11
6.976769 -0.51111764 -0.85893518 7 4
24.96246 -1.8375088 3.9643626 19 12
8.5718651 -0.63248682 -0.75197971 12 5
24.152422 -1.7905962 4.7076397 12 13
11.129849 -0.82904387 -0.5849067 16 6
23.069283 -1.7224411 5.3407879 31 14
15.571871 -1.1681217 -0.27257168 19 7
3.7268133 -0.29068878 -1.0016297 9 0
27.013454 -2.1117737 0.4729602 40 8
4.2643576 -0.33486333 -0.98753518 8 1
27.011293 -2.1258349 1.4199793 67 9
4.918314 -0.38880718 -0.95900601 7 2
26.932032 -2.1385162 2.3636637 20 10
5.7617369 -0.45851806 -0.91545457 6 3
25.672709 -2.0520482 3.162266 18 11
6.9769878 -0.56012952 -0.85942268 7 4
25.362867 -2.040648 4.0300651 17 12
8.5652552 -0.69215328 -0.75180542 13 5
23.186361 -1.8818232 4.5217919 22 13
11.133903 -0.90559226 -0.58543009 14 6
23.080002 -1.8853557 5.3461866 25 14
15.555364 -1.2761505 -0.27243206 20 7
3.7401481 -0.31735617 -1.0057708 9 0
27.109632 -2.3098171 0.47491491 14 8
4.250329 -0.36288726 -0.98483574 9 1
28.532042 -2.4460588 1.5007859 28 9
4.9135237 -0.42296538 -0.95862442 8 2
29.104343 -2.510474 2.5557549 5 10
5.7505236 -0.49804935 -0.91420311 5 3
25.61227 -2.2272706 3.1566598 12 11
6.976862 -0.60916924 -0.85991013 7 4
23.626125 -2.067018 3.7563047 18 12
8.5582294 -0.7517584 -0.75163114 13 5
22.902779 -2.019846 4.4691286 30 13
11.135266 -0.98400205 -0.58584875 14 6
23.112865 -2.0505705 5.3569846 34 14
15.552052 -1.3852476 -0.27253678 15 7
22.622864 -2.0190368 6.0858717 37 15
3.7300866 -0.34340331 -1.0037004 9 0
24.765083 -2.2843094 0.43411115 2 8
4.239862 -0.39257374 -0.98303616 9 1
25.210598 -2.3431544 1.326926 18 9
4.9202256 -0.45816785 -0.96053255 7 2
25.173691 -2.3530197 2.2120128 18 10
5.740912 -0.53863245 -0.91326451 6 3
26.27202 -2.4695585 3.2400186 15 11
6.9842973 -0.65898061 -0.86137259 7 4
24.045341 -2.2771883 3.8254488 50 12
8.5745916 -0.81355745 -0.75354856 14 5
23.841871 -2.270515 4.6553578 41 13
11.133905 -1.0642285 -0.58616281 14 6
23.373447 -2.2382557 5.4208708 35 14
15.561906 -1.4956999 -0.27288583 16 7
22.642448 -2.1842084 6.0951886 51 15
3.7352879 -0.37019777 -1.0057708 9 0
23.402948 -2.3276744 0.41051552 16 8
4.2408957 -0.42255017 -0.98393589 8 1
23.357313 -2.3354871 1.2302091 18 9
4.916821 -0.49336424 -0.96053255 7 2
25.200266 -2.5330904 2.2158475 38 10
5.738977 -0.5788964 -0.91357738 6 3
26.419575 -2.6742854 3.2604928 17 11
6.9676766 -0.70652217 -0.85991013 7 4
23.618126 -2.4032066 3.7600594 39 12
8.5883713 -0.87691844 -0.75529164 15 5
22.514933 -2.302865 4.3992925 48 13
11.144085 -1.1437665 -0.5871048 14 6
23.178492 -2.3870871 5.3794794 27 14
15.543129 -1.6034844 -0.27274621 18 7
22.311508 -2.3096058 6.0102963 37 15
3.7364545 -0.39667368 -1.0068061 9 0
24.507612 -2.610456 0.43020183 2 8
4.2359052 -0.45193994 -0.983486 10 1
25.195284 -2.6970465 1.3279727 20 9
4.9093528 -0.52725846 -0.95976931 7 2
25.191874 -2.7100239 2.2167192 18 10
5.7505078 -0.62064338 -0.91608036 6 3
26.378551 -2.8563113 3.2578115 55 11
6.9586277 -0.75472009 -0.85942268 7 4
24.437347 -2.659061 3.8933413 27 12
8.5919428 -0.93793577 -0.75616324 18 5
22.447565 -2.4544435 4.3893704 48 13
11.143771 -1.2224097 -0.58752352 14 6
22.882326 -2.5181479 5.3146935 26 14
15.523606 -1.7110796 -0.27260658 18 7
22.291 -2.4648871 6.0092607 51 15
3.7220767 -0.42144507 -1.0037004 9 0
19.652628 -2.2321851 0.34524351 1 8
4.2423282 -0.48260218 -0.9857356 9 1
25.191715 -2.8746872 1.3288101 18 9
4.8977499 -0.56062597 -0.95824283 7 2
25.182238 -2.8869636 2.2175908 34 10
5.7479973 -0.66099972 -0.91639322 6 3
25.571136 -2.949636 3.1605599 16 11
6.9669933 -0.80487633 -0.86112887 8 4
24.732147 -2.8659813 3.9434006 16 12
8.5772696 -0.9969753 -0.75546592 17 5
22.303127 -2.5963402 4.3645649 37 13
11.154802 -1.3024937 -0.58857024 14 6
22.223536 -2.6028011 5.1657758 6 14
15.503337 -1.8184805 -0.27246696 18 7
21.854992 -2.5712385 5.8964157 49 15
3.7113714 -0.44649655 -1.0016297 9 0
4.2388558 -0.51220721 -0.9857356 10 1
19.821569 -2.4021838 1.0464052 11 9
4.8956656 -0.59504169 -0.95862442 8 2
19.679028 -2.395365 1.7343993 61 10
5.7393208 -0.70063311 -0.91576743 6 3
25.660261 -3.141592 3.1742091 16 11
6.9631748 -0.8537367 -0.86137259 7 4
24.595861 -3.0243497 3.9249413 32 12
8.5661459 -1.0563434 -0.75511736 18 5
22.231852 -2.7454841 4.3542614 45 13
11.143456 -1.3800912 -0.58846557 13 6
22.355665 -2.7766211 5.2008681 48 14
15.47042 -1.9242008 -0.27211791 21 7
22.043543 -2.7495754 5.9523206 16 15
3.711997 -0.47288403 -1.002665 9 0
18.917358 -2.4166579 0.3328872 58 8
4.2139134 -0.53906727 -0.98078656 10 1
19.734982 -2.5316103 1.0427418 9 9
4.9011288 -0.63045758 -0.96053255 8 2
19.695417 -2.5370178 1.7373625 10 10
5.7225351 -0.73916543 -0.9138903 7 3
25.464462 -3.2982178 3.15276 12 11
6.9550762 -0.90207231 -0.86112887 9 4
28.664288 -3.7279284 4.5782113 14 12
8.5585623 -1.1161203 -0.75511736 18 5
27.357338 -3.572521 5.3628778 11 13
11.129588 -1.4573342 -0.58825624 14 6
22.355059 -2.9351611 5.2053676 7 14
15.474454 -2.034503 -0.27243206 25 7
22.018063 -2.9026423 5.9507675 22 15
3.727751 -0.50136197 -1.0078415 9 0
18.945606 -2.5548124 0.33369002 91 8
4.2197037 -0.56977636 -0.98303616 9 1
19.811827 -2.6821852 1.047766 19 9
4.9004984 -0.66518635 -0.96129572 7 2
19.700918 -2.677675 1.7394543 10 10
5.7309365 -0.78096503 -0.91608036 6 3
28.650663 -3.9144645 3.5505416 20 11
6.9486089 -0.95060551 -0.86112887 8 4
28.664963 -3.9317083 4.5825915 20 12
8.5722742 -1.1788285 -0.75703478 14 5
21.9813 -3.0266986 4.3130469 50 13
11.111229 -1.5339048 -0.58783752 14 6
22.915054 -3.1715739 5.3407879 10 14
15.475718 -2.1446803 -0.27271131 20 7
22.362736 -3.1070645 6.0496364 18 15
3.7165091 -0.52629071 -1.0057708 9 0
18.962948 -2.6920741 0.33431828 97 8
4.2194815 -0.59976983 -0.98393589 9 1
19.751095 -2.8145139 1.0455679 9 9
4.8860178 -0.69799358 -0.95938772 8 2
19.744858 -2.8241744 1.7450323 11 10
5.7214336 -0.82039428 -0.91545457 5 3
23.586611 -3.3904781 2.9258394 42 11
6.941803 -0.99909234 -0.86112887 8 4
28.928129 -4.1737614 4.629209 2 12
8.5697498 -1.2395005 -0.75755769 20 5
25.608562 -3.7085013 5.0297251 19 13
11.106179 -1.6122987 -0.58815157 14 6
23.025415 -3.3508368 5.3718309 12 14
15.484115 -2.2561283 -0.27313015 23 7
21.952452 -3.2064292 5.9445558 40 15
3.7012794 -0.55051851 -1.002665 9 0
18.975336 -2.8291116 0.33487678 97 8
4.2190461 -0.62978786 -0.98483574 9 1
19.811953 -2.9644511 1.0498594 19 9
4.8790836 -0.73179585 -0.95900601 7 2
19.754213 -2.9663875 1.7476468 12 10
5.7272873 -0.86208129 -0.91733181 5 3
23.456373 -3.539068 2.9126775 32 11
6.934659 -1.0475307 -0.86112887 9 4
24.165888 -3.6590614 3.8711276 24 12
8.5569487 -1.2987001 -0.75720912 17 5
28.097553 -4.2694216 5.5243025 12 13
11.080832 -1.6876894 -0.58741885 14 6
21.325476 -3.2556379 4.9804163 30 14
15.487755 -2.367193 -0.27347922 22 7
21.834053 -3.3449795 5.9186745 33 15
3.7049811 -0.57753479 -1.0047356 9 0
4.2145467 -0.65922678 -0.98483574 8 1
19.79472 -3.1033096 1.0500687 19 9
4.8913116 -0.76858294 -0.96244061 8 2
19.707439 -3.1001997 1.7453809 13 10
5.6977139 -0.89835215 -0.91357738 6 3
23.450701 -3.7058351 2.9151151 26 11
6.9448233 -1.0987095 -0.8633225 10 4
31.005335 -4.9163103 4.9721136 16 12
8.54177 -1.3574685 -0.75668615 14 5
26.168909 -4.1634774 5.1506982 19 13
11.056946 -1.7631193 -0.5867908 13 6
21.60627 -3.4530287 5.0515008 25 14
15.545885 -2.4872646 -0.27480558 23 7
22.096291 -3.5432079 5.9963198 34 15
3.7008588 -0.60338622 -1.0047356 9 0
19.808256 -3.2366269 0.35033962 19 8
4.2021489 -0.68737525 -0.98303616 9 1
19.762718 -3.2398109 1.0495454 45 9
4.8703284 -0.80016559 -0.95938772 8 2
19.783613 -3.2538745 1.7540965 11 10
5.7068963 -0.94067764 -0.91608036 6 3
6.923274 -1.1448991 -0.86161631 9 4
25.78841 -4.2738676 4.1401949 22 12
8.5458431 -1.4193528 -0.75790632 17 5
11.034516 -1.8386264 -0.58626747 14 6
21.418257 -3.5765016 5.0132594 9 14
15.595202 -2.6069436 -0.27599236 25 7
21.981468 -3.6823804 5.9719911 51 15
3.704174 -0.63050485 -1.0068061 9 0
19.848257 -3.3855941 0.35145655 15 8
4.1857224 -0.71472675 -0.98033673 9 1
19.771116 -3.3830905 1.0512201 14 9
4.8723636 -0.83547425 -0.96091413 8 2
19.776123 -3.3946061 1.7554909 11 10
5.7040834 -0.98116577 -0.91670603 6 3
47.11808 -8.121768 5.8706903 5 11
6.9229379 -1.1945547 -0.86259133 8 4
23.09709 -3.9937112 3.712503 34 12
8.5357265 -1.478979 -0.75790632 13 5
21.719137 -3.7671633 4.2848072 48 13
11.001734 -1.9121962 -0.58522069 14 6
21.387007 -3.7249374 5.0119095 12 14
15.576622 -2.7157543 -0.27599236 20 7
22.082726 -3.8580244 6.0066724 34 15
3.6844652 -0.65364963 -1.002665 9 0
19.85564 -3.5296776 0.35201502 15 8
4.1998167 -0.74734509 -0.98483574 10 1
19.752914 -3.5220871 1.0515342 19 9
4.8586817 -0.86808795 -0.95938772 8 2
19.761749 -3.5343392 1.7563624 12 10
5.6951499 -1.0206151 -0.91639322 6 3
24.321423 -4.3673501 3.0340595 12 11
6.9202905 -1.2439098 -0.8633225 8 4
23.132801 -4.1664157 3.7228277 28 12
8.519311 -1.5374715 -0.75738341 15 5
21.647871 -3.9106712 4.2760301 24 13
10.988116 -1.9889557 -0.58522069 14 6
21.456352 -3.8915436 5.0344048 5 14
15.632049 -2.8380065 -0.27731875 15 7
3.6912103 -0.68146032 -1.0057708 9 0
19.861975 -3.6740286 0.35257351 15 8
4.1983294 -0.77735645 -0.9857356 9 1
19.76123 -3.6660953 1.0533136 19 9
4.8505721 -0.9016276 -0.95900601 7 2
19.740513 -3.6729443 1.756711 9 10
5.6878862 -1.0603495 -0.91639322 6 3
23.601515 -4.4083767 2.9480195 13 11
6.9170661 -1.2944936 -0.86405367 8 4
23.231295 -4.3518152 3.7434771 19 12
8.5005369 -1.5954396 -0.75668615 16 5
21.628983 -4.0672927 4.2779379 39 13
10.970038 -2.0648792 -0.58501136 14 6
21.56654 -4.0672431 5.0667973 30 14
15.729236 -2.97207 -0.27941301 22 7
21.755266 -4.1146331 5.9326506 42 15
3.6748562 -0.70567054 -1.002665 9 0
19.678743 -3.7824051 0.34978116 14 8
4.1792641 -0.80479932 -0.98258615 10 1
19.765867 -3.8134618 1.0549883 27 9
4.8499427 -0.93658549 -0.9601509 8 2
23.835258 -4.6115222 2.1239853 18 10
5.6685171 -1.0987682 -0.91451597 6 3
24.612749 -4.7753181 3.0784199 28 11
6.9039631 -1.3419945 -0.86356628 8 4
8.493104 -1.6555077 -0.75703478 14 5
21.773476 -4.2520571 4.3122835 33 13
10.9491 -2.1421752 -0.58469737 13 6
21.539534 -4.2180815 5.0672474 31 14
15.766973 -3.0933568 -0.28046018 25 7
21.200191 -4.1669974 5.7892647 23 15
3.6849971 -0.73432869 -1.0068061 9 0
19.770792 -3.947006 0.35191032 10 8
4.1754546 -0.83433819 -0.98303616 9 1
22.711618 -4.546474 1.2138803 14 9
4.8488913 -0.97242492 -0.96129572 7 2
23.843506 -4.7860441 2.127646 20 10
5.6548986 -1.1371466 -0.91357738 6 3
24.480646 -4.9317174 3.0662329 16 11
6.8983173 -1.3909447 -0.86405367 9 4
23.157772 -4.6778388 3.7419131 1 12
8.4888506 -1.7178206 -0.75773197 13 5
21.585478 -4.3720021 4.2809906 36 13
10.935837 -2.2189584 -0.58480203 14 6
27.22831 -5.5347128 6.4147043 10 14
15.807698 -3.2161124 -0.28157714 26 7
21.079721 -4.296381 5.7644181 15 15
3.6684294 -0.75769222 -1.0037004 9 0
20.257767 -4.1914945 0.36109027 14 8
4.1657119 -0.8626774 -0.98213631 9 1
22.348827 -4.6363554 1.1961907 7 9
4.8342953 -1.0046546 -0.95976931 7 2
24.336184 -5.0619335 2.17471 20 10
5.6545572 -1.1782089 -0.91482884 5 3
23.126179 -4.8270988 2.9007344 15 11
6.8884392 -1.4390699 -0.86405367 9 4
24.389051 -5.1040239 3.9465292 19 12
8.4883509 -1.7794944 -0.75877786 14 5
21.706223 -4.5544381 4.3111386 42 13
10.908352 -2.2927856 -0.58417404 14 6
27.879314 -5.8700113 6.577569 16 14
15.831822 -3.336288 -0.28241485 25 7
24.538511 -5.1800222 6.7199779 14 15
3.6743851 -0.78570777 -1.0068061 10 0
19.711802 -4.2222457 0.35187542 15 8
4.1633987 -0.8925553 -0.98303616 9 1
21.655888 -4.6505275 1.1608115 5 9
4.8271637 -1.0383797 -0.95976931 7 2
23.969133 -5.1604199 2.1450772 6 10
5.6481256 -1.2180728 -0.91514176 6 3
23.303411 -5.0341191 2.9273019 2 11
6.8821054 -1.4879638 -0.86454117 8 4
25.393431 -5.4995327 4.1151657 28 12
8.4718266 -1.8378657 -0.75842929 13 5
21.883018 -4.7512689 4.352735 30 13
10.894031 -2.3693082 -0.58427864 13 6
15.872621 -3.4607909 -0.28356671 21 7
21.349854 -4.6628284 5.8555222 23 15
3.6593788 -0.80925477 -1.0042179 10 0
20.043036 -4.4397635 0.35833281 19 8
4.1646762 -0.9232865 -0.98483574 9 1
21.576099 -4.7912087 1.1582996 5 9
4.8121314 -1.0703491 -0.95824283 8 2
24.700712 -5.4986353 2.2139301 22 10
5.6606922 -1.262203 -0.91858327 6 3
28.300962 -6.3208284 3.560535 3 11
6.8870473 -1.5394374 -0.86649108 9 4
25.676336 -5.7487521 4.1674147 14 12
8.4451809 -1.893913 -0.75720912 13 5
21.738211 -4.8789873 4.3306012 42 13
10.888916 -2.447933 -0.5849067 13 6
21.796549 -4.9080667 5.1581273 16 14
15.970971 -3.5992138 -0.28576571 26 7
21.201832 -4.7858162 5.8239465 37 15
3.6555233 -0.83521241 -1.0047356 9 0
19.931627 -4.5612907 0.35690171 1 8
4.1505308 -0.95059842 -0.98303616 9 1
21.577168 -4.9497585 1.1601835 11 9
4.8121953 -1.1056762 -0.95976931 7 2
26.846153 -6.1732512 2.4100304 23 10
5.636343 -1.2981441 -0.91608036 6 3
28.426365 -6.5575171 3.581984 16 11
6.8838696 -1.5892665 -0.86746609 9 4
23.408821 -5.4129591 3.8054252 13 12
8.4298124 -1.9523754 -0.75703478 16 5
21.586954 -5.0035872 4.3073225 49 13
10.88518 -2.5270531 -0.58563942 11 6
25.20871 -5.8616128 5.9751501 16 14
16.027256 -3.7296591 -0.28723168 28 7
21.401201 -4.988091 5.8881335 16 15
3.6608853 -0.86337286 -1.0078415 9 0
21.06893 -4.9766011 0.3778795 22 8
4.1437931 -0.9795512 -0.98303616 8 1
21.584843 -5.1103969 1.1624864 7 9
4.8043594 -1.1392444 -0.95976931 8 2
23.892639 -5.6699996 2.1483891 14 10
5.6252208 -1.3370044 -0.91576743 7 3
24.919304 -5.9320197 3.1452043 12 11
6.8745379 -1.6377459 -0.86770982 8 4
25.480204 -6.0796404 4.1489553 3 12
8.4198532 -2.0121047 -0.75738341 15 5
22.338173 -5.342308 4.4645491 22 13
10.86533 -2.6025186 -0.58553475 13 6
21.824434 -5.2355547 5.1815224 31 14
16.033882 -3.8493948 -0.28782508 25 7
22.040171 -5.2995143 6.0739655 37 15
3.6435058 -0.88617015 -1.0047356 9 0
21.066704 -5.1316133 0.37847289 9 8
4.1311741 -1.0070716 -0.98168641 10 1
21.521477 -5.2543297 1.161021 5 9
4.7962885 -1.1727571 -0.95976931 8 2
24.634331 -6.0279822 2.218811 18 10
5.6157494 -1.376243 -0.91576743 6 3
23.053514 -5.6582198 2.9146273 32 11
6.8494425 -1.6823844 -0.86600363 8 4
22.561768 -5.5500526 3.6799645 19 12
8.4094696 -2.07179 -0.75773197 13 5
24.829826 -6.1217704 4.9709563 4 13
10.86047 -2.6816607 -0.58626747 14 6
21.808163 -5.3929353 5.1864715 21 14
16.047382 -3.9713254 -0.2885581 23 7
22.094519 -5.4760261 6.0993299 27 15
3.6447258 -0.91346329 -1.0068061 9 0
21.142857 -5.3067956 0.3804974 15 8
4.1297126 -1.037312 -0.98303616 9 1
21.519135 -5.413219 1.1629051 5 9
4.7860808 -1.2057331 -0.95938772 8 2
24.423567 -6.1574388 2.2036457 20 10
5.6098356 -1.4163816 -0.91639322 7 3
22.911453 -5.7932343 2.9017093 3 11
6.8433037 -1.731622 -0.86673486 7 4
22.73885 -5.76226 3.7153192 33 12
8.4005947 -2.1319184 -0.758255 12 5
10.855033 -2.7608609 -0.58700013 13 6
16.069649 -4.0961018 -0.28946561 25 7
22.570503 -5.7615399 6.2416801 18 15
3.6232953 -0.93502414 -1.002665 9 0
21.060762 -5.4427624 0.37969455 3 8
4.1261435 -1.0670933 -0.98393589 9 1
21.476952 -5.5623164 1.1626958 5 9
4.7661443 -1.2361592 -0.95709801 8 2
26.580395 -6.8989096 2.4025352 4 10
5.6112819 -1.4584924 -0.91827041 7 3
23.729174 -6.1765637 3.0106604 50 11
6.8444948 -1.7828573 -0.86844105 8 4
22.636906 -5.9049106 3.7053072 46 12
8.3739405 -2.1874919 -0.75720912 13 5
22.466421 -5.8730049 4.5137782 31 13
10.864476 -2.8441625 -0.58857024 13 6
22.537537 -5.9084077 5.3790293 12 14
16.090952 -4.2213821 -0.29037315 22 7
22.914631 -6.0200906 6.3483138 9 15
3.6260154 -0.96277529 -1.0052532 10 0
18.343742 -4.8774643 0.3313165 9 8
4.1223598 -1.0968751 -0.98483574 8 1
21.536022 -5.7383428 1.168034 15 9
4.7687798 -1.2724397 -0.95938772 8 2
23.549835 -6.2881379 2.1325266 18 10
5.5799713 -1.4920176 -0.91482884 6 3
23.59535 -6.3179412 2.9992046 23 11
6.8299642 -1.8300835 -0.86819732 7 4
23.339207 -6.262454 3.8273261 37 12
8.3680849 -2.2484841 -0.7580806 12 5
22.223904 -5.9756675 4.4733262 8 13
10.859784 -2.9240954 -0.58940756 13 6
21.581308 -5.8190427 5.160377 2 14
16.06881 -4.3356977 -0.29051274 28 7
23.759771 -6.4197769 6.5947094 27 15
3.6173418 -0.98755717 -1.0047356 9 0
20.942211 -5.7252116 0.37896156 16 8
4.0958052 -1.1204854 -0.98033673 9 1
21.545519 -5.9022713 1.1707554 13 9
4.7673535 -1.3077782 -0.96091413 8 2
23.326681 -6.4033427 2.1163158 15 10
5.5732284 -1.5319837 -0.91545457 6 3
23.692297 -6.5214972 3.0172415 16 11
6.8246765 -1.8798292 -0.86917222 7 4
23.18066 -6.393724 3.8085539 34 12
8.3502636 -2.3063188 -0.75790632 12 5
10.852581 -3.0035682 -0.59014034 13 6
22.623741 -6.269866 5.419971 28 14
16.051638 -4.4515133 -0.29075709 36 7
23.316032 -6.474874 6.4839354 17 15
3.6196594 -1.0153956 -1.0073237 10 0
20.965263 -5.8891211 0.38011342 13 8
4.0953865 -1.1511613 -0.98213631 9 1
23.366747 -6.5768976 1.2721825 25 9
4.7543278 -1.3399634 -0.9601509 8 2
23.5096 -6.630393 2.1370587 16 10
5.5795069 -1.5756865 -0.91827041 6 3
23.688217 -6.6986246 3.0226038 2 11
6.8094764 -1.9268876 -0.86892849 9 4
23.059437 -6.5338578 3.7960391 13 12
8.3531265 -2.3699963 -0.75964946 12 5
22.089201 -6.2714381 4.4634042 11 13
10.865927 -3.0890903 -0.59202439 14 6
22.545679 -6.4180508 5.4118724 17 14
15.758618 -4.4889598 -0.28601003 55 7
23.660391 -6.7487698 6.592639 48 15
3.6143389 -1.0411755 -1.0078415 9 0
17.705355 -5.1070404 0.32164785 13 8
4.0947394 -1.1818858 -0.98393589 8 1
23.232 -6.7143583 1.2673676 25 9
4.7373137 -1.3709389 -0.95862442 8 2
23.236916 -6.7289634 2.1164899 22 10
5.5759597 -1.6168004 -0.91952187 6 3
45.411598 -13.184694 5.8060999 34 11
6.7996712 -1.9754868 -0.86941594 9 4
23.697987 -6.8938718 3.9089849 8 12
8.3363771 -2.4282539 -0.75964946 13 5
22.012838 -6.4161572 4.4569168 2 13
10.849849 -3.1665521 -0.59233844 15 6
24.370829 -7.1219125 5.8617744 34 14
15.412127 -4.5068212 -0.28028566 40 7
23.273413 -6.8144417 6.497911 35 15
3.5847511 -1.0598102 -1.0016297 9 0
21.116838 -6.2510839 0.38440672 18 8
4.093863 -1.2126576 -0.9857356 8 1
23.2803 -6.9047799 1.2726012 25 9
4.7238636 -1.4028602 -0.95786124 8 2
25.370419 -7.5391483 2.3155537 20 10
5.5626431 -1.655125 -0.91920906 6 3
27.195635 -8.1022034 3.4842448 8 11
6.7914209 -2.0246105 -0.87014717 20 4
26.645664 -7.9535456 4.4042563 15 12
8.3154039 -2.4852519 -0.75930083 12 5
22.195101 -6.637743 4.5030923 1 13
10.856177 -3.2508144 -0.59390849 14 6
22.59947 -6.775867 5.4469647 9 14
15.366881 -4.6102848 -0.28004134 32 7
23.153118 -6.9550786 6.4777236 37 15
3.5900161 -1.0893615 -1.0052532 10 0
21.764196 -6.6124687 0.39704227 22 8
4.0813518 -1.2407875 -0.98483574 9 1
23.188259 -7.0583963 1.2702985 53 9
4.723094 -1.4394889 -0.95976931 8 2
22.613483 -6.8963757 2.0683799 16 10
5.5525465 -1.6954644 -0.91952187 6 3
27.040146 -8.2670012 3.4718142 17 11
6.7672682 -2.0702531 -0.86892849 23 4
26.376528 -8.0792179 4.3692155 18 12
8.3012171 -2.5458601 -0.75964946 12 5
23.547178 -7.2260661 4.7877793 23 13
10.863184 -3.337801 -0.5955832 14 6
23.025366 -7.0835271 5.5616899 12 14
15.092687 -4.6459999 -0.27564332 28 7
23.134138 -7.1302509 6.4865232 21 15
3.5841682 -1.1149716 -1.0057708 9 0
21.772869 -6.7814937 0.39805448 12 8
4.0688686 -1.2680905 -0.98393589 8 1
23.081223 -7.20226 1.2671584 25 9
4.7129292 -1.4724271 -0.95976931 7 2
22.800591 -7.1277938 2.0899947 20 10
5.5405746 -1.734187 -0.91952187 6 3
25.498569 -7.9907665 3.2809668 3 11
6.7583327 -2.1192286 -0.86965966 29 4
26.408062 -8.2909727 4.3839202 24 12
8.2946453 -2.6073358 -0.76069534 12 5
53.979736 -16.978323 10.999376 50 13
10.866288 -3.4219577 -0.59704864 14 6
22.925173 -7.2282791 5.5495429 4 14
15.176211 -4.7879539 -0.27777249 60 7
23.161169 -7.3160229 6.5082641 11 15
3.5854995 -1.1429 -1.0083591 10 0
16.651892 -5.3142962 0.30510297 1 8
4.0562043 -1.2952799 -0.98303616 9 1
25.286615 -8.0845795 1.3912992 28 9
4.7044048 -1.5058919 -0.9601509 8 2
24.270121 -7.7735972 2.2296181 4 10
5.5377383 -1.775841 -0.92108625 6 3
26.963665 -8.6570854 3.4771764 15 11
6.7358131 -2.1639299 -0.86868477 28 4
28.222511 -9.0775604 4.6955376 8 12
8.2895155 -2.6694543 -0.7619155 13 5
54.170086 -17.454706 11.062725 34 13
10.849736 -3.5001872 -0.5974673 14 6
54.089439 -17.470413 13.122745 19 14
14.809428 -4.7861695 -0.27166417 31 7
53.992081 -17.47019 15.20562 23 15
3.571924 -1.1661048 -1.0068061 9 0
17.114283 -5.5938096 0.31428295 3 8
4.0433583 -1.3223542 -0.98213631 9 1
24.971418 -8.1763916 1.3770639 14 9
4.6881804 -1.5368631 -0.95900601 8 2
24.097887 -7.9043436 2.218811 20 10
5.5345883 -1.8175396 -0.92265058 6 3
27.034575 -8.8885155 3.4942381 17 11
6.739399 -2.2171052 -0.87112212 7 4
44.384083 -14.618502 7.4012284 18 12
8.257432 -2.722893 -0.76069534 12 5
54.352669 -17.93334 11.12531 17 13
10.85538 -3.5858705 -0.59914213 15 6
54.265884 -17.946726 13.195629 19 14
14.513668 -4.8027468 -0.26684731 27 7
54.173214 -17.94755 15.291548 23 15
3.5490382 -1.1861142 -1.002665 9 0
16.993269 -5.6858678 0.31278202 12 8
4.0525069 -1.3567364 -0.98663533 8 1
24.514153 -8.2165956 1.3549781 13 9
4.6717534 -1.5676814 -0.95786124 8 2
23.575588 -7.9157438 2.175756 4 10
5.5198927 -1.8555045 -0.92233771 5 3
26.962456 -9.0738697 3.4930193 14 11
6.7406883 -2.2698019 -0.87331581 17 4
44.679653 -15.062411 7.4678693 38 12
8.2325583 -2.7785621 -0.76017237 14 5
44.689651 -15.091846 9.1687546 42 13
10.841434 -3.6654055 -0.59977013 15 6
54.475216 -18.438843 13.277511 20 14
14.036583 -4.7538519 -0.25867957 40 7
54.326519 -18.420219 15.370747 36 15
3.5443273 -1.2121122 -1.0037004 9 0
15.905058 -5.4455185 0.29344478 2 8
4.0355625 -1.3824689 -0.98483574 9 1
24.522318 -8.4102135 1.3586415 6 9
4.67555 -1.6053584 -0.96091413 8 2
24.166067 -8.3021774 2.2355447 12 10
5.5105405 -1.8952799 -0.92296344 6 3
43.691448 -15.044172 5.6737499 36 11
6.7265549 -2.317452 -0.87355953 14 4
44.30637 -15.281859 7.4231291 6 12
8.2204933 -2.8385694 -0.76086962 12 5
54.156364 -18.710989 11.137522 25 13
10.828794 -3.745573 -0.60050285 15 6
54.157337 -18.75366 13.231621 20 14
13.90858 -4.818996 -0.25693434 31 7
53.804184 -18.662926 15.259454 11 15
3.5467196 -1.2406538 -1.0068061 9 0
16.983944 -5.9476919 0.31410843 9 8
4.0110993 -1.4054531 -0.98123646 8 1
24.037071 -8.4317942 1.3349857 42 9
4.6642284 -1.6379606 -0.96091413 8 2
23.551119 -8.2751808 2.1839485 16 10
5.4953113 -1.9330486 -0.92265058 6 3
42.761509 -15.058704 5.5665045 15 11
6.6933618 -2.3584177 -0.8713659 18 4
44.284294 -15.62103 7.437521 6 12
8.2098694 -2.8992066 -0.76174122 12 5
53.594963 -18.936872 11.048986 25 13
10.815561 -3.825743 -0.60123557 14 6
13.456154 -4.7677174 -0.24918546 21 7
53.199203 -18.870178 15.124868 11 15
3.5343339 -1.264083 -1.0057708 9 0
15.552609 -5.5686398 0.28834867 11 8
4.0011902 -1.4334214 -0.98123646 9 1
24.017101 -8.6135569 1.3371838 29 9
4.6600709 -1.6731365 -0.96244061 8 2
23.661531 -8.50002 2.1996365 20 10
5.4946942 -1.9760451 -0.92484063 6 3
27.933847 -10.056804 3.6453559 20 11
6.6729989 -2.403743 -0.8708784 19 4
44.088684 -15.898984 7.4231291 25 12
8.206295 -2.9625401 -0.76330996 14 5
53.057068 -19.164507 10.965412 33 13
10.811128 -3.9093056 -0.60249156 14 6
53.107792 -19.224752 13.039513 9 14
13.794816 -4.996377 -0.2560966 42 7
52.672058 -19.098217 15.01254 22 15
3.5363097 -1.292706 -1.0088767 9 0
15.552789 -5.6915126 0.28908166 16 8
4.0020652 -1.4653398 -0.98393589 9 1
23.5532 -8.6332331 1.3146794 22 9
4.6445909 -1.7042762 -0.96167743 8 2
23.596003 -8.66294 2.1991136 20 10
5.4807649 -2.0143571 -0.92484063 6 3
27.855505 -10.248831 3.644381 1 11
6.6635065 -2.4530134 -0.87185335 18 4
52.647385 -19.401768 8.8867302 18 12
8.1854134 -3.0197582 -0.76330996 14 5
51.192543 -18.896078 10.607073 15 13
10.806053 -3.9929929 -0.60374761 14 6
56.101311 -20.752504 13.809745 21 14
13.009449 -4.8149228 -0.24213469 40 7
52.138916 -19.317812 14.898661 22 15
3.5145304 -1.3126309 -1.0052532 10 0
15.904145 -5.9463162 0.29637676 22 8
4.0026889 -1.4973404 -0.98663533 9 1
24.00672 -8.9900742 1.3434641 13 9
4.6270647 -1.7345923 -0.96053255 7 2
23.478983 -8.8064671 2.1938844 18 10
5.4758158 -2.0560424 -0.92640501 7 3
28.067575 -10.549909 3.681673 16 11
6.6573672 -2.5036659 -0.87331581 19 4
52.349812 -19.708288 8.8595104 18 12
8.1585388 -3.0747213 -0.7627871 12 5
51.149391 -19.286947 10.625772 16 13
10.80968 -4.0803266 -0.6055271 15 6
52.130547 -19.69849 12.86585 18 14
13.48803 -5.0993919 -0.25169861 22 7
52.058792 -19.702536 14.914707 33 15
3.507086 -1.3378233 -1.0057708 9 0
15.686641 -5.9901457 0.29309571 19 8
3.9848568 -1.5224657 -0.98483574 9 1
23.141218 -8.8506584 1.2984552 12 9
4.6240091 -1.7703626 -0.96244061 8 2
23.2439 -8.903883 2.1776733 12 10
5.4465723 -2.0885623 -0.92390203 20 3
27.928377 -10.7207 3.6731422 14 11
6.6397262 -2.5500817 -0.87331581 20 4
52.548363 -20.203001 8.9167662 9 12
8.1443129 -3.1344659 -0.7634843 12 5
52.404076 -20.179028 10.91542 49 13
10.82752 -4.1736507 -0.60814387 15 6
49.10463 -18.947899 12.151406 8 14
13.448371 -5.1919904 -0.25162879 47 7
52.228107 -20.184576 15.003222 34 15
3.5012608 -1.3636768 -1.0068061 9 0
15.925768 -6.209197 0.29836634 24 8
3.9668689 -1.5474151 -0.98303616 10 1
23.023052 -8.9902029 1.295315 44 9
4.6115375 -1.802601 -0.96244061 8 2
23.678455 -9.2604208 2.2243888 21 10
5.4336987 -2.1272554 -0.92421496 18 3
27.05072 -10.601061 3.5673597 20 11
6.6254578 -2.5978227 -0.87380332 18 4
49.46027 -19.413149 8.4155493 16 12
8.1407766 -3.1985331 -0.76522744 12 5
49.190487 -19.336987 10.27392 7 13
10.833432 -4.2630343 -0.61013263 15 6
48.914948 -19.26811 12.137459 24 14
12.985759 -5.1178451 -0.24363559 14 7
52.364468 -20.65859 15.083457 34 15
3.4988363 -1.3909415 -1.0088767 9 0
15.670221 -6.2359381 0.29438719 28 8
3.9632113 -1.5779545 -0.98483574 9 1
22.911491 -9.1314878 1.2925936 46 9
4.6079578 -1.8383888 -0.96434873 10 2
23.637283 -9.4351025 2.2266548 19 10
5.4205494 -2.1658704 -0.92452782 14 3
26.970522 -10.787438 3.5666285 35 11
6.5942588 -2.6388505 -0.87209707 17 4
27.32617 -10.946289 4.6623731 8 12
8.1256437 -3.2582541 -0.76592463 12 5
49.036068 -19.672617 10.270103 7 13
10.820087 -4.3452601 -0.61107469 14 6
51.574585 -20.732849 12.833008 27 14
13.111121 -5.2732954 -0.24667232 29 7
51.894604 -20.893068 14.989765 22 15
3.4890404 -1.415334 -1.0088767 9 0
3.9520986 -1.6055844 -0.98483574 9 1
22.915638 -9.3190546 1.2964665 48 9
4.5859199 -1.8668123 -0.96244061 8 2
22.817989 -9.2932711 2.1555357 2 10
5.4126134 -2.2066431 -0.92577928 18 3
26.813686 -10.942462 3.5559039 26 11
6.5867028 -2.6893249 -0.87355953 16 4
27.351486 -11.178644 4.679894 12 12
8.1063881 -3.3164108 -0.76627332 13 5
48.892082 -20.012241 10.268959 22 13
10.811666 -4.4297791 -0.61233073 14 6
51.415962 -21.087223 12.829859 9 14
12.167484 -4.9927297 -0.22956894 13 7
52.036972 -21.373755 15.073622 34 15
3.4683645 -1.4352252 -1.0057708 11 0
15.280489 -6.3293862 0.28869772 22 8
3.9479945 -1.6361202 -0.98663533 9 1
22.565916 -9.3609543 1.280347 17 9
4.5764012 -1.900288 -0.96320391 10 2
26.355135 -10.949001 2.4968376 10 10
5.4153166 -2.251961 -0.92890793 7 3
27.090343 -11.276622 3.6029456 33 11
6.5750976 -2.7382953 -0.87453443 14 4
27.156086 -11.320674 4.6598706 24 12
8.0873032 -3.3730457 -0.76662189 12 5
48.416016 -20.213154 10.198359 30 13
10.798905 -4.5128512 -0.61337745 17 6
51.544518 -21.550968 12.898243 9 14
12.351847 -5.1694226 -0.23372263 24 7
52.21434 -21.873861 15.168867 34 15
3.4582601 -1.4594039 -1.0057708 11 0
15.178101 -6.4083591 0.28758076 13 8
3.9418612 -1.6659182 -0.98798501 11 1
22.52927 -9.5260048 1.2819171 25 9
4.5687847 -1.9336898 -0.96434873 10 2
27.081589 -11.473145 2.5731862 18 10
5.4053187 -2.2910821 -0.92984658 6 3
27.100677 -11.497972 3.614645 18 11
6.5576472 -2.7849071 -0.87477821 17 4
27.009315 -11.475902 4.6479816 30 12
8.0672255 -3.4309824 -0.76697052 13 5
48.63139 -20.702929 10.27392 15 13
10.784475 -4.5932961 -0.6143195 19 6
52.534714 -22.397121 13.184832 19 14
11.557696 -4.9321594 -0.21934184 5 7
50.16851 -21.419384 14.616548 32 15
3.4571195 -1.4867254 -1.0083591 10 0
15.443402 -6.6477842 0.29347965 31 8
3.9286404 -1.6919398 -0.98753518 9 1
22.352171 -9.6356163 1.2756367 25 9
4.5659895 -1.9702057 -0.96663845 10 2
26.371784 -11.384778 2.5130486 20 10
5.4036989 -2.335031 -0.93234956 12 3
26.464046 -11.446532 3.5403047 28 11
6.5421834 -2.8310554 -0.87526566 17 4
8.0503883 -3.4903886 -0.76766777 12 5
50.746124 -22.012405 10.752088 24 13
10.748481 -4.666882 -0.61411017 22 6
47.15831 -20.49523 11.871118 23 14
11.855781 -5.1550403 -0.22565961 25 7
49.752048 -21.653458 14.538902 21 15
3.4519641 -1.513151 -1.009912 9 0
14.010409 -6.147223 0.26705673 4 8
3.9131639 -1.7177587 -0.98663533 9 1
20.806902 -9.1422548 1.1910619 1 9
4.5485291 -2.0004532 -0.96587521 10 2
26.747578 -11.769217 2.5566266 5 10
5.3944969 -2.3758833 -0.93360102 9 3
26.281769 -11.586163 3.5266554 12 11
6.5222592 -2.8766592 -0.87526566 17 4
48.647453 -21.47637 8.4224329 8 12
8.0367594 -3.5513372 -0.76871365 19 5
50.456543 -22.306604 10.723466 8 13
10.724771 -4.7458467 -0.6146335 24 6
47.07822 -20.852365 11.887313 15 14
11.623883 -5.1509962 -0.2219248 10 7
51.563381 -22.871284 15.114515 11 15
3.4360247 -1.5348495 -1.0083591 10 0
13.947072 -6.2359056 0.26667276 35 8
3.9081919 -1.7482188 -0.98843491 9 1
21.770676 -9.7476149 1.2500968 36 9
4.529078 -2.0297501 -0.96473032 8 2
26.37388 -11.825238 2.5287368 20 10
5.4012074 -2.4240005 -0.93766832 7 3
26.42478 -11.870224 3.5568788 15 11
6.5092607 -2.9253776 -0.87624067 19 4
48.245926 -21.702824 8.3789444 24 12
8.0154037 -3.6089933 -0.76906228 17 5
48.10144 -21.668118 10.254839 7 13
10.702302 -4.8255296 -0.61526155 29 6
46.858677 -21.147655 11.868867 7 14
11.583995 -5.2303739 -0.221855 11 7
48.499527 -21.91876 14.26093 20 15
3.419951 -1.5563992 -1.0068061 9 0
13.874081 -6.3198586 0.26611429 35 8
3.9029853 -1.7786928 -0.99023461 8 1
21.625774 -9.8645515 1.2457006 18 9
4.516583 -2.0621345 -0.96511191 10 2
27.137016 -12.395661 2.6101401 26 10
5.3715777 -2.455899 -0.93547827 10 3
47.530888 -21.751307 6.4181275 16 11
6.4995084 -2.9757073 -0.87770307 18 4
46.737408 -21.417791 8.1427279 7 12
7.9900126 -3.6648629 -0.76906228 12 5
47.524323 -21.808519 10.164014 22 13
10.601198 -4.8692832 -0.61138868 19 6
46.368172 -21.317173 11.782037 22 14
11.509047 -5.29357 -0.221122 4 7
46.069321 -21.209007 13.589554 18 15
3.4090018 -1.5802368 -1.0068061 9 0
13.58111 -6.30126 0.26133233 24 8
3.8869371 -1.8042562 -0.98933476 8 1
20.755783 -9.643321 1.1994356 15 9
4.5074172 -2.0960994 -0.9662568 8 2
45.959759 -21.382578 4.4348326 31 10
5.357883 -2.495007 -0.93610394 10 3
47.656765 -22.212587 6.4559073 24 11
6.500165 -3.0310769 -0.88062793 18 4
46.124928 -21.528009 8.0620079 7 12
7.9768686 -3.7264569 -0.77028245 15 5
47.191277 -22.055811 10.12547 22 13
10.518101 -4.9203243 -0.60856253 35 6
22.020189 -10.310324 5.6134286 1 14
47.258224 -22.157488 13.985547 29 15
3.4048748 -1.6072963 -1.0088767 9 0
13.36864 -6.316473 0.2580862 27 8
3.8707228 -1.8296822 -0.98843491 8 1
20.474918 -9.6871948 1.1870843 15 9
4.5033207 -2.1325574 -0.96854651 8 2
45.596897 -21.602259 4.4142642 31 10
5.343904 -2.534044 -0.93672973 9 3
45.841679 -21.757425 6.2304487 14 11
6.4824328 -3.0780854 -0.88111544 18 4
45.434696 -21.593422 7.9675212 7 12
7.9830451 -3.7974606 -0.77342004 14 5
47.284332 -22.502838 10.178897 14 13
10.49792 -5.0005054 -0.60939997 35 6
47.548901 -22.669476 12.161304 16 14
12.063923 -5.7541966 -0.23330377 21 7
47.039619 -22.456905 13.966911 38 15
3.4040179 -1.6360487 -1.0119824 9 0
13.194472 -6.3472338 0.25557303 17 8
3.8543434 -1.8549701 -0.98753518 9 1
20.313221 -9.7848272 1.1816413 15 9
4.4918594 -2.1656497 -0.96930981 8 2
45.265522 -21.833494 4.3968329 10 10
5.3367567 -2.5764422 -0.93860692 11 3
44.651993 -21.576002 6.0890803 19 11
6.4661479 -3.1258578 -0.88184667 20 4
46.150589 -22.329945 8.1202011 30 12
7.9653053 -3.8574419 -0.77429163 17 5
47.147285 -22.842669 10.183476 7 13
10.441189 -5.0632143 -0.60814387 21 6
50.913315 -24.711197 13.065607 9 14
12.091813 -5.8714685 -0.23463015 11 7
46.954678 -22.820225 13.988653 29 15
3.3925133 -1.6597731 -1.0119824 9 0
12.921753 -6.3275056 0.25114012 24 8
3.8587997 -1.8904063 -0.9920342 8 1
20.3018 -9.9545383 1.1849908 26 9
4.4625316 -2.1900361 -0.9662568 8 2
44.845512 -22.018137 4.3708606 30 10
5.3257308 -2.6171217 -0.93985838 10 3
44.525215 -21.899467 6.0924926 19 11
6.453073 -3.1753054 -0.88306534 20 4
44.781441 -22.054621 7.9061985 7 12
7.9524779 -3.9200027 -0.77568609 17 5
50.205387 -24.758556 10.881074 8 13
10.253354 -5.0608449 -0.59924674 17 6
49.366283 -24.387615 12.711984 18 14
11.661512 -5.7634778 -0.2270558 40 7
49.82275 -24.645578 14.894001 11 15
3.3667159 -1.6771156 -1.0078415 9 0
12.840352 -6.4019632 0.25044203 26 8
3.8451734 -1.9179708 -0.9920342 9 1
20.022764 -9.9960747 1.1728489 22 9
4.4555273 -2.2263007 -0.96816492 8 2
44.909573 -22.449837 4.3926492 20 10
5.3104 -2.6569321 -0.94048411 11 3
44.504044 -22.285963 6.1112609 27 11
6.4479346 -3.2302923 -0.8855027 23 4
45.185776 -22.65695 8.0060034 15 12
7.9242239 -3.9768085 -0.77568609 17 5
48.637344 -24.419506 10.578833 7 13
9.9670315 -5.0085359 -0.58459264 16 6
49.148724 -24.719233 12.701186 18 14
11.241273 -5.6562295 -0.21965599 66 7
48.206127 -24.276789 14.462291 10 15
3.358372 -1.7023255 -1.0088767 9 0
12.843496 -6.5158772 0.25138447 19 8
3.8212636 -1.9394763 -0.98933476 9 1
20.183979 -10.253209 1.1864563 15 9
4.4381256 -2.2564616 -0.96778321 8 2
44.924011 -22.850433 4.4095573 20 10
5.2882013 -2.6921482 -0.93985838 11 3
12.871051 -6.5581279 1.7736866 7 11
6.4376054 -3.2815392 -0.88720888 21 4
44.986031 -22.951204 7.9988084 29 12
7.9086881 -4.0383754 -0.77690631 15 5
49.423771 -25.247896 10.787959 8 13
9.7184267 -4.9688902 -0.57203203 17 6
47.833466 -24.477619 12.405151 17 14
10.713793 -5.4848843 -0.21009207 78 7
48.936382 -25.074352 14.733534 11 15
3.3498394 -1.7275006 -1.009912 9 0
12.774592 -6.5934591 0.2509307 26 8
3.8076303 -1.9661062 -0.98933476 9 1
20.026739 -10.349854 1.181432 16 9
4.427496 -2.290096 -0.9689281 7 2
44.528046 -23.041721 4.386374 10 10
5.269278 -2.729001 -0.93985838 12 3
12.95537 -6.7154255 1.7917233 2 11
6.4127769 -3.3254879 -0.88696516 20 4
44.211056 -22.946213 7.8893042 43 12
7.8979826 -4.1026735 -0.77864933 15 5
48.774208 -25.346981 10.684541 16 13
9.690588 -5.0403023 -0.57245076 26 6
48.432346 -25.212282 12.605807 8 14
10.765693 -5.6066537 -0.21187221 37 7
51.2784 -26.727982 15.494461 12 15
3.3616483 -1.7634083 -1.0171589 9 0
12.354671 -6.4863477 0.24356578 27 8
3.7972624 -1.9944527 -0.99023461 9 1
12.571354 -6.6085067 0.74432206 19 9
4.4253001 -2.328263 -0.97198111 7 2
14.2157 -7.4824104 1.4054736 8 10
5.2605839 -2.7712448 -0.94173563 11 3
12.776474 -6.73627 1.7734429 34 11
6.37887 -3.3646195 -0.8855027 20 4
47.437019 -25.042454 8.4959564 8 12
7.8938117 -4.170742 -0.78108978 13 5
46.447273 -24.551062 10.212098 15 13
9.5510035 -5.0527282 -0.56627512 30 6
47.166702 -24.973484 12.321469 8 14
11.233447 -5.950315 -0.2218899 6 7
46.541859 -24.673855 14.114956 49 15
3.3390288 -1.7813778 -1.0140531 9 0
12.418456 -6.6308379 0.24572989 31 8
3.783246 -2.0209138 -0.99023461 9 1
12.496729 -6.6810431 0.74264729 11 9
4.4158621 -2.3628054 -0.97350752 16 2
26.588999 -14.233005 2.6385529 8 10
5.2515564 -2.8134999 -0.94361275 12 3
12.676651 -6.7971601 1.7661307 24 11
6.3727183 -3.4184535 -0.88794011 23 4
47.008675 -25.23753 8.4505911 25 12
7.8855629 -4.2370658 -0.78318143 13 5
46.371582 -24.926781 10.233469 15 13
9.3220205 -5.0151939 -0.55476117 18 6
48.058449 -25.876806 12.601308 8 14
11.262053 -6.0665269 -0.22328609 13 7
46.621838 -25.134771 14.192084 30 15
3.3163228 -1.7991178 -1.0109472 9 0
12.046748 -6.5408511 0.23927251 13 8
3.7793195 -2.0528572 -0.99293393 9 1
12.342744 -6.7099333 0.73626232 26 9
4.3992596 -2.3935761 -0.97350752 15 2
14.242837 -7.7525525 1.4187211 10 10
5.2248478 -2.846314 -0.9423613 12 3
12.717775 -6.9339557 1.7785614 23 11
6.3539257 -3.4657116 -0.88867134 21 4
51.485001 -28.105513 9.2903309 10 12
7.8645334 -4.2967901 -0.78405303 12 5
51.018322 -27.885439 11.301618 8 13
9.1588688 -5.01018 -0.54712015 16 6
45.748512 -25.046576 12.041181 40 14
11.219427 -6.1450024 -0.22328609 16 7
46.641739 -25.567356 14.25213 10 15
3.3070652 -1.8240923 -1.0119824 9 0
11.337291 -6.2585201 0.22604357 12 8
3.7580724 -2.0754232 -0.99113435 8 1
12.148766 -6.7147813 0.72746986 19 9
4.3875957 -2.4270811 -0.97465241 13 2
14.127356 -7.8180318 1.4126202 12 10
5.2013936 -2.8808064 -0.94173563 12 3
13.485072 -7.4748974 1.8931185 25 11
6.3469362 -3.5196126 -0.89110869 20 4
12.03687 -6.6803865 2.1803839 21 12
7.8455553 -4.3560252 -0.78509891 12 5
46.820446 -26.01713 10.411684 31 13
9.0800314 -5.0497293 -0.54450333 30 6
45.621239 -25.382029 12.052877 24 14
11.212943 -6.2436075 -0.2240191 11 7
46.043606 -25.659128 14.123756 9 15
3.3009903 -1.8509145 -1.0140531 9 0
11.313612 -6.3463063 0.22642753 24 8
3.750289 -2.1054244 -0.99293393 8 1
11.963467 -6.7190766 0.71909612 40 9
4.3778191 -2.4607379 -0.97617888 13 2
26.085398 -14.674381 2.6185069 11 10
5.1851072 -2.9180815 -0.9423613 12 3
12.550051 -7.0687041 1.7685682 33 11
6.3256693 -3.5657859 -0.8915962 21 4
12.054782 -6.7980661 2.1919601 6 12
7.8236294 -4.4155869 -0.78597051 14 5
47.806908 -27.003803 10.67271 32 13
9.2349825 -5.2185206 -0.55591261 10 6
49.315498 -27.890007 13.080005 9 14
11.024639 -6.2399812 -0.221122 20 7
45.529991 -25.780615 14.019711 29 15
3.2950294 -1.8771657 -1.0161237 9 0
11.480966 -6.5459714 0.2306859 50 8
3.7324855 -2.1289721 -0.9920342 8 1
11.638741 -6.6440067 0.70234865 19 9
4.3707614 -2.4970841 -0.9784686 15 2
11.12774 -6.3600273 1.1213458 11 10
5.1817555 -2.9640172 -0.94549 12 3
12.813938 -7.3356423 1.8129284 30 11
6.2833972 -3.5999918 -0.88915884 21 4
11.86821 -6.8024902 2.1666176 21 12
7.8202634 -4.4859605 -0.78875941 14 5
47.358421 -27.188322 10.614705 8 13
8.96105 -5.1465902 -0.54157251 3 6
46.87252 -26.942011 12.481634 8 14
9.9182606 -5.7055564 -0.19972533 1 7
45.554848 -26.216362 14.08338 9 15
3.2714825 -1.8948867 -1.0130178 9 0
11.104516 -6.434473 0.2240191 9 8
3.7272704 -2.1614921 -0.99473363 8 1
11.53044 -6.6920314 0.69868505 22 9
4.3515248 -2.5265508 -0.97808701 16 2
13.700405 -7.9610276 1.3862993 2 10
5.1672435 -3.004993 -0.94674152 12 3
12.94601 -7.5317326 1.8390086 31 11
6.278697 -3.6557562 -0.89208364 21 4
11.971129 -6.9757586 2.194463 16 12
7.7990828 -4.5464664 -0.78980529 14 5
48.069603 -28.044607 10.817726 8 13
9.4069309 -5.4925618 -0.57088071 3 6
46.299633 -27.044483 12.379057 17 14
9.8246698 -5.7433739 -0.1986433 9 7
47.588783 -27.842079 14.773392 22 15
3.2548442 -1.9157196 -1.0119824 9 0
11.40451 -6.7177701 0.23103496 49 8
3.7255206 -2.1953754 -0.9983328 8 1
11.438711 -6.7459855 0.69596362 42 9
4.3384056 -2.5606184 -0.97923183 13 2
13.623906 -8.044323 1.3842075 25 10
5.1529417 -3.0450137 -0.94799298 12 3
12.539801 -7.4160166 1.7887983 36 11
6.2718158 -3.7106192 -0.89476484 19 4
11.990129 -7.0994191 2.2069776 24 12
7.7766347 -4.6082535 -0.79085118 14 5
47.735851 -28.298414 10.786815 24 13
9.3116722 -5.5244699 -0.5674265 1 6
47.497372 -28.201876 12.752925 18 14
10.6113 -6.3030343 -0.21543251 9 7
46.665913 -27.741251 14.546666 21 15
3.261287 -1.9502941 -1.0181942 9 0
11.276689 -6.7489591 0.22939444 83 8
3.7067592 -2.2193284 -0.99743295 8 1
11.088094 -6.6439748 0.67743665 19 9
4.3288422 -2.5958922 -0.9811399 15 2
13.471737 -8.0818405 1.374446 24 10
5.1247835 -3.0768466 -0.94674152 11 3
12.640862 -7.595396 1.8107349 33 11
6.2508621 -3.7573819 -0.89549601 14 4
11.93689 -7.1809163 2.206352 33 12
7.7596354 -4.6716805 -0.79241997 12 5
47.34877 -28.517538 10.744074 16 13
9.2164288 -5.5553184 -0.56397235 3 6
47.45118 -28.62438 12.793867 9 14
9.6664782 -5.8334937 -0.19707258 10 7
45.847679 -27.689837 14.351516 10 15
3.2409875 -1.9690021 -1.0161237 9 0
11.020842 -6.7007761 0.22513604 15 8
3.6878457 -2.2431269 -0.99653322 9 1
11.26493 -6.8572659 0.6911487 14 9
4.3223505 -2.6331992 -0.9838112 13 2
11.645603 -7.0973516 1.1931621 6 10
5.1166701 -3.1207776 -0.94924444 13 3
12.58075 -7.6793227 1.8097599 23 11
6.2210903 -3.7988605 -0.8950085 16 4
7.7370305 -4.7319756 -0.79346585 12 5
47.471741 -29.045151 10.817726 8 13
9.1178045 -5.5830212 -0.56030881 3 6
47.025875 -28.817492 12.73313 27 14
9.6135836 -5.8935194 -0.19682825 9 7
50.046505 -30.704588 15.732575 12 15
3.2403142 -1.9996967 -1.0202647 9 0
10.521231 -6.498044 0.21585137 13 8
3.672096 -2.2688181 -0.99653322 8 1
10.924601 -6.755075 0.67314512 29 9
4.3038621 -2.6633108 -0.9838112 15 2
11.485658 -7.1103139 1.1818318 10 10
5.0981174 -3.1585031 -0.94987023 13 3
12.4526 -7.7209387 1.7990354 37 11
6.1977916 -3.8442914 -0.89549601 16 4
12.010008 -7.4552293 2.2388902 19 12
7.719039 -4.7953377 -0.79503471 14 5
47.141083 -29.297096 10.788723 16 13
8.2594461 -5.1370535 -0.50975227 11 6
46.99395 -29.251158 12.779469 18 14
9.3549252 -5.8251929 -0.19236042 17 7
48.814404 -30.41976 15.411639 12 15
3.2230015 -2.0202174 -1.0192294 9 0
10.70938 -6.7179804 0.22066824 16 8
3.6594682 -2.2964702 -0.99743295 8 1
10.72326 -6.7345157 0.66362 32 9
4.2801771 -2.6901577 -0.98266637 15 2
11.493086 -7.2263823 1.1877584 7 10
5.0926614 -3.2045379 -0.95299888 13 3
12.34968 -7.7770095 1.7919669 33 11
6.1808796 -3.8938143 -0.89695841 14 4
11.802266 -7.4409161 2.2097936 34 12
7.6921129 -4.8533616 -0.7957319 13 5
47.43346 -29.939857 10.903208 41 13
8.2183161 -5.1913891 -0.50943822 12 6
9.2075548 -5.8230238 -0.19016142 22 7
49.985104 -31.63591 15.850597 13 15
3.2088194 -2.0426688 -1.0192294 9 0
10.574519 -6.736712 0.21885319 23 8
3.6499207 -2.3261516 -0.99923265 9 1
10.517696 -6.7082562 0.65378082 24 9
4.2596374 -2.7189171 -0.98228478 13 2
10.958736 -6.9976282 1.1375568 3 10
5.0801525 -3.2463949 -0.95487607 12 3
12.428874 -7.948596 1.811466 27 11
6.1702671 -3.9475682 -0.89939582 15 4
12.034508 -7.7052708 2.263294 9 12
7.6563654 -4.905869 -0.79555762 12 5
47.730709 -30.595535 11.020365 16 13
8.0726013 -5.1785398 -0.50263453 15 6
52.295959 -33.57341 14.347378 22 14
9.2373466 -5.9325476 -0.19162743 29 7
48.045261 -30.880049 15.303453 23 15
3.1944807 -2.0650208 -1.0192294 9 0
10.438244 -6.7528019 0.21700323 22 8
3.6434078 -2.3579283 -1.0019319 9 1
10.463902 -6.7771769 0.6533621 35 9
4.2471418 -2.7528601 -0.9838112 13 2
10.526793 -6.8257356 1.0976394 25 10
5.0474224 -3.2753301 -0.95299888 12 3
12.174964 -7.9065142 1.7824612 112 11
6.1442227 -3.9916294 -0.89963961 17 4
11.996983 -7.7998657 2.2664227 24 12
7.6319494 -4.9657202 -0.79660344 12 5
48.325489 -31.454935 11.20812 17 13
8.0964994 -5.2740154 -0.50640279 19 6
47.303211 -30.836573 13.036364 28 14
9.1756039 -5.9837837 -0.19120856 12 7
47.983822 -31.316072 15.353147 24 15
3.1832161 -2.0893917 -1.0202647 9 0
10.292236 -6.7607355 0.21494384 24 8
3.6284869 -2.3843768 -1.0023819 24 1
10.322885 -6.7886076 0.64750051 32 9
4.2409406 -2.7910776 -0.98686421 15 2
10.379038 -6.8333235 1.0871807 24 10
5.0277324 -3.3126614 -0.95362461 13 3
12.495667 -8.2393732 1.8377899 34 11
6.1145492 -4.0333338 -0.89939582 14 4
13.409466 -8.8519897 2.5448763 33 12
7.6170449 -5.0320587 -0.79869521 12 5
47.012245 -31.06955 10.953582 8 13
7.9611969 -5.2654057 -0.50022715 9 6
47.301281 -31.308035 13.095751 19 14
9.1236029 -6.0410705 -0.19099914 15 7
3.1653368 -2.1094213 -1.0192294 9 0
9.8771191 -6.5872197 0.20722988 27 8
3.6085103 -2.4074872 -1.0014821 23 1
10.190526 -6.803947 0.64216226 34 9
4.2246156 -2.822798 -0.98762739 15 2
10.248259 -6.850255 1.0784651 28 10
5.0143347 -3.3542702 -0.95550185 12 3
12.474132 -8.3507032 1.843152 28 11
6.0829434 -4.0737128 -0.89890838 15 4
12.971566 -8.6935453 2.4732292 12 12
7.5933127 -5.0928812 -0.79991537 14 5
51.727451 -34.707008 12.108358 10 13
7.9176097 -5.3164029 -0.49980843 5 6
47.405056 -31.854874 13.185731 19 14
9.135972 -6.1414337 -0.192151 20 7
46.812588 -31.492344 15.117621 11 15
3.1633341 -2.1401279 -1.0233705 9 0
10.039531 -6.7972732 0.21162789 24 8
3.5964551 -2.435899 -1.0028318 19 1
10.045235 -6.8088093 0.63598657 32 9
4.2015572 -2.8500185 -0.98686421 15 2
10.116105 -6.8645778 1.0695752 28 10
