# .PCD v0.7 - Point Cloud Data file format
VERSION 0.7
FIELDS x y z intensity ring
SIZE 4 4 4 4 2
TYPE F F F F U
COUNT 1 1 1 1 1
WIDTH 1282
HEIGHT 1
VIEWPOINT 0 0 0 1 0 0 0
POINTS 1282
DATA ascii
2.6472321 -9.3055058 0.50703079 30 9
1.5124873 -5.3237324 -1.0757812 17 2
2.7262034 -9.6085863 0.8738234 18 10
1.8412546 -6.4938755 -1.0690732 10 3
2.8480375 -10.058045 1.2835281 41 11
2.1774178 -7.6999593 -0.98251075 11 4
2.9137328 -10.310649 1.6970013 17 12
2.4611497 -8.7207508 -0.79276866 8 5
2.9334328 -10.408123 2.1019521 21 13
3.124259 -11.092604 -0.603957 33 6
10.78901 -38.357426 9.1991482 12 14
2.8493831 -10.143798 -0.18391345 28 7
1.1156856 -4.0148687 -1.1165454 16 0
2.5720603 -9.2682648 0.16789216 16 8
1.2608037 -4.5463119 -1.089213 12 1
2.6520364 -9.5759096 0.52074283 30 9
1.4784244 -5.3455143 -1.0780709 15 2
2.6639214 -9.638443 0.87486929 15 10
1.7969258 -6.5103803 -1.069699 6 3
2.8041241 -10.17337 1.295715 31 11
2.0595891 -7.4772887 -0.95228714 9 4
2.9260304 -10.637384 1.7473731 18 12
2.2295763 -8.1110115 -0.73594308 7 5
9.9902372 -36.393345 7.3358431 22 13
3.0599427 -11.162298 -0.60657376 10 6
10.299584 -37.597366 8.9998417 22 14
2.5549581 -9.3393517 -0.1690091 7 7
1.0906556 -4.0337486 -1.1196512 16 0
2.6607001 -9.8473244 0.17804946 30 8
1.233095 -4.570055 -1.0928122 9 1
2.6315103 -9.7595806 0.52974463 45 9
1.4414939 -5.3535581 -1.0776893 13 2
2.6100197 -9.706831 0.87940139 16 10
1.7602586 -6.5510769 -1.0743921 2 3
2.506911 -9.3428688 1.1877387 16 11
2.0515227 -7.6563859 -0.97324866 12 4
2.7529013 -10.281149 1.6857381 5 12
2.332957 -8.7249832 -0.79015392 1 5
9.7344046 -36.456512 7.3346982 22 13
2.8237569 -10.582718 -0.5740208 14 6
10.078499 -37.824646 9.0371838 11 14
2.7308488 -10.263284 -0.18537946 6 7
1.0680887 -4.059762 -1.1248276 9 0
2.5807106 -9.8231106 0.17728156 40 8
1.2074028 -4.5990763 -1.0977612 7 1
2.5526752 -9.7371426 0.52754653 43 9
1.4045817 -5.3653903 -1.0780709 11 2
2.5232129 -9.6453428 0.87225467 21 10
1.7224693 -6.5937848 -1.0793979 1 3
2.573401 -9.8653173 1.251842 32 11
1.9598031 -7.5184216 -0.95399332 10 4
2.641253 -10.147182 1.6607084 22 12
2.2424166 -8.6272869 -0.77986956 2 5
9.515151 -36.634041 7.357214 26 13
1.9685891 -7.5901041 -0.41094196 6 6
9.8322687 -37.963879 9.0538301 7 14
2.622849 -10.134504 -0.1827267 23 7
1.0306298 -4.031558 -1.1149925 2 0
2.539767 -9.9493904 0.17923622 13 8
1.1757481 -4.6092815 -1.0982111 5 1
2.4353378 -9.5611801 0.51707929 20 9
1.3661227 -5.3712602 -1.0773077 7 2
2.5539696 -10.048923 0.90711701 8 10
1.6822258 -6.6286259 -1.0831524 1 3
2.4869108 -9.8137684 1.2430674 30 11
1.9184755 -7.57618 -0.95959932 14 4
2.5626001 -10.134733 1.6557026 18 12
1.9143653 -7.582191 -0.68417257 3 5
9.6438637 -38.224361 7.66289 7 13
2.6630371 -10.570757 -0.57129937 13 6
2.6305196 -10.464808 -0.18834637 9 7
1.0094399 -4.0667791 -1.1227571 1 0
2.5048816 -10.106628 0.18174936 15 8
1.1440096 -4.6192689 -1.0986609 4 1
2.3920224 -9.6729527 0.52220821 27 9
1.3295323 -5.3844786 -1.0780709 5 2
2.3400919 -9.4842606 0.85464925 14 10
1.6415787 -6.6632252 -1.0869068 1 3
2.4173889 -9.8270369 1.2425799 35 11
1.8517963 -7.5334849 -0.95253086 10 4
2.5148559 -10.246379 1.6710331 14 12
2.6490972 -10.809615 -0.97370398 7 5
9.2931843 -37.949417 7.5945802 7 13
2.5896499 -10.59103 -0.57140404 11 6
8.0787401 -33.090115 7.8638387 8 14
2.5701938 -10.53537 -0.18928881 10 7
0.98826057 -4.1037779 -1.1310393 1 0
2.4468865 -10.176365 0.1826918 13 8
1.1135542 -4.6347222 -1.1004605 4 1
2.3551853 -9.8175983 0.52911657 16 9
1.2941957 -5.4031758 -1.0799789 2 2
2.2849524 -9.5468693 0.85883266 6 10
2.3837397 -9.9904213 1.2611041 17 11
1.8000783 -7.5500913 -0.95301831 5 4
2.4922104 -10.469306 1.7045102 21 12
2.5477669 -10.719296 -0.96394247 5 5
9.0516109 -38.112701 7.6144242 21 13
2.5442202 -10.729341 -0.57789367 6 6
7.8223891 -33.039516 7.838644 8 14
2.4924395 -10.535542 -0.18897465 10 7
2.3953023 -10.276942 0.1841927 8 8
1.0833807 -4.6518731 -1.1027101 2 1
2.2938268 -9.8649263 0.53079128 16 9
1.2537796 -5.4006042 -1.0776893 2 2
2.2272527 -9.6014061 0.86231887 5 10
2.3295894 -10.074511 1.2696348 13 11
1.7450913 -7.5528035 -0.95179963 4 4
2.415509 -10.471051 1.7020072 14 12
8.8297892 -38.368202 7.6529675 7 13
2.5399184 -11.054395 -0.59443188 8 6
15.819231 -68.959785 16.334146 13 14
2.27022 -10.057388 0.17996921 2 8
1.0543081 -4.674531 -1.1063093 1 1
2.2793057 -10.122311 0.54377061 6 9
1.2250886 -5.44945 -1.0857033 1 2
2.1509991 -9.5758972 0.85865831 2 10
2.1681199 -9.6837311 1.2184497 14 11
1.6845195 -7.5299325 -0.94741231 4 4
2.2437458 -10.046175 1.6303602 6 12
2.4429479 -10.956066 -0.98207092 2 5
2.7430456 -12.312043 2.4518957 8 13
2.2114713 -10.125741 0.18091165 3 8
1.0220646 -4.683681 -1.1067592 1 1
2.1962543 -10.081384 0.54073519 7 9
1.1945252 -5.4924016 -1.0925723 1 2
2.2050955 -10.147511 0.90851146 2 10
2.2197921 -10.249624 1.2876717 17 11
1.6432453 -7.593895 -0.95399332 0 4
2.2432127 -10.384044 1.6826093 11 12
2.6967247 -12.515138 2.4885311 4 13
2.1672995 -10.25795 0.18300593 7 8
0.99336308 -4.7097702 -1.1112581 0 1
2.1234641 -10.076556 0.53968841 1 9
1.1571126 -5.5004053 -1.0925723 1 2
2.1378841 -10.180205 0.91008025 2 10
2.2684004 -10.829888 1.3585995 6 11
1.6109113 -7.7042775 -0.96642399 1 4
2.182579 -10.447413 1.6904311 7 12
2.5900817 -12.441401 2.4702134 4 13
0.97684962 -4.7928023 -1.1292543 0 1
2.0463543 -10.085176 0.90031886 1 10
2.0770826 -10.273418 1.2869403 5 11
1.5486063 -7.66642 -0.96033055 0 4
2.0986567 -10.408177 1.6816708 8 12
6.4531841 -32.090935 6.3627172 4 13
1.7672302 -8.8200827 2.0767481 8 14
2.0011451 -10.228268 0.91182339 1 10
1.9939176 -10.229217 1.2796283 7 11
2.0308425 -10.447783 1.6857381 10 12
6.2480431 -32.233498 6.3821797 2 13
1.7085673 -8.8475122 2.0803473 8 14
1.889111 -10.026615 0.89264911 1 10
1.9616381 -10.451646 1.3057083 7 11
1.9542214 -10.442288 1.6826093 3 12
6.0448303 -32.394058 6.405458 7 13
1.6475925 -8.8551044 2.0794475 8 14
6.8717031 -37.076393 10.103778 4 15
1.8190686 -10.039559 0.89264911 1 10
1.8816293 -10.415919 1.2996148 5 11
2.0952873 -11.633471 1.8722079 7 12
5.8403697 -32.557213 6.4295006 5 13
5.6635518 -31.76288 8.6450739 2 15
1.8390597 -10.602877 1.3213075 1 11
1.8386704 -10.633693 1.7092031 1 12
1.994266 -11.569644 2.2820759 1 13
5.4683995 -31.824223 7.4548783 2 14
5.5967612 -32.708031 8.891469 3 15
1.750875 -10.519199 1.3093643 2 11
1.7322975 -10.441344 1.6763519 2 12
1.9115276 -11.571662 2.2797861 8 13
1.4864464 -9.0277796 2.1122904 4 14
1.6833286 -10.568414 1.3139954 1 11
1.7764292 -11.19064 1.7946163 0 12
1.8087897 -11.433151 2.2500198 2 13
1.4270862 -9.0511637 2.1154397 4 14
1.4794463 -9.4260197 2.5566146 0 15
1.6346663 -10.732698 1.333007 0 11
1.8208551 -11.99735 1.921954 1 12
4.6583676 -30.838404 6.0623837 2 13
4.7181244 -31.345106 7.3181076 2 14
1.3384577 -8.9238615 2.4178874 1 15
1.5283287 -10.527754 1.3061957 0 11
1.6666453 -11.522965 1.8440496 0 12
1.3711073 -9.5621042 2.2301648 1 14
1.2794044 -8.9559383 2.4240992 0 15
1.6158599 -11.765524 1.8809682 0 12
1.5146679 -11.071718 2.1721697 0 13
1.1851217 -8.6967487 2.0263591 0 14
-1.2035294 -8.0819445 1.5882941 0 13
-0.68076181 -4.459209 -1.2086849 1 0
-1.1965322 -7.7024531 1.2345809 0 12
-1.248534 -8.0095501 1.5757008 1 13
-0.70988077 -4.4468412 -1.2066144 2 0
-0.82661653 -5.1607394 -1.2066375 1 1
-1.0001278 -6.2162161 -1.2238491 1 2
-1.2378559 -7.625886 1.2236305 1 12
-1.290085 -7.9214201 1.5600544 5 13
-0.9362148 -5.7233844 1.3389087 1 14
-0.73772925 -4.4227214 -1.2014381 2 0
-0.86648482 -5.177907 -1.2120364 2 1
-1.0421993 -6.2013373 -1.2223225 2 2
-1.2821175 -7.6045465 -1.2214404 1 3
-1.2583826 -7.4242463 1.1926565 1 12
-1.1097207 -6.5264201 1.286816 1 13
-0.98237944 -5.7532072 1.3474568 3 14
-1.0146878 -5.9237146 1.6103721 1 15
-0.77289212 -4.4422064 -1.2081673 6 0
-0.90093637 -5.1621327 -1.2097868 3 1
-1.0881777 -6.2093806 -1.2253754 2 2
-1.331756 -7.5759554 -1.2183118 3 3
-1.2919668 -7.3121815 1.1760744 3 12
-1.9550097 -11.053566 -0.98207092 2 5
-1.1545707 -6.514648 1.2860527 4 13
-1.027657 -5.7809234 1.3555551 4 14
-1.0461731 -5.8613348 1.5953608 3 15
-0.80388576 -4.4367023 -1.2081673 7 0
-0.93834603 -5.1633868 -1.2115864 4 1
-1.1307697 -6.2037616 -1.225757 2 2
-1.2990158 -7.1127334 0.63257635 7 10
-1.3747665 -7.5200782 -1.2108029 5 3
-1.5731447 -8.5713882 -1.0700129 0 4
-1.329216 -7.235218 1.1651241 5 12
-2.1111217 -11.468772 -1.0202451 1 5
-1.2035834 -6.5257359 1.2898688 7 13
-1.0648003 -5.756362 1.351506 4 14
-1.0832267 -5.8388824 1.5912195 3 15
-0.83763975 -4.4501123 -1.2133437 9 0
-0.97672319 -5.1741147 -1.2156355 6 1
-1.1758803 -6.2053609 -1.2276652 6 2
-1.3481423 -7.1076417 0.63292503 9 10
-1.443459 -7.5956864 -1.2245692 7 3
-1.4056985 -7.3829298 0.92279476 1 11
-1.7555751 -9.2117805 -1.1514217 1 4
-1.3871047 -7.2645688 1.1713815 5 12
-2.1655738 -11.330847 -1.0092635 6 5
-1.2538825 -6.5482435 1.2959747 4 13
-1.0995474 -5.7260156 1.3461071 0 14
-1.1243283 -5.8330746 1.5917372 6 15
-0.86831647 -4.4422603 -1.2128261 9 0
-1.0128216 -5.16717 -1.2156355 6 1
-1.2196054 -6.2049189 -1.2291917 6 2
-1.3811777 -7.013998 0.62542957 9 10
-1.4962739 -7.5914993 -1.2255077 7 3
-1.4551501 -7.3692956 0.92230725 1 11
-1.7597451 -8.8955126 -1.1133984 1 4
-1.4104295 -7.1231914 1.1501063 6 12
-2.2384226 -11.284184 -1.0064745 3 5
-1.2930619 -6.5065951 1.2894872 5 13
-2.1983824 -11.052013 -0.59055901 9 6
-1.2994516 -6.5208879 1.535066 4 14
-1.1927758 -5.9692612 1.6310778 4 15
-0.89661586 -4.4267797 -1.2102379 7 0
-1.0502964 -5.1716146 -1.2183349 6 1
-1.2632864 -6.1981769 -1.2295732 5 2
-1.419728 -6.9595342 0.62142044 10 10
-1.5472577 -7.5711913 -1.2239434 7 3
-1.4958123 -7.3064489 0.9157263 3 11
-1.8122836 -8.8444347 -1.1085237 1 4
-1.4640963 -7.1325216 1.153235 6 12
-2.2689884 -11.034095 -0.98555714 9 5
-1.5379776 -7.4725776 1.4829676 7 13
-2.2678235 -10.999231 -0.58857024 11 6
-1.2235359 -5.9238524 1.3964962 3 14
-1.2379451 -5.9778142 1.6357363 4 15
-0.92710209 -4.4185219 -1.2097203 9 0
-2.2548611 -10.727921 0.1913482 15 8
-1.0855732 -5.1603417 -1.2174351 6 1
-1.3109875 -6.2103362 -1.233771 6 2
-1.4678683 -6.9475036 0.6212461 9 10
-1.5947596 -7.5350819 -1.2198761 10 3
-1.5414314 -7.2705832 0.91255772 3 11
-1.9242548 -9.0684729 -1.1382598 6 4
-1.5039982 -7.0757532 1.1457262 7 12
-2.3758385 -11.158293 -0.99810755 7 5
-1.5872442 -7.4482174 1.4802963 9 13
-2.3253746 -10.893282 -0.58375531 6 6
-1.2685299 -5.9323168 1.4005452 4 14
-1.3031352 -6.0785837 1.6657594 5 15
-0.96284539 -4.4345965 -1.215932 6 0
-1.121987 -5.1545415 -1.217885 8 1
-1.3610135 -6.2317214 -1.2398769 6 2
-1.5197382 -6.9526582 0.62264061 13 10
-1.6616895 -7.5893736 -1.2305136 11 3
-1.5925764 -7.2615833 0.91280144 3 11
-1.9994345 -9.1091089 -1.1450845 6 4
-1.5609931 -7.0998082 1.1513578 7 12
-2.4716778 -11.223156 -1.0054286 2 5
-1.6282158 -7.3871069 1.4703742 7 13
-2.4005063 -10.872882 -0.58354598 11 6
-1.3069688 -5.909997 1.397396 3 14
-2.452347 -11.08013 -0.19808482 9 7
-1.3279785 -5.9901237 1.6440187 9 15
-0.99589545 -4.437191 -1.21852 7 0
-2.4044266 -10.695393 0.1913482 11 8
-1.1588007 -5.1503854 -1.2187848 8 1
-1.5578901 -6.9129062 0.37137598 8 9
-1.4062152 -6.2297287 -1.2414035 6 2
-1.5800929 -6.9943519 0.62734705 14 10
-1.7163768 -7.5852942 -1.2317652 13 3
-1.6458658 -7.2619042 0.9142639 3 11
-2.0537567 -9.0542746 -1.1399659 10 4
-1.609646 -7.0848856 1.150732 5 12
-2.1016917 -9.2357063 -0.82867676 9 5
-1.6675403 -7.3219619 1.4596889 6 13
-2.6611373 -11.665909 -0.6270895 5 6
-1.3408167 -5.8684325 1.3897476 2 14
-1.3658828 -5.9637585 1.6393598 9 15
-1.0278195 -4.4378376 -1.2205906 7 0
-2.4744608 -10.667091 0.19113876 15 8
-1.1977973 -5.1594634 -1.222834 7 1
-2.5136633 -10.810372 0.58166188 16 9
-1.4543754 -6.2448697 -1.2463645 7 2
-1.6312835 -6.9989567 0.6287415 15 10
-1.7684176 -7.5753593 -1.232078 15 3
-2.2195168 -9.4927673 1.1970007 4 11
-2.1135306 -9.0323534 -1.138991 17 4
-1.6830748 -7.1814675 1.1682527 7 12
-2.5719106 -10.965399 -0.9853828 10 5
-1.7016273 -7.2435484 1.4463322 6 13
-2.6672926 -11.336458 -0.61034197 3 6
-1.3881947 -5.8954511 1.3982958 3 14
-2.2037082 -9.3441963 -0.167578 13 7
-1.4512987 -6.1442156 1.6916413 8 15
-1.0587759 -4.4305544 -1.2205906 7 0
-2.5646858 -10.723906 0.19246514 11 8
-1.2401429 -5.1775069 -1.2291325 6 1
-2.6956666 -11.245555 0.60605043 9 9
-1.5009741 -6.2520061 -1.249799 6 2
-1.6866268 -7.0145187 0.6311819 15 10
-1.8287205 -7.599637 -1.2380226 13 3
-1.7231764 -7.1500535 0.90305191 7 11
-2.1853855 -9.0540419 -1.143622 12 4
-1.7319186 -7.1698451 1.1682527 6 12
-2.2576752 -9.3321133 -0.84000701 16 5
-1.7891383 -7.3841362 1.4768617 4 13
-2.2619734 -9.3285027 -0.50305325 35 6
-1.411842 -5.8136559 1.3811995 3 14
-2.2641635 -9.3091536 -0.16722897 28 7
-1.5250684 -6.2655873 1.7278759 12 15
-1.0916795 -4.4344997 -1.2236965 7 0
-2.2866964 -9.2748127 0.1667403 1 8
-1.2758225 -5.1708374 -1.2295824 8 1
-2.755903 -11.152781 0.60207289 11 9
-1.5497712 -6.2623391 -1.2539968 7 2
-1.7539709 -7.0821686 0.63832867 10 10
-1.9017042 -7.6672106 -1.251163 13 3
-1.7653934 -7.1070247 0.8991521 7 11
-2.2450483 -9.0312519 -1.142647 17 4
-1.811518 -7.2764249 1.1876506 5 12
-2.3245161 -9.3300629 -0.84122723 10 5
-1.838884 -7.3698821 1.4764801 6 13
-2.3328526 -9.3357363 -0.50430936 15 6
-1.4589466 -5.8341594 1.3883979 4 14
-2.7773275 -11.08977 -0.19955082 11 7
-1.5292947 -6.0973878 1.6843945 11 15
-1.1287849 -4.4511137 -1.2304258 9 0
-2.3453469 -9.2415876 0.16642615 19 8
-1.3142903 -5.1712489 -1.231832 6 1
-2.3729219 -9.3297539 0.50451869 9 9
-1.5967237 -6.2687669 -1.2574313 6 2
-1.8255315 -7.1566262 0.6461727 3 10
-1.9548256 -7.6579175 -1.2517889 11 3
-1.8107786 -7.0833039 0.89768964 3 11
-2.329706 -9.0999727 -1.1533716 17 4
-1.8629662 -7.2715802 1.1889021 5 12
-2.9075229 -11.332264 -1.0235571 26 5
-1.5868858 -6.1760397 1.2394953 0 13
-2.8792949 -11.197884 -0.60594577 12 6
-1.5147041 -5.8823342 1.4023448 4 14
-2.8506863 -11.05462 -0.19927157 13 7
-1.5726947 -6.0943193 1.6864649 11 15
-1.1600313 -4.4470663 -1.231461 9 0
-3.1921875 -12.220016 0.22045881 2 8
-1.3543874 -5.1810369 -1.236331 6 1
-2.4208004 -9.2472668 0.50095981 53 9
-1.6444314 -6.2726603 -1.2604843 6 2
-2.9055946 -11.07547 1.0017681 4 10
-2.0122557 -7.659368 -1.2542918 11 3
-2.9592235 -11.247895 1.4280651 5 11
-2.4097872 -9.1530123 -1.1621461 9 4
-1.9383624 -7.3519921 1.2042327 5 12
-2.9784913 -11.289093 -1.0214653 12 5
-2.7562711 -10.43207 2.0973725 5 13
-2.9441166 -11.127308 -0.60322434 14 6
-1.5711688 -5.9340544 1.4171916 6 14
-2.9930043 -11.288171 -0.2038441 8 7
-1.6424683 -6.185885 1.7149351 9 15
-1.1920506 -4.4425907 -1.2324963 9 0
-3.0663073 -11.419696 0.20639215 2 8
-1.3976091 -5.1978016 -1.2426296 5 1
-1.6906645 -6.274591 -1.2631556 7 2
-2.4902892 -9.2294216 0.83634651 10 10
-2.0736129 -7.6798215 -1.2599235 11 3
-2.5279508 -9.3495359 1.1892011 4 11
-2.4814095 -9.1647081 -1.1658022 11 4
-2.5096006 -9.2624197 1.5199175 2 12
-3.0520148 -11.248796 -1.0197222 15 5
-2.1480265 -7.9060535 1.592492 4 13
-3.0376058 -11.172539 -0.60678315 7 6
-1.6320105 -5.9943924 1.4342879 4 14
-3.1274905 -11.471503 -0.20754401 2 7
-1.7033495 -6.2435198 1.7340877 11 15
-1.2253424 -4.4455485 -1.2356021 9 0
-2.9602747 -10.725271 0.19421038 15 8
-1.437107 -5.2031956 -1.2462289 5 1
-3.1385009 -11.347827 0.61704099 19 9
-1.7354761 -6.2664194 -1.2639189 7 2
-3.2474537 -11.717883 1.063823 3 10
-2.1377413 -7.7032266 -1.2661808 13 3
-1.8612934 -6.6979856 0.85357296 3 11
-2.561285 -9.2107191 -1.1738456 8 4
-2.5932794 -9.3131809 1.5311806 3 12
-3.152041 -11.312208 -1.0273918 12 5
-2.2403083 -8.029294 1.6203501 0 13
-3.1386402 -11.233773 -0.61128402 14 6
-1.716326 -6.1389165 1.4716297 5 14
-3.1381145 -11.209244 -0.20318091 9 7
-1.7682751 -6.3077426 1.7553109 9 15
-1.2605591 -4.451756 -1.2397434 9 0
-2.9928687 -10.562502 0.19162743 15 8
-1.4808439 -5.2192822 -1.2525275 5 1
-3.1807578 -11.203237 0.61034197 19 9
-1.7834582 -6.2733459 -1.2677351 7 2
-3.2533565 -11.428566 1.0395937 2 10
-2.1912074 -7.6922965 -1.2668065 11 3
-1.8872393 -6.6164393 0.84479833 8 11
-2.6958504 -9.4388437 -1.2052879 12 4
-2.6316411 -9.2079449 1.5167887 18 12
-3.2473841 -11.347392 -1.0326213 19 5
-2.6429722 -9.2232141 1.8649671 33 13
-3.2387047 -11.294705 -0.61578494 12 6
-1.7747382 -6.1811037 1.484677 5 14
-3.3312187 -11.586806 -0.21044111 5 7
-1.7299848 -6.0133643 1.6766298 9 15
-1.2886755 -4.4356518 -1.2376727 9 0
-3.0330222 -10.426144 0.18953314 15 8
-1.5108891 -5.1903706 -1.2480285 5 1
-3.2996924 -11.320733 0.61798304 13 9
-1.8338113 -6.2833571 -1.2723144 7 2
-3.311523 -11.339219 1.0334928 9 10
-2.3041794 -7.8796811 -1.3002834 8 3
-1.938405 -6.6202483 0.84699202 6 11
-2.6929862 -9.1854887 -1.175308 9 4
-2.6869633 -9.1590204 1.5117829 5 12
-3.4304054 -11.678096 -1.0648688 23 5
-3.3219879 -11.287148 -0.61662227 14 6
-1.8553051 -6.2956734 1.5152704 4 14
-3.0283229 -10.262903 -0.18677565 7 7
-1.7598879 -5.9603791 1.6652418 9 15
-1.3236969 -4.4374242 -1.2407786 9 0
-3.1280413 -10.479445 0.19089442 10 8
-1.5491078 -5.1831603 -1.2489282 5 1
-3.3720269 -11.26813 0.616413 16 9
-1.8827012 -6.2873282 -1.275749 7 2
-3.5562279 -11.861051 1.0833459 3 10
-2.3582344 -7.8554235 -1.299032 8 3
-1.9782931 -6.5856419 0.84431088 6 11
-2.8336639 -9.4211941 -1.2079691 9 4
-2.0546417 -6.8225141 1.1285183 3 12
-3.322145 -11.024336 -1.007346 17 5
-2.0535233 -6.8058896 1.3818389 4 13
-3.2449851 -10.741134 -0.58804685 13 6
-1.9341736 -6.3982196 1.5431641 5 14
-3.2806427 -10.838662 -0.19766594 9 7
-1.8209851 -6.0086441 1.6823239 8 15
-1.3535129 -4.4243808 -1.2397434 9 0
-3.2948985 -10.756979 0.19637449 15 8
-1.5938212 -5.2001667 -1.2556767 6 1
-3.4687753 -11.303504 0.61965775 14 9
-1.9276434 -6.2736955 -1.275749 7 2
-3.4709053 -11.289368 1.0333185 3 10
-2.4321969 -7.9010706 -1.3093567 7 3
-2.0259738 -6.5773625 0.84504211 5 11
-2.9017074 -9.4087696 -1.208944 9 4
-2.0952282 -6.7853546 1.124764 5 12
-3.3149199 -10.72866 -0.98241949 7 5
-2.1282568 -6.8795385 1.3997749 12 13
-3.3210742 -10.722034 -0.58825624 13 6
-1.9684101 -6.3510561 1.535066 4 14
-3.4522421 -11.124891 -0.20332053 13 7
-1.9632404 -6.3226671 1.7739457 8 15
-1.3824413 -4.4113779 -1.238708 9 0
-3.39977 -10.835425 0.19822444 12 8
-1.6320994 -5.1984944 -1.2579263 5 1
-3.7378893 -11.891248 0.65325743 3 9
-1.9726599 -6.26792 -1.2772754 7 2
-3.5267217 -11.198967 1.0272175 1 10
-2.5067105 -7.9502702 -1.320307 8 3
-2.0665159 -6.550168 0.84333593 5 11
-3.2180049 -10.187607 -1.3118018 10 4
-2.1538739 -6.8104877 1.1313342 5 12
-3.5249236 -11.138946 -1.0221626 11 5
-2.1406419 -6.7563424 1.377641 11 13
-3.577569 -11.277926 -0.62007648 15 6
-2.000982 -6.3040771 1.5269678 5 14
-3.6005628 -11.329828 -0.20750912 6 7
-2.0068169 -6.3109989 1.7744634 7 15
-1.4136177 -4.4055448 -1.2397434 10 0
-3.4416413 -10.713033 0.19640939 8 8
-1.6751987 -5.2113824 -1.263775 6 1
-3.4210217 -10.629734 0.58522069 9 9
-2.0273204 -6.2917199 -1.2849078 9 2
-3.6273246 -11.250552 1.0341899 9 10
-2.5625877 -7.9386635 -1.3212456 7 3
-2.1097524 -6.5280252 0.84236097 4 11
-3.240855 -10.021918 -1.2932776 10 4
-2.2220852 -6.8633251 1.1425974 2 12
-3.800426 -11.724353 -1.0782908 6 5
-2.1738615 -6.7023978 1.3696271 6 13
-3.6672049 -11.293205 -0.62227458 14 6
-2.0087922 -6.1787591 1.4999737 5 14
-3.7388399 -11.493317 -0.21096468 1 7
-2.0586042 -6.3207145 1.7811928 8 15
-1.4491632 -4.4102511 -1.2438843 11 0
-3.6363289 -11.053458 0.20311111 3 8
-1.7158055 -5.2125182 -1.2669244 7 1
-3.5114002 -10.654912 0.58794218 9 9
-2.0748856 -6.2886 -1.2871976 10 2
-3.7950971 -11.495504 1.0591166 11 10
-2.6235271 -7.9374604 -1.3240615 8 3
-2.1540279 -6.5093689 0.84187353 5 11
-3.2034199 -9.6749191 -1.2513546 10 4
-2.2481914 -6.7820182 1.131647 3 12
-3.8319788 -11.546259 -1.064346 7 5
-2.2236929 -6.6963744 1.3715351 8 13
-3.7415464 -11.254061 -0.62154186 14 6
-2.0500326 -6.1590366 1.4986238 6 14
-3.9504149 -11.861561 -0.2182249 9 7
-2.0898478 -6.2677026 1.7703223 10 15
-1.4848441 -4.4146752 -1.2480254 11 0
-3.6291721 -10.777643 0.19850367 15 8
-1.7521527 -5.2004128 -1.2669244 8 1
-3.567826 -10.577149 0.58501136 17 9
-2.1187377 -6.2739611 -1.2871976 10 2
-3.7661951 -11.14596 1.0293093 9 10
-2.6934352 -7.9619889 -1.3312575 10 3
-2.2008312 -6.5020776 0.84284848 4 11
-3.274708 -9.663599 -1.252817 9 4
-3.9125409 -11.532586 1.9288372 5 12
-3.8803813 -11.431235 -1.0561533 7 5
-2.9962301 -8.8164988 1.8100141 30 13
-3.8862851 -11.42242 -0.63232309 15 6
-2.1007001 -6.1707678 1.5049226 4 14
-3.9241068 -11.513812 -0.21232598 5 7
-2.1430616 -6.2844172 1.7791222 11 15
-1.519886 -4.4190807 -1.2521666 11 0
-3.7148178 -10.788616 0.19916686 17 8
-1.7951274 -5.210475 -1.2723231 10 1
-3.7745438 -10.943457 0.60667849 19 9
-2.1613934 -6.2593942 -1.2871976 10 2
-3.4620075 -10.0203 0.92751139 1 10
-2.751442 -7.9546728 -1.3331347 10 3
-3.8603234 -11.154245 1.4492704 4 11
-3.2247298 -9.3072119 -1.2094315 7 4
-3.9669964 -11.436635 1.917261 6 12
-4.078301 -11.750891 -1.0882267 7 5
-3.3280892 -9.5784998 1.9710571 39 13
-3.9619753 -11.390043 -0.63200903 16 6
-2.2995896 -6.6072378 1.6151485 5 14
-3.6845911 -10.574761 -0.19546695 1 7
-2.195329 -6.2970457 1.7868867 15 15
-1.5499302 -4.4086328 -1.2521666 12 0
-3.8240175 -10.864938 0.20105173 15 8
-1.8357303 -5.2128406 -1.2759224 10 1
-3.8502743 -10.921277 0.60688782 29 9
-2.207217 -6.2537942 -1.2891057 12 2
-3.8936944 -11.026025 1.0230341 9 10
-2.8186932 -7.9730077 -1.3393921 11 3
-4.0215507 -11.362814 1.4799815 5 11
-3.3271027 -9.3954477 -1.2238121 12 4
-2.7537041 -7.7676053 1.3052894 8 12
-3.7871976 -10.676946 -0.99113512 7 5
-3.0883808 -8.6971912 1.7939863 39 13
-4.1183538 -11.584874 -0.64436036 15 6
-2.3516941 -6.6116276 1.6200974 6 14
-4.2012258 -11.798416 -0.21860886 2 7
-2.2450738 -6.2979441 1.7915455 15 15
-1.5878581 -4.4177022 -1.2578605 14 0
-3.9141247 -10.88382 0.20188944 13 8
-1.8786792 -5.2182331 -1.2804214 13 1
-3.9922099 -11.082723 0.61735499 11 9
-2.2623873 -6.2737155 -1.2963563 13 2
-4.0605545 -11.247816 1.0462176 9 10
-2.800421 -7.752985 -1.3056022 11 3
-3.6235783 -10.020953 1.3083893 3 11
-3.5284245 -9.7471704 -1.2728035 7 4
-4.0503387 -11.18284 1.8837841 7 12
-3.8636816 -10.655866 -0.99165797 19 5
-3.7666347 -10.376914 2.145838 37 13
-4.1889329 -11.534045 -0.64310426 15 6
-2.3937988 -6.5840607 1.6173981 6 14
-4.3286319 -11.892818 -0.22091258 5 7
-2.2885516 -6.2843318 1.7920631 20 15
-1.6185572 -4.4086061 -1.2583783 12 0
-4.0934882 -11.13777 0.20712517 8 8
-1.9134816 -5.203495 -1.2799715 11 1
-3.9970374 -10.857781 0.60636443 19 9
-2.310883 -6.2706628 -1.2990277 12 2
-4.0163975 -10.892777 1.015713 11 10
-2.9174092 -7.9037361 -1.3343862 11 3
-3.4941888 -9.451088 -1.2372177 25 4
-4.0693445 -10.99497 1.8568773 21 12
-4.3595324 -11.766415 -1.0978137 8 5
-3.0708365 -8.2837734 1.717281 9 13
-4.297843 -11.581293 -0.64739585 16 6
-2.4329195 -6.5489206 1.6128991 5 14
-4.3523531 -11.709378 -0.21805036 7 7
-2.3114831 -6.2120738 1.7760164 16 15
-1.657437 -4.4189043 -1.2645899 11 0
-4.4530139 -11.859626 0.221122 6 8
-1.951133 -5.1936584 -1.2808713 11 1
-4.0699296 -10.822135 0.60594577 4 9
-2.358062 -6.2635641 -1.3009357 13 2
-4.0923457 -10.864472 1.015713 17 10
-3.0045757 -7.9682012 -1.3487781 12 3
-3.5109882 -9.2964687 -1.220156 36 4
-3.080687 -8.1485014 1.3797522 2 12
-4.4401608 -11.731966 -1.0974652 15 5
-2.9116771 -7.6892929 1.5982162 6 13
-4.3141665 -11.381056 -0.63787073 16 6
-2.4529994 -6.4643631 1.5962527 3 14
-4.4283142 -11.663752 -0.21777113 10 7
-2.362345 -6.2156491 1.7817104 22 15
-1.6951567 -4.4252653 -1.2697662 12 0
-4.6638603 -12.162464 0.22736996 11 8
-1.9908345 -5.1890078 -1.2831209 12 1
-4.1217499 -10.731931 0.60249156 27 9
-2.403846 -6.2524467 -1.3020806 12 2
-3.0203795 -7.8437986 -1.3312575 12 3
-4.4366732 -11.509871 1.5145923 30 11
-3.6908059 -9.5699234 -1.2593979 20 4
-3.4533832 -8.9450035 1.5186659 3 12
-4.5191956 -11.699613 -1.0972908 14 5
-4.4187493 -11.415851 -0.64153421 20 6
-2.4877944 -6.4238925 1.5904039 7 14
-4.1120858 -10.607083 -0.19857347 2 7
-2.4217558 -6.2404284 1.7936161 23 15
-1.7203802 -4.3989305 -1.2656252 13 0
-4.1832795 -10.690947 0.20038854 12 8
-2.0291433 -5.1804256 -1.2844704 11 1
-4.1830444 -10.673874 0.60081685 8 9
-2.4520848 -6.2505608 -1.3051336 12 2
-4.2676702 -10.867476 1.0214653 7 10
-3.147383 -8.0105906 -1.3631701 11 3
-4.195951 -10.66842 1.407591 9 11
-3.6695337 -9.320425 -1.2299055 36 4
-3.1536481 -8.0060034 1.3628573 0 12
-4.5649519 -11.576957 -1.0887495 21 5
-3.0129871 -7.6332808 1.5951633 46 13
-4.2777333 -10.831931 -0.61034197 14 6
-2.5476263 -6.4444261 1.599852 7 14
-4.2095828 -10.637618 -0.19969043 17 7
-2.4677322 -6.2327805 1.7962043 31 15
-1.7524306 -4.3925009 -1.2671782 14 0
-4.2919292 -10.746908 0.20199415 10 8
-2.0636356 -5.1646843 -1.2840205 12 1
-4.5645299 -11.412144 0.64415103 22 9
-2.4993107 -6.2424026 -1.3070416 10 2
-4.7571764 -11.875754 1.1192541 11 10
-3.1973484 -7.9737549 -1.3606671 12 3
-4.2681088 -10.633341 1.4068599 4 11
-3.800209 -9.462863 -1.2520857 13 4
-4.2070775 -10.465438 1.7864817 11 12
-2.8676374 -7.1226935 1.4925081 16 13
-4.6264944 -11.479811 -0.6486519 3 6
-2.6067359 -6.4648895 1.6092998 8 14
-4.3993993 -10.899851 -0.2051705 16 7
-2.506119 -6.2028623 1.7925807 15 15
-1.7845088 -4.3837385 -1.2682134 14 0
-4.6682 -11.461943 0.21602589 9 8
-2.1025844 -5.1573696 -1.2858201 10 1
-4.3471642 -10.657719 0.60322434 19 9
-2.5499067 -6.2452393 -1.3112395 12 2
-4.9409728 -12.08939 1.1426117 7 10
-3.2657552 -7.9865456 -1.3666116 16 3
-5.0690494 -12.384244 1.6430426 33 11
-3.8752108 -9.4581442 -1.2550106 16 4
-4.2272682 -10.31227 1.7652067 13 12
-4.5963149 -11.201406 -1.0592909 44 5
-2.649507 -6.4505448 1.3555073 4 13
-4.8882442 -11.895113 -0.6739825 9 6
-2.6288242 -6.3906655 1.5953529 4 14
-4.4791942 -10.878117 -0.20534502 3 7
-2.6012638 -6.3142676 1.8298507 22 15
-1.8202554 -4.3836627 -1.2718368 13 0
-4.5252209 -10.887209 0.20579877 7 8
-2.1430268 -5.1533623 -1.2885196 12 1
-4.4463434 -10.681655 0.60636443 40 9
-2.5975509 -6.2340817 -1.312766 12 2
-4.9025917 -11.760363 1.114722 5 10
-3.3319495 -7.984849 -1.3703661 15 3
-4.9756608 -11.918067 1.5857641 48 11
-3.8362842 -9.1799316 -1.2216184 32 4
-4.2979031 -10.274467 1.7639554 7 12
-2.6922002 -6.4264588 1.3543624 4 13
-4.8573842 -11.583549 -0.65828174 11 6
-3.5034323 -8.3506527 2.0906951 1 14
-4.6711693 -11.123139 -0.21058075 29 7
-2.6063702 -6.2033401 1.8029336 22 15
-1.8485458 -4.3676133 -1.2708015 11 0
-4.6912684 -11.073425 0.20991755 16 8
-2.1848998 -5.1548033 -1.2925688 15 1
-2.6437614 -6.2252922 -1.314674 13 2
-4.8851366 -11.497503 1.0929331 6 10
-3.3908625 -7.9728913 -1.3722433 15 3
-4.7659831 -11.20077 1.4946058 18 11
-3.9391296 -9.2485762 -1.2342927 19 4
-5.0192575 -11.77318 2.0270779 27 12
-4.4681301 -10.475386 -0.99636441 1 5
-4.9596643 -11.605313 -0.6614219 5 6
-2.699831 -6.3143926 1.5854551 6 14
-4.7813916 -11.171975 -0.21211654 27 7
-2.6819923 -6.2635946 1.8257096 15 15
-1.8767021 -4.3513813 -1.2697662 12 0
-4.8132963 -11.149555 0.21197693 17 8
-2.2253451 -5.1523352 -1.2957181 11 1
-4.8948956 -11.322279 0.6464538 14 9
-2.6884129 -6.2125583 -1.3158189 13 2
-4.9775324 -11.496895 1.0960705 12 10
-3.4513376 -7.9641256 -1.3747462 15 3
-5.316462 -12.256267 1.6403615 30 11
-4.0675855 -9.3726931 -1.2545232 24 4
-5.0528421 -11.631846 2.0086186 5 12
-4.9653964 -11.419631 -1.0894468 27 5
-3.1522183 -7.2461495 1.5360124 24 13
-5.1382136 -11.800184 -0.67450589 15 6
-2.7524126 -6.3150411 1.5904039 4 14
-4.8565259 -11.137338 -0.21208164 28 7
-2.7101982 -6.2093077 1.8153569 16 15
-1.9101444 -4.3452477 -1.2718368 11 0
-4.8531637 -11.029655 0.21033642 28 8
-2.262831 -5.1402411 -1.2966179 13 1
-5.0092549 -11.36825 0.65105933 4 9
-2.7396417 -6.2116008 -1.319635 12 2
-5.0118279 -11.357965 1.0861349 11 10
-3.5291986 -7.9904337 -1.3835067 15 3
-5.2317333 -11.833948 1.5886889 33 11
-3.9562638 -8.9446707 -1.2009006 39 4
-2.9835939 -6.7392135 1.1673142 18 12
-5.2072449 -11.750819 -1.1244833 14 5
-3.1183839 -7.0337205 1.495561 19 13
-5.2423429 -11.813316 -0.67733198 9 6
-2.7901044 -6.281424 1.5868047 4 14
-4.7766185 -10.74865 -0.20531012 6 7
-2.8013749 -6.2979074 1.8469328 2 15
-1.9435921 -4.3388591 -1.2739074 12 0
-4.991405 -11.132356 0.21295427 8 8
-2.3034463 -5.1349874 -1.2993174 11 1
-5.3314695 -11.874143 0.68214691 19 9
-2.7934022 -6.2156024 -1.3245962 13 2
-5.1628976 -11.482609 1.1014743 1 10
-3.4916661 -7.7584438 -1.3475267 12 3
-5.2322922 -11.620676 1.5648024 22 11
-4.072443 -9.0362797 -1.2169874 24 4
-3.0516887 -6.7650366 1.1754488 28 12
-5.122375 -11.350083 -1.0894468 15 5
-3.1868098 -7.054719 1.5047197 8 13
-5.2366409 -11.581703 -0.66613209 11 6
-2.8215511 -6.2374296 1.5805061 5 14
-5.0239272 -11.095769 -0.21260521 10 7
-3.2419484 -7.1567955 2.1052344 8 15
-1.9778911 -4.3360744 -1.2770132 11 0
-4.8992982 -10.730671 0.20590349 16 8
-2.3367264 -5.115644 -1.2984174 11 1
-5.1123719 -11.181851 0.64436036 27 9
-2.838913 -6.2035856 -1.3261225 13 2
-5.0891585 -11.115685 1.0695752 11 10
-3.7040455 -8.0828819 -1.4082233 12 3
-5.2401228 -11.429606 1.5438409 25 11
-4.037817 -8.7990627 -1.1887137 10 4
-3.1042614 -6.7584686 1.1779517 5 12
-5.2627382 -11.452544 -1.1026944 17 5
-3.2454202 -7.0560513 1.5096809 8 13
-5.249373 -11.402465 -0.65786302 13 6
-2.8655722 -6.2216196 1.5814059 4 14
-5.2533808 -11.39546 -0.2190277 2 7
-4.9856396 -10.809731 3.1896861 4 15
-2.0106144 -4.3295197 -1.2790838 12 0
-4.9755969 -10.704329 0.20604311 22 8
-2.3829968 -5.1243582 -1.3047161 13 1
-5.1883631 -11.146795 0.64436036 11 9
-2.8827312 -6.1876779 -1.3268858 13 2
-5.1125145 -10.968825 1.0587679 22 10
-3.7272408 -7.9894567 -1.3963342 16 3
-5.1854086 -11.104959 1.5048428 8 11
-4.931088 -10.555506 -1.4305025 15 4
-3.2112725 -6.8678098 1.2007911 16 12
-5.4570751 -11.665504 -1.1267494 21 5
-4.7893786 -10.228875 2.1954484 24 13
-5.3794112 -11.478598 -0.66435266 15 6
-3.6747351 -7.8375974 1.9984653 19 14
-5.7513423 -12.255524 -0.23630559 4 7
-3.6203861 -7.7076769 2.2817488 9 15
-2.0374875 -4.308392 -1.2770132 13 0
-5.0457778 -10.664789 0.20593838 26 8
-2.4228837 -5.1164026 -1.3069657 13 1
-5.1974173 -10.970435 0.6361959 34 9
-2.9340358 -6.1874251 -1.3310837 13 2
-5.1735897 -10.900467 1.0556303 13 10
-3.8679626 -8.1459122 -1.4282467 11 3
-5.3154097 -11.184153 1.5204421 33 11
-4.3642583 -9.1745739 -1.2474546 22 4
-3.2104077 -6.7459064 1.1832705 10 12
-5.1125512 -10.733144 -1.0401167 13 5
-4.8606725 -10.19519 2.1954484 23 13
-5.8839006 -12.335853 -0.71626997 16 6
-3.7335596 -7.8205438 2.0007145 7 14
-5.6867476 -11.901124 -0.23023215 2 7
-3.6760998 -7.689827 2.2838194 7 15
-2.0692799 -4.2996454 -1.2785661 13 0
-5.1209769 -10.631105 0.20597331 17 8
-2.4568079 -5.0980368 -1.3065157 13 1
-5.2409067 -10.865524 0.63221842 34 9
-2.9839888 -6.1809349 -1.3341365 12 2
-5.2372684 -10.84347 1.0535386 10 10
-3.9281764 -8.125824 -1.4294983 12 3
-3.1704793 -6.5526147 0.89378983 15 11
-4.5546136 -9.4090967 -1.2835281 6 4
-3.3202999 -6.8531032 1.2061099 1 12
-5.1133614 -10.549286 -1.0256487 12 5
-5.4568996 -11.238046 -0.65472287 13 6
-3.7126224 -7.6424522 1.9615731 13 14
-6.146245 -12.640841 -0.24534594 9 7
-3.723778 -7.6518159 2.280196 7 15
-2.1034951 -4.2937694 -1.2811544 12 0
-5.2530661 -10.718104 0.20834683 8 8
-2.496629 -5.089509 -1.3087653 13 1
-5.3842587 -10.971244 0.64048749 24 9
-3.0329165 -6.1745777 -1.3371896 12 2
-5.45085 -11.087358 1.0809054 12 10
-3.9764218 -8.0847178 -1.4269954 12 3
-5.6269221 -11.430379 1.564315 6 11
-4.3394341 -8.807251 -1.2055316 9 4
-5.5704017 -11.300631 1.9954783 8 12
-5.171896 -10.482957 -1.0226854 20 5
-3.5526123 -7.1944876 1.5596728 15 13
-5.6358838 -11.40836 -0.66686481 22 6
-4.0310531 -8.1526356 2.0996931 29 14
-5.8644857 -11.850264 -0.23079063 1 7
-4.075779 -8.2322407 2.4613693 10 15
-2.1395667 -4.2931838 -1.2852954 12 0
-5.474144 -10.974639 0.21407123 11 8
-2.5355651 -5.0811157 -1.3110147 11 1
-5.4143152 -10.840474 0.63504457 19 9
-3.0856042 -6.1725712 -1.3413873 12 2
-5.5466905 -11.090983 1.0849147 3 10
-4.0363016 -8.0638266 -1.4282467 12 3
-5.787497 -11.552326 1.5864953 6 11
-4.8324485 -9.6417742 -1.3242323 30 4
-3.4197876 -6.8172665 1.2079871 8 12
-5.2476368 -10.451937 -1.0232084 17 5
-5.6802735 -11.308714 2.4599097 7 13
-5.2910662 -10.52469 -0.61735499 14 6
-6.1302319 -12.17802 -0.23798102 9 7
-4.5616779 -9.0541363 2.7165647 18 15
-2.1642444 -4.2678041 -1.2821896 11 0
-6.0855083 -11.990006 0.23469996 9 8
-2.5709763 -5.0632906 -1.3110147 13 1
-5.5296755 -10.880754 0.63965011 35 9
-3.1330719 -6.1596279 -1.3432955 11 2
-5.5001893 -10.80872 1.061034 4 10
-4.0844307 -8.0196095 -1.425431 15 3
-3.3870163 -6.6445289 0.9157263 18 11
-4.9510474 -9.708602 -1.3381255 28 4
-6.2817264 -12.307332 2.1885185 7 12
-5.3313541 -10.436337 -1.0253001 12 5
-5.7090521 -11.170884 2.438539 21 13
-5.3425846 -10.444819 -0.61484283 14 6
-4.1533699 -8.1129036 2.104192 11 14
-6.1212087 -11.951601 -0.23438582 4 7
-4.6864638 -9.1424093 2.7527995 18 15
-2.1948719 -4.2543077 -1.2827072 11 0
-6.1938376 -11.995203 0.2356424 12 8
-2.6098397 -5.0521436 -1.3128144 10 1
-5.7174115 -11.058333 0.6524201 32 9
-3.1850207 -6.1550417 -1.3471116 10 2
-3.865397 -7.4666734 0.73559445 30 10
-4.1448627 -7.9996686 -1.4269954 13 3
-3.435149 -6.6242456 0.91621375 14 11
-5.044302 -9.7231379 -1.3449502 8 4
-5.9523993 -11.46375 2.0458503 27 12
-5.4233904 -10.440474 -1.0293093 15 5
-5.8004818 -11.156885 2.4442632 35 13
-5.4190607 -10.414354 -0.61526155 19 6
-4.1985984 -8.0654316 2.0992434 15 14
-5.4412937 -10.443725 -0.20555446 11 7
-4.7046213 -9.022109 2.7263999 30 15
-2.2254159 -4.2405925 -1.2832248 12 0
-5.4378228 -10.35753 0.20419316 13 8
-2.6486714 -5.0407014 -1.3146139 10 1
-5.7581625 -10.953749 0.64854723 35 9
-3.2304995 -6.1401691 -1.3486381 10 2
-3.926713 -7.4571357 0.73733753 22 10
-4.1126747 -7.8069854 -1.3975856 13 3
-6.0807896 -11.533243 1.6008759 15 11
-5.5724969 -10.560245 -1.4660883 17 4
-6.084703 -11.526034 2.0643096 28 12
-6.0629802 -11.475183 -1.135465 10 5
-5.9332962 -11.220251 2.4671605 15 13
-5.4870195 -10.371932 -0.61494756 19 6
-3.819838 -7.2144203 1.8846399 15 14
-5.4990878 -10.377213 -0.20499596 20 7
-4.3560205 -8.2166824 2.4919097 5 15
-2.2578666 -4.2321639 -1.2852954 12 0
-5.4742079 -10.252282 0.20286678 15 8
-2.6847572 -5.0259933 -1.3155137 16 1
-5.8853436 -11.008395 0.65419954 13 9
-3.2871792 -6.1434326 -1.3543624 13 2
-4.0008864 -7.4741492 0.74169534 12 10
-4.2846179 -7.9974794 -1.4370072 12 3
-5.7446642 -10.718249 1.4931433 13 11
-5.2248015 -9.7401304 -1.3571371 10 4
-6.1239085 -11.406695 2.0505433 5 12
-6.2899003 -11.710976 -1.1630062 44 5
-5.3783693 -10.005444 2.2080419 15 13
-5.5753818 -10.363274 -0.61672693 15 6
-3.8799393 -7.2088442 1.8900387 15 14
-5.5724416 -10.344823 -0.20510069 33 7
-4.3394461 -8.0524921 2.4510164 23 15
-2.2903054 -4.2234902 -1.287366 11 0
-5.5400505 -10.207752 0.20272715 25 8
-2.7207658 -5.0110278 -1.3164135 14 1
-5.5138435 -10.146791 0.60521305 14 9
-3.3317342 -6.1260891 -1.3555073 11 2
-4.0326247 -7.4117408 0.73820913 37 10
-4.347456 -7.9837437 -1.439823 15 3
-5.8032432 -10.65275 1.4894872 17 11
-5.249166 -9.627655 -1.3464125 17 4
-6.418087 -11.761839 2.1221902 18 12
-6.307416 -11.554218 -1.1516759 26 5
-6.0544252 -11.081585 2.454567 3 13
-6.142148 -11.232821 -0.67094702 11 6
-3.9298537 -7.1839767 1.8904886 19 14
-5.6504102 -10.320685 -0.20537992 27 7
-4.4043655 -8.0414057 2.4567106 23 15
-2.3208656 -4.2111859 -1.2884012 12 0
-5.6190624 -10.187316 0.2030762 37 8
-2.7604609 -5.0026293 -1.319113 14 1
-5.5489888 -10.047831 0.60154951 26 9
-3.3771548 -6.1101418 -1.3570337 11 2
-4.0000682 -7.23417 0.72321832 24 10
-4.3950038 -7.9418683 -1.4376329 13 3
-6.2852697 -11.348269 1.5928324 8 11
-5.4223318 -9.7861757 -1.3737113 21 4
-3.7265542 -6.7201166 1.2170602 6 12
-6.3869562 -11.508162 -1.1515017 22 5
-5.9553175 -10.726008 2.3847308 19 13
-6.1980901 -11.154091 -0.66874892 24 6
-4.0073771 -7.2057567 1.903536 19 14
-6.7326055 -12.101079 -0.24171583 15 7
-5.0637641 -9.0940514 2.7890344 17 15
-2.3473749 -4.1898255 -1.2868483 10 0
-5.7252517 -10.210632 0.20433277 7 8
-2.8048522 -5.0002317 -1.323612 14 1
-5.6053128 -9.9844646 0.60008413 35 9
-3.4293449 -6.1035328 -1.3608499 11 2
-4.0602379 -7.2234368 0.72496146 30 10
-4.5094209 -8.0160122 -1.4567178 16 3
-6.3068829 -11.202055 1.5784519 13 11
-5.4476566 -9.6719799 -1.3629869 32 4
-3.7830787 -6.7111444 1.220189 5 12
-6.5229445 -11.562203 -1.1614374 12 5
-6.2606778 -11.0928 2.4759376 5 13
-6.4044886 -11.338359 -0.68246096 15 6
-4.1515684 -7.3438544 1.9476261 25 14
-6.3158669 -11.167808 -0.22394928 9 7
-5.2137208 -9.2114716 2.8361392 23 15
-2.379436 -4.1783719 -1.2884012 12 0
-6.4974294 -11.400454 0.22904538 8 8
-2.83583 -4.9737573 -1.3218124 13 1
-5.6808176 -9.9554977 0.60071218 42 9
-3.4835551 -6.0999002 -1.3654292 11 2
-5.614841 -9.827919 0.99026352 13 10
-4.5593882 -7.9740472 -1.4548407 15 3
-6.2192965 -10.868298 1.5375037 4 11
-5.4785557 -9.5699692 -1.3539685 28 4
-3.8563535 -6.7308483 1.2286365 3 12
-5.4749908 -9.5521393 -0.96324527 11 5
-6.7987142 -11.84245 -0.71564192 16 6
-5.2506127 -9.142169 2.4339705 8 14
-6.3966684 -11.128643 -0.22405399 16 7
-5.0939116 -8.8550091 2.7372704 6 15
-2.4182258 -4.1783786 -1.2935777 11 0
-6.3794971 -11.018503 0.22223894 17 8
-2.8685303 -4.9504657 -1.3209126 13 1
-5.7754955 -9.963254 0.60353833 34 9
-3.5338616 -6.0913305 -1.3688638 9 2
-5.670311 -9.7660809 0.98799747 22 10
-4.6641607 -8.0299425 -1.4707971 12 3
-5.6416678 -9.7050438 1.3783424 27 11
-5.613111 -9.6481667 -1.3705428 25 4
-6.6872897 -11.489918 2.1056082 14 12
-6.8492088 -11.75868 -1.1905475 39 5
-6.8942571 -11.821778 -0.71721202 18 6
-4.2111721 -7.2152276 1.9287304 15 14
-6.5064797 -11.138969 -0.22517094 31 7
-4.2408004 -7.2572603 2.2522435 1 15
-2.4524851 -4.171814 -1.2966834 13 0
-6.4816132 -11.016788 0.22311155 16 8
-2.9080915 -4.9409022 -1.323612 13 1
-6.217948 -10.55598 0.6420576 6 9
-3.5812864 -6.0749679 -1.3707719 10 2
-5.7386794 -9.73069 0.9883461 20 10
-4.7311516 -8.0158978 -1.4742386 7 3
-5.6843834 -9.6271019 1.3727365 43 11
-5.8008518 -9.8165264 -1.4000351 11 4
-5.6813483 -9.6066389 1.7677096 15 12
-6.9585099 -11.761514 -1.1956024 21 5
-6.6467428 -11.225613 2.5358517 2 13
-7.0886188 -11.962367 -0.72872591 15 6
-4.2035418 -7.0908461 1.9030858 15 14
-6.5239921 -10.996395 -0.22318138 14 7
-4.2299528 -7.1268892 2.2206676 1 15
-2.4788432 -4.1517067 -1.2956481 12 0
-6.5472231 -10.956962 0.22279742 26 8
-2.9516535 -4.9377208 -1.3281111 12 1
-6.4978075 -10.861345 0.663306 19 9
-3.6185186 -6.0437126 -1.3692454 11 2
-5.848804 -9.7649012 0.9958415 9 10
-4.8302913 -8.0580568 -1.4880048 1 3
-5.7426353 -9.5762701 1.3710303 50 11
-6.003397 -10.00319 -1.4324524 13 4
-5.6835475 -9.4627523 1.7483118 35 12
-6.8454895 -11.392809 -1.1628319 27 5
-5.5999699 -9.3125515 2.1122558 38 13
-7.1987162 -11.961755 -0.73165673 20 6
-4.079833 -6.7765818 1.8261526 13 14
-6.5223188 -10.824986 -0.22059841 30 7
-4.3023009 -7.1376395 2.2330909 13 15
-2.5070455 -4.1347375 -1.2956481 12 0
-6.65381 -10.965141 0.22387949 4 8
-2.9892399 -4.9241776 -1.3299106 13 1
-6.7395816 -11.093389 0.6802628 32 9
-3.6707931 -6.0373955 -1.3734432 9 2
-7.7032371 -12.664623 1.2968775 6 10
-5.8293653 -9.5725641 1.3761488 46 11
-5.7934518 -9.506114 -1.3668866 23 4
-5.7251973 -9.3867445 1.7414287 44 12
-6.5337205 -10.708154 -1.0974652 9 5
-5.6202555 -9.2038441 2.0962276 54 13
-7.2810125 -11.914181 -0.7317614 15 6
-4.1248488 -6.7469912 1.8257027 19 14
-6.3996463 -10.459659 -0.21403632 11 7
-5.4843698 -8.960207 2.8149161 20 15
-2.5412092 -4.1274471 -1.298754 12 0
-6.5289831 -10.596128 0.21724756 12 8
-3.0247338 -4.9070349 -1.3308104 13 1
-6.6387696 -10.761684 0.66267794 16 9
-3.7200537 -6.0256333 -1.3764962 9 2
-6.3423877 -10.269201 1.0559789 2 10
-5.921741 -9.5694294 -1.3817548 26 4
-5.798317 -9.3626738 1.7442445 46 12
-6.9537792 -11.224042 -1.1551622 17 5
-5.6786342 -9.1587029 2.0947013 67 13
-7.3029704 -11.769308 -0.72589982 28 6
-4.2405653 -6.8313456 1.8562962 9 14
-6.479136 -10.429443 -0.21431555 33 7
-5.5197401 -8.881649 2.801975 20 15
-2.5778513 -4.1206212 -1.3023775 10 0
-6.6152487 -10.566086 0.21759661 23 8
-3.0566671 -4.8803096 -1.3294607 13 1
-8.5634346 -13.661877 0.84501636 3 9
-3.77038 -6.0105009 -1.3791674 10 2
-6.3659344 -10.144236 1.0477864 13 10
-4.3011093 -6.848587 -1.2808856 1 3
-6.5989699 -10.499296 1.5226357 23 11
-5.880177 -9.3520365 -1.3564059 25 4
-5.9198728 -9.4078808 1.7605137 19 12
-6.1794868 -9.8166599 -1.0148414 13 5
-5.7827463 -9.1792946 2.1088212 45 13
-6.3580389 -10.084683 -0.62478673 17 6
-5.6709533 -8.9913969 2.454216 23 14
-7.0146995 -11.113332 -0.22939444 20 7
-5.5816026 -8.8360481 2.8004222 24 15
-2.6075919 -4.1041551 -1.3028952 12 0
-3.0917094 -4.8604956 -1.3299106 13 1
-6.8838067 -10.817912 0.67199373 19 9
-3.8175323 -5.9946327 -1.3814572 10 2
-6.4879961 -10.180197 1.0561533 10 10
-4.3752375 -6.8624587 -1.2890202 1 3
-6.6809616 -10.47087 1.5250732 18 11
-5.9538703 -9.3241425 -1.3583559 25 4
-7.2330189 -11.314308 -1.1748594 19 5
-7.1586494 -11.189366 2.5820274 51 13
-6.4416089 -10.064722 -0.62625211 12 6
-6.6028218 -10.308683 2.8262849 18 14
-7.133121 -11.128061 -0.2307208 32 7
-5.6489158 -8.8092365 2.8040457 41 15
-2.6396549 -4.0928049 -1.3049657 11 0
-7.4358993 -11.520588 0.2393423 11 8
-3.133178 -4.8524365 -1.3335099 13 1
-6.9331474 -10.72933 0.66948164 9 9
-3.866751 -5.9793763 -1.3841285 12 2
-6.5225091 -10.082267 1.0505754 10 10
-4.4230394 -6.8317466 -1.2890202 1 3
-6.7463412 -10.412313 1.5233669 25 11
-6.2828069 -9.693181 -1.4183155 13 4
-27.070633 -41.732964 7.8786664 28 12
-7.3445716 -11.318295 -1.1804373 19 5
-9.0983763 -14.01027 3.2471879 11 13
-7.8079648 -12.01403 -0.75091636 11 6
-6.6526561 -10.23246 2.8177371 15 14
-7.1432676 -10.978683 -0.22862652 16 7
-5.7440109 -8.8213892 2.82061 26 15
-2.6702802 -4.0775089 -1.3060009 11 0
-7.1021113 -10.840771 0.2262181 12 8
-3.1733887 -4.8402224 -1.3362092 11 1
-6.9107213 -10.536592 0.66037518 3 9
-3.9170573 -5.9676895 -1.3875631 10 2
-6.5489826 -9.9698753 1.0436028 13 10
-4.4954729 -6.8411031 -1.2965289 1 3
-6.8530531 -10.420884 1.5314103 18 11
-6.2182751 -9.4484425 -1.3888232 23 4
-8.5705557 -13.017693 2.4685361 3 12
-7.5505643 -11.459738 -1.2006575 32 5
-9.1592159 -13.890685 3.2342126 12 13
-7.8598685 -11.915589 -0.74809021 7 6
-6.7357392 -10.203654 2.8226857 28 14
-6.653183 -10.070947 -0.21068545 11 7
-2.7022507 -4.0656743 -1.3080715 12 0
-7.1067419 -10.684364 0.22398418 13 8
-3.2062616 -4.8185096 -1.3362092 13 1
-7.5785751 -11.380798 0.71658397 14 9
-3.9684231 -5.9549017 -1.3909976 12 2
-6.5216489 -9.7824993 1.0286121 8 10
-4.5606642 -6.8358431 -1.3015349 1 3
-6.9057961 -10.34307 1.527023 18 11
-6.2317262 -9.3299627 -1.3776112 16 4
-8.6656151 -12.964114 2.4697876 3 12
-7.3611941 -11.004331 -1.1582998 20 5
-8.1715193 -12.211078 2.856029 27 13
-7.8684001 -11.749242 -0.74107724 5 6
-6.8870926 -10.276176 2.8559787 24 14
-6.7327132 -10.042038 -0.21103451 2 7
-4.9491091 -7.3761687 2.3801 26 15
-2.7370512 -4.0563192 -1.3111774 12 0
-7.38483 -10.936108 0.23033686 11 8
-3.2463679 -4.805697 -1.3389087 11 1
-7.7327886 -11.438473 0.72359699 17 9
-4.0241995 -5.9481912 -1.3959587 11 2
-6.5652165 -9.7004299 1.0247772 9 10
-4.6348624 -6.8430901 -1.3090436 1 3
-8.1261444 -11.988738 1.7783177 28 11
-6.1529946 -9.0742826 -1.3461689 21 4
-7.3827386 -10.879702 2.0824559 14 12
-7.8945189 -11.62516 -1.2294189 14 5
-4.4416003 -6.5380716 1.536394 28 13
-7.6021299 -11.181998 -0.70862895 16 6
-9.7013531 -14.259046 3.9816337 10 14
-8.0268192 -11.793389 -0.24901094 11 7
-4.9885192 -7.3238764 2.3744061 16 15
-2.771853 -4.0466743 -1.3142831 12 0
-7.6746864 -11.196018 0.23693386 16 8
-3.282042 -4.7861314 -1.3398085 11 1
-7.7943716 -11.357862 0.72192228 4 9
-4.0745187 -5.932899 -1.3990116 11 2
-5.2085228 -7.5756173 -1.4560922 5 3
-6.8340068 -9.9361134 1.4807127 8 11
-6.2015634 -9.0098476 -1.3430003 11 4
-8.2765293 -12.01545 2.3108501 24 12
-8.001729 -11.61217 -1.2337767 21 5
-4.4748769 -6.4891262 1.5321964 36 13
-7.6868162 -11.138515 -0.70925695 22 6
-8.1164417 -11.756671 3.2982323 23 14
-8.0759935 -11.689353 -0.2479987 2 7
-5.0876827 -7.3612652 2.3976998 23 15
-2.8037441 -4.034059 -1.3163538 12 0
-8.1252365 -11.681981 0.24838264 16 8
-3.3256745 -4.7796764 -1.3443075 10 1
-7.6044393 -10.921006 0.697429 3 9
-4.1215429 -5.9146914 -1.4013014 11 2
-7.3717036 -10.574956 1.1277953 7 10
-5.2712693 -7.5561881 -1.4592208 4 3
-6.4095736 -9.184494 1.3751738 16 11
-6.6287384 -9.4914761 -1.4214841 25 4
-6.2046552 -8.8776474 1.7154605 19 12
-8.1684923 -11.683166 -1.2471986 21 5
-4.5392013 -6.4874716 1.5390654 7 13
-7.8346272 -11.189006 -0.71585125 1 6
-8.1381378 -11.618155 3.2748375 16 14
-7.8649702 -11.219834 -0.23916778 9 7
-5.2130952 -7.4340196 2.4328992 6 15
-2.8222303 -4.0022511 -1.3122126 12 0
-8.2426138 -11.68032 0.2495345 11 8
-3.3615022 -4.7617054 -1.3456572 11 1
-8.1303501 -11.50844 0.73846042 16 9
-4.1719084 -5.900928 -1.4047359 13 2
-7.4722757 -10.5652 1.132153 7 10
-5.3339925 -7.5362573 -1.4623495 3 3
-6.4505897 -9.1071253 1.370299 32 11
-6.7941828 -9.5886707 -1.4429331 25 4
-8.0119934 -11.299012 2.1938372 6 12
-7.2253485 -10.185868 -1.0925844 19 5
-8.288043 -11.675353 2.7831402 6 13
-8.4831686 -11.941388 -0.76766384 15 6
-5.1848922 -7.2958541 2.0664005 22 14
-7.9330463 -11.154632 -0.23892345 20 7
-7.2565527 -10.195884 3.3532596 20 15
-2.8590972 -3.9950187 -1.3163538 11 0
-8.1589565 -11.396313 0.24464783 12 8
-3.4026079 -4.7492104 -1.3488065 13 1
-8.2282743 -11.480431 0.74023986 8 9
-4.2257071 -5.8915386 -1.4093152 13 2
-7.6829453 -10.703771 1.1527219 10 10
-5.3724928 -7.4821243 -1.458908 3 3
-6.5413904 -9.1033077 1.3763925 44 11
-6.8470521 -9.5216665 -1.4400083 22 4
-6.159976 -8.5630493 1.6707202 20 12
-7.2322602 -10.046245 -1.0829972 7 5
-5.9433517 -8.2497625 1.9763998 16 13
-8.6938715 -12.063225 -0.77928245 28 6
-5.9128189 -8.1983271 2.3336422 21 14
-7.9931707 -11.074656 -0.23839988 12 7
-2.893034 -3.9848444 -1.3194594 13 0
-8.0338001 -11.057579 0.2385744 13 8
-3.4337103 -4.7243633 -1.3483566 13 1
-7.7607632 -10.670023 0.69146276 27 9
-4.272512 -5.8698301 -1.4112234 14 2
-7.6817369 -10.549756 1.1417402 20 10
-5.4327388 -7.4556122 -1.4610981 3 3
-7.0251846 -9.6304007 -1.4636509 12 4
-6.2335844 -8.5389814 1.6744747 38 12
-7.3221989 -10.022861 -1.0859606 27 5
-6.1545949 -8.4215174 2.0275364 22 13
-8.5114164 -11.637898 -0.75562662 15 6
-5.3023663 -7.2447658 2.0726991 30 14
-8.0872688 -11.045808 -0.23895834 3 7
-6.8369699 -9.3312807 3.099617 11 15
-2.9230747 -3.9676607 -1.3204948 13 0
-7.9933228 -10.841879 0.23511884 16 8
-3.4804888 -4.7190957 -1.3537554 21 1
-8.3901377 -11.36764 0.74044919 14 9
-4.3227181 -5.8524928 -1.4142764 19 2
-8.8160658 -11.931643 1.2979233 10 10
-5.4952269 -7.431798 -1.4639139 3 3
-10.468778 -14.147744 2.1609874 8 11
-7.3402658 -9.9161825 -1.5148361 18 4
-6.7328038 -9.0889072 1.7914877 10 12
-7.5355611 -10.165165 -1.1070522 28 5
-6.20856 -8.372036 2.02601 42 13
-8.7828951 -11.834811 -0.77237409 20 6
-6.1045566 -8.2197914 2.3637857 32 14
-6.9273057 -9.3174295 3.1110051 30 15
-2.9553297 -3.9533465 -1.3225653 12 0
-8.1394901 -10.880284 0.23717821 30 8
-3.5133495 -4.6946826 -1.3537554 18 1
-8.025115 -10.715695 0.70161593 4 9
-4.3622937 -5.8206015 -1.4138948 24 2
-7.8880453 -10.52118 1.1504558 6 10
-5.5457911 -7.3916731 -1.4636011 6 3
-10.562525 -14.067965 2.1600125 6 11
-7.3520908 -9.7885094 -1.5031366 25 4
-5.7148414 -7.6031613 1.506464 29 12
-8.7564611 -11.645571 -1.2747399 35 5
-8.7643843 -11.639185 -0.76358169 20 6
-6.1967115 -8.2263031 2.3777328 15 14
-8.9316416 -11.84839 -0.25899372 21 7
-8.164917 -10.823414 3.6327841 14 15
-2.9758513 -3.9233835 -1.3194594 11 0
-8.1263323 -10.70993 0.23466507 34 8
-3.5566454 -4.6840091 -1.3578045 17 1
-8.6886272 -11.438554 0.75280046 13 9
-4.4029999 -5.792336 -1.4142764 21 2
-7.952858 -10.454756 1.1492356 1 10
-5.6139202 -7.3773327 -1.4682941 5 3
-5.737926 -7.5348315 1.1628774 33 11
-7.4623609 -9.7922039 -1.5116674 16 4
-5.7724509 -7.5719404 1.5080284 17 12
-8.6731968 -11.368726 -1.2510335 21 5
-8.8773499 -11.623702 -0.76651251 15 6
-6.0966063 -7.9769163 2.3178957 17 14
-8.9995632 -11.766685 -0.25857487 6 7
-8.0353146 -10.502158 3.5432329 48 15
-3.0119116 -3.9152865 -1.3236006 13 0
-8.315567 -10.801885 0.23794611 11 8
-3.5943902 -4.6674113 -1.3600541 18 1
-8.77071 -11.380781 0.7530098 11 9
-4.4589157 -5.7816672 -1.4192374 14 2
-8.03479 -10.414577 1.1508044 16 10
-5.6664915 -7.3395252 -1.4686069 1 3
-5.7576184 -7.452178 1.1562965 35 11
-7.6405239 -9.8856821 -1.5340914 17 4
