# .PCD v0.7 - Point Cloud Data file format
VERSION 0.7
FIELDS x y z intensity ring
SIZE 4 4 4 4 2
TYPE F F F F U
COUNT 1 1 1 1 1
WIDTH 106
HEIGHT 1
VIEWPOINT 0 0 0 1 0 0 0
POINTS 106
DATA ascii
2.8994138 2.7418389 -0.2091345 92 6
2.9116535 2.7142129 -0.20861115 89 6
2.9420323 2.7081831 -0.34984317 0 5
2.9305327 2.6938183 -0.20861115 101 6
2.9591568 2.6832006 -0.20934384 26 6
2.9765885 2.6641839 -0.34949452 69 5
2.9807949 2.665139 -0.20955318 72 6
2.9768791 2.6588349 -0.069670007 91 7
2.9891403 2.6380651 -0.34879729 103 5
3.003823 2.648227 -0.20986721 84 6
2.9938679 2.6366658 -0.069635101 114 7
3.0180054 2.6262879 -0.35001746 103 5
3.0207307 2.6258814 -0.20976254 93 6
3.0141675 2.616487 -0.069670007 112 7
3.046375 2.6165977 -0.49308339 68 4
3.042315 2.6103437 -0.35071471 101 5
3.0303433 2.5964012 -0.2091345 97 6
3.0414772 2.6031804 -0.069879435 112 7
3.0630524 2.5939848 -0.49283966 72 4
3.0700448 2.5962262 -0.35176057 103 5
3.0621274 2.5867822 -0.21007656 34 6
3.0611053 2.5831733 -0.069914341 26 7
3.0865121 2.5871394 0.070298299 7 8
3.0841346 2.5750821 -0.49332717 70 4
3.0880938 2.5747313 -0.35176057 106 5
3.0847147 2.5691772 -0.21039055 78 6
3.0744529 2.5579031 -0.069809623 54 7
3.1173635 2.5661044 -0.49576455 70 4
3.102915 2.5505793 -0.35141194 101 5
3.1041193 2.5488467 -0.21049525 84 6
3.0953267 2.5389147 -0.069879435 98 7
3.1130311 2.5362139 0.070088863 82 8
3.1246641 2.5384412 -0.63762695 83 3
3.1444516 2.5517819 -0.49722698 68 4
3.1175504 2.526346 -0.35106334 109 5
3.1264951 2.530884 -0.21080926 93 6
3.1207509 2.5235305 -0.070053965 105 7
3.1337786 2.5169249 0.070158668 73 8
3.1423097 2.5165651 -0.63762695 72 3
3.1590881 2.5272884 -0.49673948 60 4
3.1472113 2.5114853 -0.21101859 27 6
3.1461117 2.5079126 -0.070228487 94 7
3.1606815 2.5024316 0.070368104 36 8
3.1613526 2.4957902 -0.63793981 72 3
3.1704206 2.5002558 -0.49576455 70 4
3.1572158 2.4862697 -0.35158628 51 5
3.1678064 2.4919236 -0.21122794 12 6
3.1875334 2.4876869 0.070577532 9 8
3.1880519 2.4809396 -0.63981706 74 3
3.1940658 2.4829357 -0.49673948 79 4
3.1902349 2.4763844 -0.35332939 69 5
3.1855628 2.4674163 -0.070333198 24 7
3.2048218 2.4653745 0.070577532 13 8
3.2037895 2.4619117 0.2117513 67 9
3.2170439 2.4703114 -0.78842276 32 2
3.2084291 2.4610267 -0.64044279 70 3
3.2207768 2.4678206 -0.49820194 72 4
3.2074456 2.454052 -0.35332939 103 5
3.2133985 2.4559405 -0.21196064 80 6
3.2123945 2.4356916 0.070368104 72 8
3.2460179 2.4540532 -0.64451009 30 3
3.2442646 2.4500589 -0.49917686 19 4
3.2308617 2.4363997 -0.35402662 39 5
3.2336555 2.4358518 -0.21216999 79 6
3.2308869 2.4311159 -0.070577532 108 7
3.2389317 2.4203877 0.070577532 77 8
3.2535675 2.4242504 -0.6426329 100 3
3.2549202 2.4226091 -0.49820194 35 4
3.2589872 2.4221022 -0.35524681 9 5
3.2688196 2.4003096 -0.64232004 64 3
3.2765548 2.4033504 -0.49893317 60 4
3.288676 2.4087095 -0.35664126 49 5
3.2721872 2.3940015 -0.21248402 12 6
3.269361 2.3893068 -0.07068225 14 7
3.2998996 2.3878524 -0.64513582 77 3
3.2948623 2.3815799 -0.49917686 59 4
3.2860243 2.3717008 -0.35454956 57 5
3.2904396 2.3722684 -0.21258868 61 6
3.284338 2.365257 -0.070647344 14 7
3.3132732 2.362463 -0.64451009 19 3
3.3356621 2.3757937 -0.50283301 47 4
3.3106203 2.354476 -0.3554211 71 5
3.3150623 2.3550227 -0.21311203 78 6
3.3296854 2.3392746 -0.64451009 24 3
3.3749154 2.3684127 -0.50624532 8 4
3.3346949 2.3341124 -0.21332137 11 6
3.3399858 2.335211 -0.071136013 79 7
3.3686748 2.3317113 -0.64889026 7 3
3.3640161 2.3250148 -0.50210178 25 4
3.3628466 2.3216059 -0.35751286 11 5
3.3562455 2.3135908 -0.2136354 11 6
3.3887711 2.306469 -0.5033204 75 4
3.3892584 2.3042049 -0.35855874 29 5
3.3694098 2.287271 -0.21342604 11 6
3.396548 2.2772262 -0.50210178 62 4
3.3953307 2.273834 -0.35751286 61 5
3.3836348 2.262584 -0.21332137 44 6
3.4310799 2.2632394 -0.3596046 10 5
3.4339819 2.2625742 -0.21551949 67 6
3.4608996 2.2518325 -0.50697654 7 4
3.4401124 2.2348907 -0.35890734 9 5
3.4698515 2.2233305 -0.50600159 22 4
3.4589877 2.2129672 -0.35925597 10 5
3.4923875 2.2026815 -0.50697654 10 4
3.4794106 2.1919513 -0.35977891 22 5
3.5064814 2.1749566 -0.36099908 55 5
