# .PCD v0.7 - Point Cloud Data file format
VERSION 0.7
FIELDS x y z intensity ring
SIZE 4 4 4 4 2
TYPE F F F F U
COUNT 1 1 1 1 1
WIDTH 254
HEIGHT 1
VIEWPOINT 0 0 0 1 0 0 0
POINTS 254
DATA ascii
2.7461395 0.21082304 -0.14434259 96 6
2.7256279 0.19011752 -0.14319119 79 6
2.7440116 0.17359976 -0.24054985 63 5
2.716922 0.17045781 -0.14266783 93 6
2.7312317 0.15365663 -0.23932965 9 5
2.7180459 0.15148596 -0.14266783 105 6
2.7262683 0.13429123 -0.23880674 11 5
2.7170427 0.13241082 -0.14256316 89 6
2.7349195 0.11749782 -0.33611569 4 4
2.7052424 0.11432961 -0.2368893 9 5
2.715905 0.11335576 -0.14245848 46 6
2.7436082 0.098685734 -0.33709061 93 4
2.7079656 0.095512189 -0.2370636 9 5
2.7126381 0.094255 -0.14224915 12 6
2.7104981 0.078551754 -0.33294708 90 4
2.7025919 0.076434433 -0.23654069 9 5
2.6932652 0.074759439 -0.14120242 10 6
2.7065842 0.073710993 -0.047261119 38 7
2.7050266 0.05949733 -0.33221585 89 4
2.7070436 0.057649758 -0.2368893 14 5
2.7037058 0.056162477 -0.14172579 16 6
2.6950371 0.054570787 -0.047051687 101 7
2.70594 0.042036772 -0.4286305 71 3
2.7014062 0.040551648 -0.33172837 89 4
2.7033958 0.038692605 -0.23654069 75 5
2.6773567 0.035515834 -0.046737548 108 7
2.7131829 -0.01373277 -0.52739608 67 2
2.6904213 -0.015026304 -0.42612755 10 3
2.6996725 -0.016962763 -0.33148462 53 4
2.6916559 -0.018321803 -0.23549481 10 5
2.6762552 -0.019618327 -0.14026037 11 6
2.6735065 -0.021464745 -0.046667732 108 7
2.6794248 -0.029930707 0.04677245 63 8
2.6953528 -0.032461088 -0.52396154 95 2
2.6961703 -0.034353502 -0.42706612 12 3
2.6796389 -0.035546161 -0.32904723 82 4
2.6934547 -0.037139978 -0.23566914 11 5
2.6700552 -0.038681746 -0.13994636 10 6
2.6652939 -0.040008616 -0.046528116 85 7
2.679142 -0.049103335 0.04677245 53 8
2.6832743 -0.051521502 -0.52167183 91 2
2.68994 -0.053058472 -0.42612755 89 3
2.6852796 -0.054373108 -0.32977846 91 4
2.6891358 -0.056329362 -0.23532049 13 5
2.6717169 -0.057364032 -0.14005104 11 6
2.6707375 -0.067603521 0.04663283 11 8
2.7059214 -0.068966694 -0.62491405 1 1
2.6789238 -0.0701501 -0.52090853 84 2
2.6756811 -0.071467139 -0.42393744 64 3
2.6927719 -0.07333459 -0.33075345 89 4
2.652828 -0.074100196 -0.23218289 53 5
2.6692548 -0.075957768 -0.13994636 10 6
2.6584787 -0.077044249 -0.046423402 16 7
2.6622059 -0.085988753 0.04649321 16 8
2.6820016 -0.087096751 -0.61951524 72 1
2.6711688 -0.090011977 -0.42331171 9 3
2.6921942 -0.092131741 -0.33075345 91 4
2.6542373 -0.092688009 -0.2323572 77 5
2.6686594 -0.094590671 -0.13994636 8 6
2.6495519 -0.10410119 0.046283782 83 8
2.6638031 -0.10512675 -0.61546606 67 1
2.6874919 -0.10794082 -0.52281672 12 2
2.6566589 -0.10809574 -0.42112163 11 3
2.6835518 -0.11059743 -0.32977846 86 4
2.6594977 -0.11146597 -0.23288015 83 5
2.6471548 -0.11372574 -0.046248876 112 7
2.6487606 -0.12259585 0.046283782 89 8
2.6513245 -0.12317826 -0.61276668 73 1
2.6827505 -0.1265153 -0.52205342 12 2
2.6716247 -0.12739262 -0.4236246 11 3
2.6708176 -0.12875581 -0.32831606 26 4
2.6606445 -0.13012722 -0.23305444 103 5
2.6291773 -0.12996818 -0.1379576 16 6
2.6462963 -0.13220344 -0.046248876 112 7
2.6583698 -0.14071505 -0.71330529 15 0
2.649837 -0.14119095 0.046318687 93 8
2.6542919 -0.1418929 -0.61366647 79 1
2.6285851 -0.14143886 0.1379576 6 9
2.6719999 -0.14471033 -0.52014536 96 2
2.6686978 -0.14593297 -0.42331171 12 3
2.6639075 -0.14707005 -0.32758483 11 4
2.6576822 -0.1485875 -0.23288015 63 5
2.6361821 -0.14877012 -0.13837628 13 6
2.6333299 -0.14999239 -0.046039447 112 7
2.6515379 -0.15892366 -0.71175241 58 0
2.6408026 -0.15920536 0.046179067 96 8
2.6493461 -0.16018453 -0.61276668 79 1
2.6532884 -0.16228208 -0.51671082 91 2
2.6577559 -0.16395216 -0.42174736 11 3
2.6667492 -0.16637586 -0.32807231 10 4
2.6430523 -0.16767618 -0.13879497 13 6
2.6638253 -0.17879905 -0.7153759 9 0
2.6276557 -0.17683202 0.045969639 96 8
2.6481321 -0.17913857 -0.61276668 77 1
2.6342936 -0.1791262 0.13837628 30 9
2.6560082 -0.18106848 -0.517474 100 2
2.6466608 -0.18228763 -0.42018303 22 3
2.6536407 -0.18416445 -0.32660985 42 4
2.6394482 -0.18456818 -0.23148565 79 5
2.6417847 -0.18658502 -0.13879497 15 6
2.6309464 -0.18720399 -0.046039447 11 7
2.6548057 -0.19682021 -0.71330529 8 0
2.6263232 -0.19563042 0.045969639 90 8
2.6390436 -0.19704111 -0.61096704 79 1
2.6349704 -0.19766194 0.13848096 20 9
2.6605177 -0.20051232 -0.51861888 95 2
2.6335056 -0.19986328 -0.41830578 77 3
2.6404147 -0.20177819 -0.32514745 86 4
2.6221676 -0.20222518 -0.23009115 81 5
2.6264787 -0.20394109 -0.13806225 17 6
2.6295755 -0.20556675 -0.046039447 19 7
2.6687713 -0.21659954 -0.71744639 8 0
2.6209071 -0.21363577 0.045899831 90 8
2.6255639 -0.21539931 0.13806225 13 9
2.6473131 -0.21811393 -0.51632917 95 2
2.6438577 -0.21922301 -0.42018303 52 3
2.634985 -0.21987653 -0.32465994 94 4
2.6365752 -0.22186282 -0.23148565 86 5
2.6230011 -0.22210377 -0.1379576 59 6
2.6101439 -0.22239162 -0.045725305 10 7
2.6479502 -0.23352851 -0.71227002 8 0
2.6273191 -0.23263329 0.046039447 93 8
2.6340942 -0.23369652 -0.6105172 9 1
2.6180282 -0.23319222 0.13774826 18 9
2.6379044 -0.23589073 -0.51480269 95 2
2.6402955 -0.23749816 -0.41987014 9 3
2.641252 -0.23944318 -0.32563493 35 4
2.6329777 -0.24008311 -0.23131134 103 5
2.6233752 -0.2405926 -0.13806225 72 6
2.6084857 -0.24106355 -0.045725305 24 7
2.6269801 -0.25063586 -0.70709366 8 0
2.6176689 -0.25020853 0.045899831 93 8
2.636234 -0.25291175 -0.611417 9 1
2.6282208 -0.25306886 0.13837628 26 9
2.6322849 -0.25392386 -0.51403946 95 2
2.6404943 -0.25657651 -0.42018303 12 3
2.6454434 -0.25845572 -0.32636613 13 4
2.6193404 -0.25729012 -0.23026547 103 5
2.6255617 -0.25975204 -0.13827161 88 6
2.6232445 -0.26877248 -0.70657599 48 0
2.5979087 -0.26709303 0.045585688 102 8
2.6285887 -0.27071089 -0.61006725 27 1
2.6085098 -0.26956329 0.13743424 82 9
2.6362586 -0.27336091 -0.51518428 100 2
2.6189916 -0.27295658 -0.41705433 12 3
2.6455488 -0.27712473 -0.32660985 10 4
2.6174321 -0.27602699 -0.23026547 101 5
2.6117675 -0.2768124 -0.13764358 97 6
2.5869699 -0.27555403 -0.045411162 15 7
2.6251452 -0.28750017 -0.70761132 93 0
2.5959806 -0.28522319 0.045585688 113 8
2.6150124 -0.28777614 -0.60736781 81 1
2.6342859 -0.29175866 -0.51518428 100 2
2.6248753 -0.2921077 -0.41830578 12 3
2.6198759 -0.29294017 -0.32368499 11 4
2.5969045 -0.29496166 -0.04562059 14 7
2.6288307 -0.30649111 -0.70916426 72 0
2.5978982 -0.30380398 0.045655496 113 8
2.6090686 -0.30557185 -0.60646802 73 1
2.6282854 -0.30968273 -0.51442105 100 2
2.6070786 -0.30856809 -0.41580287 77 3
2.6157959 -0.31098872 -0.32344127 12 4
2.6133232 -0.31254515 -0.23026547 21 5
2.6016991 -0.31253675 -0.13732956 19 6
2.5908115 -0.31260505 -0.045550782 19 7
2.6208754 -0.32412487 -0.70761132 31 0
2.5957141 -0.32193315 0.045655496 110 8
2.6221631 -0.32753724 -0.51365787 100 2
2.6185808 -0.32848233 -0.41799295 86 3
2.6155305 -0.32949081 -0.32368499 11 4
2.6051478 -0.33003062 -0.22974254 76 5
2.6053975 -0.33144841 -0.13764358 30 6
2.5925329 -0.33119133 -0.04562059 20 7
2.6200051 -0.34399986 -0.61006725 11 1
2.6120272 -0.34480751 -0.51213133 100 2
2.6083908 -0.3457171 -0.41674146 92 3
2.6092312 -0.34721881 -0.32319754 42 4
2.5771079 -0.34477526 -0.22747649 86 5
2.5911431 -0.34803399 -0.13701554 75 6
2.5921397 -0.34954965 -0.045655496 21 7
2.6098185 -0.36121371 -0.60826766 10 1
2.5980883 -0.36282569 -0.41549 87 3
2.6244364 -0.36790633 -0.32539117 14 4
2.5746381 -0.36275828 -0.22747649 86 5
2.594583 -0.36695409 -0.13732956 100 6
2.587656 -0.36735651 -0.04562059 22 7
2.5956626 -0.37774092 -0.60556823 10 1
2.6205566 -0.38323206 -0.51480269 12 2
2.5954919 -0.38095477 -0.41549 76 3
2.6060927 -0.38390478 -0.32344127 9 4
2.589781 -0.38334939 -0.22904527 85 5
2.5781291 -0.38300419 -0.13659686 109 6
2.5751393 -0.38393819 -0.045446068 41 7
2.5871828 -0.39497036 -0.60421854 9 1
2.6100547 -0.40032697 -0.51327622 14 2
2.59354 -0.40057421 -0.32222256 10 4
2.585073 -0.40111449 -0.22887097 21 5
2.5694721 -0.40007159 -0.13628285 118 6
2.588202 -0.40437606 -0.045725305 48 7
2.5977602 -0.41562876 -0.60736781 11 1
2.5896778 -0.41619006 -0.50984168 48 2
2.5800962 -0.41603613 -0.41392565 74 3
2.584728 -0.41817167 -0.32149133 13 4
2.5919695 -0.42120031 -0.22974254 13 5
2.5744283 -0.41973355 -0.13670154 118 6
2.5928733 -0.43343297 -0.60691798 81 1
2.5828371 -0.43360907 -0.50907844 91 2
2.5868685 -0.4356786 -0.41549 93 3
2.5895753 -0.43752903 -0.32246631 12 4
2.5673583 -0.43561897 -0.22782511 12 5
2.5793111 -0.43903664 -0.13712022 121 6
2.5782654 -0.44951567 -0.60421854 80 1
2.5874822 -0.45298415 -0.51060492 100 2
2.5681992 -0.45099437 -0.41298702 92 3
2.5923228 -0.45662993 -0.32319754 20 4
2.5485592 -0.45075575 -0.22643061 12 5
2.546685 -0.45179954 -0.13555014 84 6
2.5712297 -0.46680808 -0.60331875 17 1
2.5958455 -0.47314927 -0.51289463 69 2
2.5611017 -0.46820211 -0.41236129 95 3
2.5656409 -0.47042036 -0.32027265 74 4
2.5492692 -0.46925831 -0.22677925 12 5
2.5655332 -0.48754561 -0.41361275 95 3
2.5564446 -0.48720548 -0.31954145 104 4
2.5694139 -0.49153635 -0.22887097 85 5
2.5639441 -0.5044201 -0.50793356 11 2
2.562067 -0.50544441 -0.41361275 89 3
2.5490863 -0.50427032 -0.31905395 86 4
2.5346515 -0.50325388 -0.226082 81 5
2.5642073 -0.52309221 -0.50869679 13 2
2.5604115 -0.52371436 -0.41392565 20 3
2.5668945 -0.52644092 -0.32173508 18 4
2.54864 -0.52455151 -0.22765081 20 5
2.5643344 -0.54179245 -0.50946003 11 2
2.5528276 -0.54075783 -0.41329992 16 3
2.5631566 -0.54434824 -0.32173508 10 4
2.5585718 -0.55926239 -0.50907844 12 2
2.5239058 -0.55306971 -0.40923262 71 3
2.5495996 -0.5600993 -0.32051641 13 4
2.5546052 -0.57711083 -0.50907844 24 2
2.5373223 -0.57460296 -0.41204843 99 3
2.5282049 -0.57393003 -0.31832278 74 4
2.5313947 -0.59047139 -0.50526226 84 2
2.5390196 -0.59365183 -0.41298702 95 3
2.5577509 -0.61547822 -0.5113681 12 2
2.5231848 -0.60902441 -0.41110981 87 3
2.5073702 -0.62376326 -0.40923262 95 3
2.5144355 -0.64419413 -0.41110981 31 3
5.8891044 4.2786851 -0.89378983 6 4
5.90767 4.2325964 -0.89232743 6 4
5.9273448 4.184381 -0.89086497 6 4
5.9310579 4.1237273 -0.88696516 6 4
5.9629784 4.0844641 -0.88745266 6 4
5.9880548 4.0405169 -0.88696516 6 4
