# .PCD v0.7 - Point Cloud Data file format
VERSION 0.7
FIELDS x y z intensity ring
SIZE 4 4 4 4 2
TYPE F F F F U
COUNT 1 1 1 1 1
WIDTH 1310
HEIGHT 1
VIEWPOINT 0 0 0 1 0 0 0
POINTS 1310
DATA ascii
4.6634741 1.6752771 -0.96320391 7 2
18.069323 6.4875503 1.6796654 35 10
5.4257588 1.9459089 -0.91295165 6 3
12.22001 4.377811 1.5938075 8 11
6.5658765 2.349632 -0.8562541 6 4
25.113602 8.9820852 4.2243567 15 12
8.2217035 2.9373231 -0.76383299 11 5
25.354012 9.048111 5.2327461 19 13
10.545905 3.7614527 -0.5867908 13 6
25.064798 8.9301071 6.1429634 37 14
15.40502 5.4824467 -0.28541663 21 7
24.060448 8.5580826 6.8426585 35 15
3.5710061 1.2589525 -1.0145707 10 0
18.168245 6.4016118 0.33623806 56 8
4.0403829 1.4220527 -0.98888487 7 1
18.127956 6.3731933 1.0070486 69 9
4.6769075 1.6433322 -0.9635855 8 2
18.094604 6.3508248 1.677748 37 10
5.4488649 1.9103009 -0.91451597 6 3
6.5671315 2.29849 -0.85430413 6 4
24.198261 8.4599028 4.0601006 21 12
8.2495327 2.8824818 -0.76453012 10 5
25.646402 8.9511194 5.2800665 11 13
10.598954 3.6950963 -0.58825624 13 6
25.161491 8.7670994 6.1515112 26 14
15.478799 5.3872619 -0.28607982 30 7
24.201359 8.4136028 6.8654342 26 15
3.5742292 1.2321028 -1.0130178 9 0
18.190899 6.2636261 0.33581921 58 8
4.0502124 1.3938109 -0.98888487 9 1
18.147455 6.2380414 1.0056878 73 9
4.6904039 1.6104604 -0.96396708 7 2
18.102695 6.2120595 1.6744362 37 10
5.4527245 1.8690143 -0.91295165 6 3
18.065125 6.1850739 2.3445227 2 11
6.5792603 2.2513046 -0.85381669 7 4
24.378237 8.3322773 4.0804372 14 12
8.269948 2.8233757 -0.76453012 10 5
27.111118 9.2505035 5.5681882 35 13
10.654739 3.6313205 -0.58993095 13 6
25.53904 8.6942139 6.2284451 14 14
15.453559 5.2578125 -0.28492799 17 7
3.5754216 1.204651 -1.0109472 9 0
18.203857 6.1262803 0.33526072 65 8
4.0635386 1.3667415 -0.9897846 9 1
18.162159 6.1016631 1.0041177 63 9
4.6885037 1.5733041 -0.96129572 8 2
18.107841 6.072866 1.6709498 36 10
5.4768782 1.834666 -0.91482884 6 3
12.528105 4.1918435 1.622081 1 11
6.6023474 2.2078362 -0.85479164 6 4
25.329531 8.4603958 4.2296758 19 12
8.285676 2.7643149 -0.76418155 10 5
27.322172 9.1100655 5.5983362 43 13
10.672251 3.5543287 -0.58951229 13 6
25.547344 8.4984703 6.2158475 1 14
15.470916 5.1434903 -0.28457895 26 7
24.624487 8.1771603 6.9523973 21 15
3.5837438 1.1796621 -1.0109472 9 0
18.21199 5.9878025 0.33463246 65 8
4.0692782 1.3371247 -0.98888487 9 1
18.17585 5.9653764 1.0025476 69 9
4.6937776 1.5386968 -0.9601509 7 2
18.115715 5.9351354 1.6678123 43 10
5.4726577 1.7908537 -0.91201305 6 3
6.6176014 2.1616862 -0.85479164 7 4
28.27438 9.2251196 4.7105551 2 12
8.3104553 2.7082543 -0.76470447 10 5
27.553112 8.9738169 5.6326818 21 13
10.67971 3.4741752 -0.58857024 13 6
27.0109 8.776372 6.5568733 26 14
15.449386 5.0168362 -0.28353179 37 7
24.592768 7.9764409 6.9275508 26 15
3.591892 1.1546141 -1.0109472 9 0
18.228598 5.8525658 0.33417869 60 8
4.0599585 1.3027292 -0.98438585 9 1
18.182819 5.8273683 1.0006636 69 9
4.7137537 1.5088856 -0.96205902 8 2
18.151014 5.8066978 1.6672894 16 10
5.4812622 1.7514038 -0.91138726 6 3
6.6249657 2.1130242 -0.85381669 6 4
46.295971 14.74824 7.6956382 6 12
8.3272629 2.6495624 -0.76453012 10 5
28.488815 9.0590897 5.8108978 15 13
10.665635 3.3874352 -0.58647674 13 6
27.025074 8.5728559 6.5456257 11 14
15.464972 4.9028063 -0.28318274 38 7
26.450907 8.3754797 7.4343185 30 15
3.6072383 1.1318233 -1.0130178 9 0
4.0708137 1.274936 -0.98483574 11 1
4.7260466 1.476526 -0.96244061 7 2
18.78829 5.8662968 1.7220231 3 10
5.5084429 1.7177994 -0.9138903 6 3
18.994579 5.9161572 2.4427493 0 11
6.6130204 2.0584619 -0.85040432 7 4
27.540266 8.5620279 4.5678868 20 12
8.3588772 2.5954983 -0.76575035 10 5
25.916922 8.0424671 5.274724 34 13
10.687116 3.3123012 -0.58637214 13 6
26.674711 8.2572117 6.4466472 15 14
15.473991 4.7870383 -0.282729 32 7
25.851641 7.9875989 7.2500391 16 15
3.6076624 1.1043522 -1.0109472 9 0
19.161428 5.8582377 0.34974623 8 8
4.0963879 1.2516122 -0.98888487 8 1
19.253851 5.875473 1.0549883 100 9
4.7099476 1.435483 -0.95709801 7 2
19.202351 5.8487687 1.7561883 55 10
5.5127411 1.6770018 -0.91263872 6 3
19.229156 5.8422575 2.4676106 1 11
6.6272297 2.0122442 -0.85040432 7 4
27.975555 8.4836178 4.6301479 18 12
8.3786983 2.5376606 -0.76592463 10 5
25.94989 7.8544989 5.2701445 35 13
10.700419 3.234726 -0.58584875 13 6
26.129129 7.8888569 6.3013287 12 14
15.482144 4.671391 -0.28227523 36 7
25.647818 7.7288904 7.1775703 26 15
3.6041782 1.0758221 -1.0078415 9 0
19.355169 5.7700262 0.35253862 17 8
4.1050267 1.2229816 -0.98888487 8 1
4.721736 1.4031278 -0.9574796 8 2
5.5186324 1.6367923 -0.91170013 6 3
26.336594 7.8012581 3.3726125 9 11
6.6373081 1.9648045 -0.84991688 7 4
27.526419 8.1380253 4.546299 8 12
8.3885679 2.4768479 -0.76522744 10 5
26.226282 7.7387195 5.3151755 32 13
10.722741 3.1599443 -0.58584875 13 6
26.974352 7.9389758 6.4916377 15 14
15.460661 4.5473914 -0.28129786 48 7
25.382347 7.4559851 7.0885363 13 15
3.6153109 1.0517133 -1.0088767 9 0
20.1919 5.8662982 0.36702409 3 8
4.1097217 1.1932065 -0.98798501 8 1
4.7333031 1.3706735 -0.95786124 7 2
20.686913 5.98663 1.8841329 3 10
5.5185394 1.5949317 -0.909823 5 3
26.68413 7.7019796 3.4101484 19 11
6.6508646 1.9184165 -0.84991688 7 4
28.396885 8.1802368 4.6805201 24 12
8.4056549 2.4182241 -0.76522744 10 5
10.738781 3.0833547 -0.58553475 13 6
26.107473 7.4862022 6.2702856 3 14
15.52471 4.4487095 -0.28189126 36 7
25.522926 7.3041263 7.1133828 48 15
3.6225648 1.0264498 -1.0088767 9 0
21.055895 5.9582267 0.38196337 3 8
4.0991988 1.1591854 -0.983486 9 1
4.7616525 1.3429246 -0.96167743 7 2
21.616087 6.0923042 1.964839 3 10
5.5447512 1.5606476 -0.91232592 5 3
26.131453 7.3452201 3.3328831 22 11
6.6640954 1.8719378 -0.84991688 7 4
26.655949 7.4775925 4.3848586 16 12
8.4184952 2.3584077 -0.76487875 10 5
25.263609 7.0727439 5.0995617 9 13
10.746581 3.0045443 -0.58480203 14 6
26.793512 7.4808855 6.4223528 19 14
15.472566 4.3171086 -0.28039035 33 7
25.623545 7.1397653 7.1273594 31 15
3.6333668 1.0021617 -1.009912 9 0
22.043579 6.0718088 0.39910164 4 8
4.1109495 1.1315737 -0.98438585 8 1
4.7481928 1.3034127 -0.95709801 7 2
22.453558 6.1594477 2.037004 3 10
5.5459862 1.5192907 -0.91076159 7 3
26.180176 7.1620979 3.3326392 14 11
6.665513 1.8222274 -0.84845448 7 4
26.633181 7.2710395 4.3726568 15 12
8.4309101 2.2985301 -0.76453012 11 5
27.295607 7.436533 5.4991155 1 13
10.759586 2.9273484 -0.58438331 13 6
26.382465 7.1679578 6.3116765 3 14
15.517768 4.2131767 -0.2806696 36 7
3.6309457 0.97426844 -1.0073237 11 0
22.962358 6.15274 0.4149484 4 8
4.1112194 1.1008301 -0.98258615 9 1
23.244381 6.2152658 1.2609826 2 9
4.7457952 1.2671958 -0.95480824 7 2
24.018717 6.4088411 2.1748843 2 10
5.5640917 1.4825723 -0.91201305 7 3
26.812719 7.1343098 3.4067359 14 11
6.6857448 1.7776923 -0.84942937 7 4
29.289383 7.7768798 4.7997227 20 12
8.4390488 2.2375727 -0.76383299 10 5
29.043468 7.6953096 5.840282 22 13
10.77783 2.8516502 -0.58427864 13 6
28.683348 7.5784812 6.8493099 2 14
15.550671 4.1057611 -0.2807394 38 7
26.340912 6.9448304 7.2992148 20 15
3.6245742 0.94548082 -1.0037004 9 0
27.846428 7.2534566 0.50228024 10 8
4.126349 1.0740632 -0.98438585 9 1
26.958027 7.0069757 1.4597547 30 9
4.7640276 1.2364991 -0.95671636 8 2
27.088812 7.0258303 2.448379 16 10
5.566658 1.4417105 -0.91076159 7 3
26.277628 6.7958512 3.3326392 24 11
6.7114463 1.7344506 -0.85113555 9 4
27.152906 7.0070486 4.4414878 3 12
8.4390268 2.1746287 -0.76243842 10 5
26.109646 6.7232471 5.2407603 13 13
10.807146 2.7788291 -0.58480203 13 6
28.208941 7.2428226 6.7237868 16 14
15.532464 3.9851763 -0.27990168 33 7
25.720661 6.5895896 7.114418 33 15
3.6385767 0.9220534 -1.0057708 9 0
27.508669 6.9607673 0.49529928 20 8
4.124299 1.042843 -0.98213631 10 1
26.868795 6.7838883 1.452323 17 9
4.7687378 1.2022476 -0.95595312 8 2
28.143785 7.0901275 2.5391953 2 10
5.5612621 1.3989549 -0.90825862 6 3
6.7371635 1.6897606 -0.85284173 7 4
27.226067 6.8235703 4.4455552 15 12
8.4482059 2.1142094 -0.7619155 11 5
26.109468 6.5243397 5.2312193 43 13
10.830158 2.7042813 -0.58501136 13 6
27.0222 6.7373872 6.4295511 15 14
15.710001 3.9111252 -0.28258938 30 7
25.78104 6.4135966 7.1185594 22 15
3.6394534 0.89460927 -1.0042179 10 0
27.224516 6.686985 0.48933059 30 8
4.1202998 1.0105183 -0.97943687 10 1
26.850695 6.5752935 1.4487641 32 9
4.7789207 1.1693952 -0.95633471 10 2
45.94194 11.224933 4.1376319 17 10
5.5768867 1.3605307 -0.90919721 6 3
26.923462 6.5632381 3.4025924 15 11
6.7295098 1.6379873 -0.85040432 7 4
27.076492 6.5805206 4.4133296 18 12
8.4646969 2.0556443 -0.76208979 10 5
25.070656 6.079134 5.0144606 10 13
10.858938 2.6290631 -0.58553475 13 6
25.024839 6.0541539 5.9441066 29 14
15.565868 3.7600343 -0.27951774 28 7
27.078899 6.5310636 7.4638238 22 15
3.6550062 0.87141949 -1.0068061 9 0
27.191912 6.4730134 0.48789948 20 8
4.136734 0.98398346 -0.98168641 12 1
26.792955 6.3632207 1.4432166 30 9
4.7776151 1.1329032 -0.95442665 8 2
47.046707 11.147388 4.2300167 9 10
5.5747151 1.318835 -0.90732002 5 3
28.01298 6.6168299 3.5342114 16 11
6.7236691 1.5856923 -0.84821075 9 4
25.300962 5.9622512 4.1170425 7 12
8.4869461 1.9968491 -0.7627871 10 5
25.067644 5.8888011 5.0053015 40 13
10.892583 2.5568404 -0.58637214 13 6
25.061831 5.8735914 5.9427571 17 14
15.586535 3.6471844 -0.27941301 28 7
25.112917 5.8716955 6.9104686 19 15
3.6555014 0.84393889 -1.0052532 10 0
27.363091 6.3122501 0.49016827 7 8
4.1455679 0.95479375 -0.98213631 11 1
27.059698 6.2223563 1.4551491 15 9
4.7777543 1.0977631 -0.95290023 10 2
45.210506 10.371202 4.058146 8 10
5.5897865 1.2802324 -0.90825862 7 3
28.615791 6.5486374 3.604408 18 11
6.7384458 1.539598 -0.84869814 8 4
29.137012 6.6465154 4.7333946 23 12
8.4929104 1.9357792 -0.76208979 10 5
25.286177 5.7541656 5.0407925 25 13
10.898914 2.4761746 -0.58574408 13 6
25.098425 5.6976209 5.9418573 17 14
15.596017 3.534745 -0.2791338 32 7
24.958334 5.6475 6.8566341 15 15
3.6518774 0.81629103 -1.002665 10 0
25.5476 5.7012138 0.45690399 6 8
4.1635451 0.92837369 -0.98483574 11 1
26.897776 5.9877372 1.4441586 42 9
4.7854872 1.0635461 -0.95290023 8 2
27.237936 6.0484943 2.4410579 4 10
5.5966592 1.2407496 -0.90794575 9 3
28.272343 6.2574754 3.5554166 18 11
6.7393389 1.4903741 -0.84747952 7 4
29.043821 6.4122767 4.7108684 19 12
8.4964886 1.8742944 -0.76121825 11 5
25.281635 5.5677834 5.0320153 30 13
10.927639 2.4025989 -0.58637214 13 6
25.128073 5.5201712 5.9396076 11 14
15.579297 3.4167745 -0.27840078 22 7
25.027348 5.479732 6.8649168 15 15
3.6461575 0.78832847 -0.99955922 11 0
25.724594 5.5571508 0.45938224 14 8
4.1623044 0.89764273 -0.98303616 11 1
27.078487 5.8347878 1.4516948 22 9
4.80797 1.0342529 -0.95595312 8 2
52.157143 11.200564 4.6671901 11 10
5.5991802 1.2013849 -0.90700716 6 3
44.89484 9.6164227 5.6374326 10 11
6.7418141 1.4416279 -0.84650451 7 4
25.62698 5.4752383 4.1505198 10 12
8.4898815 1.8107762 -0.75947517 11 5
25.688566 5.4696603 5.1052856 12 13
10.928112 2.3248363 -0.58553475 13 6
25.375681 5.3891535 5.9890966 27 14
15.547995 3.2963223 -0.27742347 22 7
25.60269 5.423357 7.0124435 19 15
3.67224 0.76783901 -1.0052532 10 0
25.70208 5.3647704 0.4583002 24 8
4.1606874 0.86769652 -0.98123646 10 1
25.994242 5.4115524 1.3915086 26 9
4.8131514 1.0002624 -0.95557153 7 2
25.982456 5.394907 2.3216546 20 10
5.6151681 1.1638697 -0.90825862 7 3
25.951303 5.3695312 3.2539117 21 11
6.7478256 1.3937262 -0.84601706 7 4
25.505943 5.2634578 4.1248646 14 12
8.5023165 1.7514656 -0.75947517 11 5
63.732647 13.105619 12.647584 11 13
10.93625 2.2468843 -0.58511603 13 6
25.867031 5.3050351 6.0961733 11 14
15.490308 3.1712527 -0.27599236 29 7
25.492304 5.2142754 6.9720678 33 15
3.6738529 0.74077773 -1.0042179 10 0
26.029034 5.2436528 0.46346611 26 8
4.16679 0.83790112 -0.98123646 12 1
28.313602 5.6833239 1.5134513 23 9
4.8180923 0.96624738 -0.95518982 8 2
29.279049 5.8611703 2.6124063 23 10
5.6194787 1.1228845 -0.90763283 7 3
6.7418165 1.3434799 -0.8440671 7 4
26.114492 5.1944928 4.2171612 12 12
8.5143366 1.6920655 -0.75947517 12 5
25.564083 5.0710974 5.065979 12 13
10.950089 2.1681809 -0.58501136 13 6
15.439481 3.048707 -0.27470088 23 7
27.581667 5.4363084 7.53267 10 15
3.6770384 0.71474451 -1.0037004 10 0
25.08827 4.8675833 0.44608352 2 8
4.1782775 0.80990559 -0.98258615 10 1
26.82309 5.189599 1.4318073 2 9
4.8191004 0.93062836 -0.954045 7 2
29.24296 5.6419015 2.605608 21 10
5.6291213 1.0839967 -0.90794575 9 3
46.156174 8.8715839 5.7710018 11 11
6.7510324 1.2963772 -0.8440671 7 4
25.991032 4.9815741 4.1915054 5 12
8.5066576 1.6273513 -0.75773197 11 5
25.67021 4.9061508 5.0800986 18 13
10.970844 2.0928049 -0.58532542 13 6
25.659946 4.8856125 6.0304875 32 14
14.794433 2.8141677 -0.26286814 15 7
27.61705 5.243259 7.5321522 18 15
3.6762419 0.68799043 -1.0021474 15 0
27.321262 5.1031685 0.48514202 5 8
4.1876616 0.7814309 -0.983486 9 1
27.139446 5.0545049 1.4467753 37 9
4.8196893 0.89588803 -0.95290023 8 2
45.440601 8.4383345 4.0435033 8 10
5.6346087 1.0443143 -0.90763283 7 3
47.440868 8.7755299 5.9238253 6 11
6.7657738 1.2502998 -0.84479833 8 4
26.116478 4.8168402 4.2062101 14 12
8.5138931 1.5671986 -0.75738341 11 5
29.333883 5.3943696 5.7975407 3 13
10.981259 2.0154366 -0.58511603 13 6
26.019297 4.7660432 6.1069713 13 14
14.784215 2.7054083 -0.26234457 22 7
25.24135 4.6098862 6.8752694 38 15
3.679054 0.6619665 -1.0016297 9 0
25.862345 4.644053 0.45864925 15 8
4.1891785 0.75148827 -0.98258615 8 1
27.172106 4.8645606 1.4466707 57 9
4.8335567 0.86359966 -0.95442665 10 2
29.097246 5.1934929 2.5859108 23 10
5.6339836 1.0035661 -0.90638137 7 3
45.523079 8.0925102 5.6771622 10 11
6.7723827 1.2026882 -0.8445546 7 4
25.735172 4.5609708 4.1395693 36 12
8.516778 1.5063342 -0.75668615 12 5
27.269323 4.8181396 5.3827219 19 13
10.989161 1.9376832 -0.58480203 13 6
25.971321 4.5701056 6.0880752 11 14
14.718053 2.5872419 -0.26084366 32 7
25.191097 4.4192147 6.8530107 36 15
3.6912003 0.63758284 -1.0037004 9 0
26.057699 4.49158 0.46154633 4 8
4.1866407 0.72090328 -0.98078656 9 1
27.27627 4.6869216 1.4504389 37 9
4.8297925 0.82817495 -0.95251852 7 2
29.209381 5.0033479 2.5927091 15 10
5.6408525 0.9642092 -0.90638137 7 3
46.22813 7.8852959 5.7580829 11 11
6.7825708 1.1557124 -0.84479833 9 4
26.37788 4.4851565 4.2378101 12 12
8.5133371 1.4445102 -0.75546592 13 5
27.273266 4.6227126 5.3769979 11 13
10.986667 1.8582579 -0.58396471 13 6
27.128632 4.5787311 6.3517179 3 14
14.700262 2.4784503 -0.26021537 30 7
25.388981 4.2714453 6.8985629 10 15
3.6822202 0.60958737 -1.0000768 10 0
27.286009 4.5073833 0.48273358 5 8
4.1800351 0.68975174 -0.97808713 9 1
27.560577 4.5379171 1.4638368 20 9
4.8490176 0.79666674 -0.95518982 8 2
28.014795 4.5976415 2.4837642 25 10
5.6591425 0.92672318 -0.90825862 7 3
47.363483 7.7390952 5.8926268 12 11
6.78479 1.1061895 -0.8440671 7 4
26.615215 4.3345661 4.2709742 20 12
8.5428801 1.3882365 -0.75720912 12 5
26.567284 4.3077364 5.2316012 13 13
10.983599 1.7789565 -0.58312726 13 6
27.985239 4.5225868 6.5447259 18 14
14.697878 2.3700109 -0.25986633 30 7
25.460146 4.1008391 6.9099512 7 15
3.6960285 0.58473361 -1.002665 9 0
27.158792 4.2918234 0.47994119 11 8
4.192564 0.66103858 -0.97988683 9 1
27.239178 4.2850251 1.4451005 27 9
4.8486433 0.76187825 -0.954045 10 2
47.773754 7.4897122 4.2307143 9 10
5.6734352 0.88742459 -0.90951008 7 3
27.556246 4.3053389 3.4245288 5 11
6.7982311 1.0597162 -0.84479833 8 4
26.721674 4.1558394 4.2831759 18 12
8.544488 1.3273387 -0.75651181 12 5
26.509407 4.108613 5.2144284 14 13
10.9921 1.6997038 -0.58291793 13 6
28.04887 4.3321729 6.5523744 11 14
14.696279 2.2646017 -0.25955218 31 7
26.575294 4.0855856 7.2044868 11 15
3.6923802 0.55776024 -1.0005945 9 0
27.078075 4.0806818 0.47798648 19 8
4.220201 0.63523149 -0.98528558 9 1
27.29608 4.0989208 1.446566 62 9
4.848146 0.72629243 -0.95290023 8 2
28.496696 4.2639561 2.5208926 17 10
5.669724 0.84633678 -0.90794575 6 3
27.439091 4.0861115 3.4062483 8 11
6.8076048 1.0113306 -0.84504211 7 4
27.263935 4.0454388 4.3654609 1 12
8.5281448 1.262369 -0.75424576 12 5
26.732349 3.9474909 5.2525902 11 13
10.995794 1.6217571 -0.58249921 13 6
26.160807 3.8490989 6.1047215 16 14
14.702216 2.1579275 -0.25937766 27 7
29.055527 4.2594643 7.8686171 12 15
3.6962769 0.53132391 -1.0005945 9 0
17.402887 2.4984987 0.30688313 18 8
4.2034187 0.60197729 -0.98033673 10 1
27.283192 3.8975451 1.4443679 55 9
4.8589292 0.69325787 -0.954045 7 2
28.53437 4.061039 2.52159 7 10
5.6580329 0.80324465 -0.90512991 6 3
26.896973 3.8136363 3.3355641 16 11
6.8125324 0.96350509 -0.84479833 8 4
29.244282 4.1256304 4.6777039 14 12
8.5328035 1.2022487 -0.75389719 12 5
28.225142 3.9667847 5.5403304 24 13
10.997229 1.5416454 -0.58197594 14 6
26.29319 3.6812294 6.1294661 19 14
14.740687 2.058553 -0.25979653 28 7
27.833912 3.8771317 7.5300817 12 15
3.7093778 0.5074628 -1.0031826 10 0
17.479343 2.3850532 0.30793026 6 8
4.193903 0.57151169 -0.9771874 9 1
27.32888 3.7144465 1.4454147 40 9
4.8772688 0.6611653 -0.95671636 8 2
27.285902 3.694056 2.4089847 23 10
5.6751156 0.76629621 -0.90700716 5 3
27.210171 3.6644619 3.37115 24 11
6.8169665 0.91684335 -0.8445546 7 4
27.167004 3.6441681 4.3413696 24 12
8.5567884 1.1447588 -0.75529164 12 5
27.18121 3.631587 5.3304405 32 13
10.997568 1.4654347 -0.58145255 13 6
27.117996 3.6038616 6.3157258 15 14
14.809863 1.9655349 -0.26077387 32 7
25.563395 3.3836422 6.9094334 15 15
3.7051671 0.48056018 -1.0011121 10 0
27.387648 3.5424447 0.48203546 17 8
4.1997228 0.54246843 -0.97763729 11 1
27.411592 3.5309508 1.4484501 27 9
4.8798184 0.62685174 -0.95633471 10 2
27.447386 3.5209537 2.4210122 16 10
5.6901236 0.72791374 -0.90857148 6 3
26.823542 3.4219081 3.3202088 9 11
6.819262 0.8687312 -0.8440671 7 4
27.593508 3.5054524 4.405508 15 12
8.5645723 1.0849932 -0.75529164 12 5
26.267096 3.3229725 5.1465006 31 13
11.011494 1.3891214 -0.58166188 13 6
27.157961 3.4164131 6.319325 7 14
15.049414 1.8905085 -0.26475301 20 7
26.638756 3.336931 7.1936169 5 15
3.718019 0.4558588 -1.0037004 9 0
27.558594 3.369127 0.48461843 15 8
4.2034073 0.51313758 -0.97763729 12 1
27.746845 3.3773978 1.4648836 12 9
4.862637 0.59016693 -0.95213693 8 2
28.238728 3.4222674 2.4886451 12 10
5.6833005 0.6867497 -0.90669429 6 3
27.112843 3.2666042 3.3531134 13 11
6.825161 0.82110262 -0.8440671 7 4
29.670807 3.5590334 4.7330818 21 12
8.5580893 1.0235226 -0.75407147 12 5
26.521631 3.1672029 5.1919131 14 13
11.020923 1.3122181 -0.58166188 13 6
27.194695 3.2283392 6.322474 1 14
15.389899 1.8242435 -0.27051231 36 7
27.359735 3.2334061 7.3820372 16 15
3.6923246 0.42656362 -0.99593574 10 0
27.67481 3.187403 0.48625895 5 8
4.2223749 0.48555881 -0.98123646 10 1
27.398689 3.1410668 1.4453099 62 9
4.8627372 0.55575901 -0.9513737 10 2
27.929367 3.1870911 2.4593606 7 10
5.6997323 0.64839566 -0.90857148 6 3
27.178377 3.0821753 3.3584754 13 11
6.840589 0.77455068 -0.84528583 9 4
26.281427 2.9665198 4.1890025 15 12
8.5531464 0.96241426 -0.75302559 12 5
26.467009 2.9734344 5.1770301 25 13
11.017907 1.233912 -0.58103383 13 6
29.513508 3.2948174 6.8560581 20 14
15.422133 1.7189726 -0.27086136 25 7
25.901297 2.8778296 6.9829383 12 15
3.7086568 0.40223411 -0.99955922 9 0
27.624817 2.9863813 0.48500237 27 8
4.2217875 0.45565102 -0.98033673 11 1
27.556974 2.9644516 1.4525323 12 9
4.8821158 0.52347165 -0.95442665 8 2
51.535595 5.5166674 4.5345392 31 10
5.688406 0.60691166 -0.9060685 6 3
28.41717 3.0218742 3.5088625 12 11
6.8478041 0.72698504 -0.84552956 7 4
29.330618 3.1034808 4.6714463 14 12
8.5457869 0.90121597 -0.75180542 11 5
26.506645 2.7906427 5.1808457 15 13
11.03817 1.1582129 -0.58166188 13 6
26.764206 2.7988696 6.2126985 36 14
15.423815 1.6102258 -0.27068684 15 7
25.841974 2.6887498 6.9617147 26 15
3.7132962 0.37652788 -1.0000768 11 0
28.422911 2.8720713 0.49865013 17 8
4.2054763 0.42421049 -0.97583771 11 1
27.49353 2.7636187 1.4481361 10 9
4.8895583 0.48976663 -0.95518982 8 2
51.497513 5.1492386 4.527915 21 10
5.7003675 0.56796771 -0.90732002 6 3
28.504734 2.8300796 3.5171494 19 11
6.8527122 0.67916065 -0.84552956 7 4
26.465755 2.6136477 4.2121549 15 12
8.5439386 0.84075266 -0.75110817 11 5
26.599728 2.6128166 5.1953473 11 13
11.038036 1.0803455 -0.58124322 14 6
25.588339 2.4954364 5.9355588 9 14
15.43667 1.5027016 -0.27072173 19 7
25.771666 2.4996941 6.9379039 5 15
3.7273743 0.35168558 -1.0031826 10 0
27.807169 2.6138592 0.48751554 30 8
4.2277374 0.3966628 -0.98033673 11 1
27.653345 2.5847945 1.4555678 7 9
4.8733096 0.45379883 -0.9513737 8 2
51.452858 4.7821927 4.5209427 21 10
5.7041936 0.52815783 -0.90732002 6 3
28.51589 2.6302943 3.5161746 15 11
6.8573966 0.63010639 -0.84552956 7 4
29.420267 2.6981797 4.6792684 24 12
8.5555534 0.78162807 -0.75163114 10 5
28.733246 2.6149323 5.6082582 21 13
11.055255 1.0041625 -0.58176655 14 6
26.839489 2.4284189 6.2216964 14 14
15.403212 1.3882519 -0.26995382 12 7
26.127127 2.3501742 7.0290079 5 15
3.7220974 0.32433328 -1.0011121 10 0
27.683292 2.4073646 0.4850373 30 8
4.2188187 0.36539075 -0.97763729 11 1
27.808434 2.3987019 1.4627901 20 9
4.872447 0.41943127 -0.95061046 8 2
51.40834 4.4072452 4.5141444 21 10
5.7078271 0.48732603 -0.90732002 5 3
26.013681 2.2164376 3.2056515 1 11
6.861629 0.5822174 -0.84552956 7 4
25.809162 2.1808774 4.1023378 15 12
8.5409479 0.72020584 -0.74988794 10 5
26.317074 2.2099197 5.1335254 21 13
11.052207 0.92419511 -0.58124322 14 6
25.976068 2.1675887 6.0178905 4 14
15.384628 1.2783651 -0.26946515 16 7
3.7184939 0.29787746 -0.99955922 9 0
27.937021 2.2281246 0.48919094 27 8
4.2426357 0.33762944 -0.98258615 9 1
27.695086 2.1942372 1.4559865 12 9
4.8714099 0.38424534 -0.94984722 10 2
5.7012434 0.44669724 -0.9057557 6 3
26.357403 2.0558689 3.2461121 4 11
6.8774939 0.53402388 -0.84699202 7 4
25.754827 1.9953021 4.0913873 12 12
8.5319777 0.65799743 -0.74866778 11 5
11.082285 0.84884393 -0.58249921 13 6
25.545942 1.9477265 5.9148631 9 14
15.373444 1.1667293 -0.2691161 16 7
26.521816 2.0081649 7.1268415 20 15
3.7263103 0.27168235 -1.0011121 10 0
26.641556 1.9377408 0.4662585 30 8
4.2371683 0.30669847 -0.98078656 9 1
26.672197 1.9212393 1.4014524 28 9
4.887681 0.35121208 -0.95251852 10 2
26.630026 1.9041874 2.3357739 24 10
5.702323 0.4057484 -0.90544277 6 3
26.614668 1.8890839 3.2760921 27 11
6.8810544 0.48600015 -0.84699202 7 4
26.596064 1.869117 4.2227926 22 12
8.5343761 0.59828174 -0.74849349 11 5
25.368397 1.769492 4.9430981 15 13
11.060182 0.76758337 -0.58103383 14 6
26.344332 1.8237056 6.0966234 29 14
15.59667 1.0742135 -0.27288583 22 7
26.622238 1.8242708 7.150135 11 15
3.7338991 0.24604224 -1.002665 9 0
26.648754 1.7466561 0.46615377 28 8
4.2314281 0.27660152 -0.97898698 9 1
26.706882 1.7364235 1.4026037 14 9
4.8920283 0.31635439 -0.95290023 8 2
26.771908 1.7265759 2.3471041 9 10
5.7148733 0.36656106 -0.90700716 6 3
6.8803172 0.43769747 -0.84650451 7 4
26.046604 1.6478373 4.133625 15 12
8.5404272 0.53732091 -0.74866778 14 5
26.577328 1.6674432 5.1762667 15 13
11.057298 0.6898579 -0.58061516 13 6
26.370323 1.6359878 6.0997729 8 14
15.675642 0.96974707 -0.27414241 15 7
26.740376 1.6448919 7.1786056 11 15
3.7355258 0.21996872 -1.002665 9 0
26.83597 1.5708532 0.46922541 28 8
4.2371473 0.24728094 -0.97988683 9 1
27.503954 1.5955048 1.4438446 57 9
4.8921571 0.28208083 -0.95251852 8 2
27.356171 1.5725614 2.3973057 7 10
5.7113767 0.32631671 -0.9060685 6 3
26.41674 1.500057 3.2487931 6 11
6.8752775 0.38920432 -0.84552956 7 4
25.735994 1.4478838 4.0826273 15 12
8.5559053 0.47835171 -0.74971366 12 5
27.278315 1.5203135 5.310596 16 13
11.063838 0.61275697 -0.58071983 14 6
26.966784 1.4840678 6.2351933 3 14
15.652079 0.85865116 -0.27361882 16 7
27.144722 1.4796056 7.2842035 24 15
3.7446876 0.19428484 -1.0047356 9 0
26.790367 1.380583 0.46824807 54 8
4.2387705 0.21769404 -0.97988683 9 1
27.775723 1.4167805 1.4575565 22 9
4.8940072 0.24792026 -0.95251852 10 2
5.7273259 0.28712821 -0.90825862 6 3
26.436483 1.3160903 3.2500119 24 11
6.8837752 0.34149143 -0.84626079 8 4
25.540287 1.2580701 4.0500889 15 12
8.5709763 0.41919255 -0.75075954 12 5
26.852938 1.308636 5.2258768 27 13
11.071836 0.53569496 -0.58092916 14 6
15.653697 0.74916703 -0.27354902 18 7
27.075274 1.286305 7.2629805 5 15
3.7227938 0.16709778 -0.99852395 12 0
27.168926 1.2099894 0.47470546 14 8
4.2479739 0.18844199 -0.98168641 9 1
27.55348 1.2126615 1.4454147 55 9
4.8897347 0.21349069 -0.9513737 8 2
28.836494 1.2540016 2.5252504 25 10
5.7331381 0.2473072 -0.90888435 6 3
6.8959084 0.29384786 -0.84747952 7 4
26.553017 1.12219 4.2093391 3 12
8.5697136 0.3591747 -0.75041097 12 5
11.085284 0.45879358 -0.58145255 13 6
26.021061 1.0678643 6.0124917 13 14
15.636567 0.63895977 -0.27316508 16 7
28.303524 1.1466897 7.5901279 22 15
3.7238696 0.14110549 -0.99852395 12 0
27.930067 1.0485547 0.48786455 30 8
4.2413964 0.15849189 -0.97988683 9 1
27.651091 1.023584 1.4501249 12 9
4.8871822 0.17920482 -0.95061046 10 2
5.7130098 0.20649143 -0.90544277 6 3
6.9057274 0.24598084 -0.84845448 10 4
26.250263 0.92586851 4.1602187 7 12
8.5879412 0.29989839 -0.75180542 12 5
71.376198 2.4800816 13.882501 14 13
11.078237 0.38105455 -0.58092916 13 6
27.51391 0.93677223 6.3557673 1 14
15.642645 0.52985549 -0.27319998 16 7
28.057909 0.94058698 7.5223169 14 15
3.7305567 0.11528354 -1.0000768 10 0
27.373056 0.83631957 0.47802141 28 8
4.2346077 0.1286408 -0.97808713 9 1
27.57571 0.82806015 1.4458333 30 9
4.9059753 0.14560802 -0.954045 7 2
28.440939 0.83913785 2.4893425 2 10
5.7222109 0.1668351 -0.90669429 6 3
91.585938 2.6382146 11.250004 36 11
6.8973541 0.197483 -0.84723574 8 4
26.321249 0.74441493 4.1705432 3 12
8.5898256 0.23993598 -0.75180542 12 5
27.527966 0.76411909 5.3529558 3 13
11.082623 0.30375928 -0.58103383 13 6
27.550949 0.74550956 6.3629656 7 14
15.641965 0.42052889 -0.27313015 18 7
27.828188 0.7384311 7.4591651 12 15
3.7486522 0.089650452 -1.0047356 9 0
27.276272 0.64280951 0.47624129 23 8
4.2354026 0.099072523 -0.97808713 9 1
27.854372 0.64184177 1.4601734 22 9
4.9107985 0.11144339 -0.95480824 7 2
28.133377 0.63353348 2.4619753 4 10
5.7311354 0.1270576 -0.90794575 5 3
28.431664 0.62037945 3.4918005 1 11
6.9084883 0.14954038 -0.84845448 7 4
26.063139 0.55504596 4.1289315 7 12
8.5912914 0.17996183 -0.75180542 13 5
27.575815 0.57281601 5.3613515 3 13
11.084474 0.22638059 -0.58103383 13 6
27.547689 0.55299306 6.361166 5 14
15.630525 0.31103861 -0.27288583 19 7
27.971731 0.5468545 7.4964352 22 15
3.7453239 0.063414119 -1.0037004 9 0
27.502031 0.45604974 0.48011571 4 8
4.2320943 0.069439501 -0.9771874 9 1
27.918083 0.44832805 1.4633135 2 9
4.8918262 0.076846123 -0.95099211 7 2
27.927938 0.43386048 2.4436727 7 10
5.7397833 0.087160878 -0.90919721 6 3
27.863661 0.41339284 3.4216042 12 11
6.9173036 0.1014195 -0.84942937 7 4
28.499794 0.40790594 4.5143862 8 12
8.5843697 0.11987174 -0.75110817 12 5
28.415407 0.39181784 5.5239205 35 13
11.093772 0.14910351 -0.58145255 13 6
27.938643 0.36573657 6.4506965 1 14
15.592326 0.20140032 -0.27218774 22 7
27.310362 0.34321079 7.3183675 11 15
3.7263577 0.037073098 -0.99852395 9 0
27.988449 0.26868367 0.48856267 20 8
4.2324762 0.039892219 -0.9771874 9 1
27.796707 0.25228825 1.4568238 45 9
4.8961701 0.042727131 -0.95175534 7 2
28.221165 0.24136391 2.4691222 10 10
5.7580299 0.047233339 -0.91201305 5 3
27.943285 0.21947908 3.4311097 14 11
6.9257827 0.053186122 -0.85040432 7 4
27.731569 0.20329601 4.3923674 16 12
8.5770283 0.059878904 -0.75041097 13 5
27.81278 0.18932876 5.4063826 26 13
11.086554 0.071593866 -0.58103383 13 6
26.44586 0.16154882 6.1056218 14 14
15.571355 0.092402495 -0.27180377 19 7
27.256069 0.15222724 7.3033557 16 15
3.7303894 0.011068779 -0.99955922 9 0
27.95365 0.073173344 0.48793441 30 8
4.2443438 0.010371566 -0.97988683 9 1
27.937599 0.058504041 1.4641509 45 9
4.904202 0.0085604209 -0.95328182 7 2
27.871502 0.043772977 2.4384432 23 10
5.746367 0.0070218267 -0.91013581 6 3
27.860762 0.024320053 3.4208727 19 11
6.9339266 0.0048425966 -0.85137933 7 4
26.045341 0.0090988567 4.1251774 12 12
8.5752449 -0 -0.75023663 13 5
26.364544 -0.0046014809 5.1247482 31 13
11.072803 -0.0057977065 -0.58030111 14 6
26.298241 -0.022949548 6.0714293 21 14
15.547625 -0.016281439 -0.27138492 19 7
28.742062 -0.040131513 7.7014198 22 15
3.7381029 -0.015005786 -1.0016297 9 0
27.985472 -0.12211043 0.48849288 27 8
4.2404151 -0.019242525 -0.97898698 8 1
28.424652 -0.13891016 1.4896908 18 9
4.9159222 -0.025739942 -0.95557153 8 2
26.841053 -0.14991029 2.3483243 4 10
5.7443008 -0.033085164 -0.909823 6 3
26.877649 -0.16418825 3.3002222 14 11
6.931798 -0.044764221 -0.85113555 8 4
25.831434 -0.17132308 4.0913873 22 12
8.583005 -0.059921645 -0.75093383 15 5
26.297085 -0.19277115 5.111773 39 13
11.050508 -0.084863484 -0.57914978 13 6
15.54311 -0.12750372 -0.2713151 14 7
3.7456269 -0.041840795 -1.0037004 10 0
27.054085 -0.31165442 0.47226211 28 8
4.2440662 -0.049631122 -0.97988683 9 1
26.981012 -0.32494187 1.4141176 14 9
4.9077592 -0.060819265 -0.954045 8 2
26.867184 -0.34233072 2.3507648 4 10
5.743917 -0.07418932 -0.909823 6 3
28.227516 -0.37444592 3.4662082 14 11
6.9174056 -0.094176389 -0.84942937 7 4
28.136566 -0.38797441 4.4568186 13 12
8.5843477 -0.12136644 -0.75110817 13 5
26.607159 -0.38546446 5.1724505 16 13
11.043628 -0.16384752 -0.57883573 14 6
76.140396 -1.1429403 17.580374 15 14
15.551797 -0.23887724 -0.27148965 20 7
26.026558 -0.40885782 6.9746561 38 15
3.7336423 -0.068430223 -1.0005945 9 0
28.338741 -0.52928817 0.49474081 5 8
4.2436023 -0.079999499 -0.97988683 8 1
28.090265 -0.5393607 1.4724199 39 9
4.8993468 -0.0957831 -0.95251852 7 2
28.288322 -0.56292003 2.4753973 15 10
5.7590384 -0.11560684 -0.91232592 6 3
26.787205 -0.54708022 3.2897413 13 11
6.9562478 -0.14449799 -0.85430413 7 4
26.021856 -0.54508013 4.1223617 22 12
8.5713081 -0.1825366 -0.75006229 13 5
25.828415 -0.55906802 5.0217113 46 13
11.03019 -0.24260567 -0.57820767 14 6
52.864128 -1.1719613 12.207644 16 14
15.49971 -0.34903103 -0.27061701 15 7
26.160093 -0.59822375 7.0114083 14 15
3.7291946 -0.095047191 -0.99955922 9 0
28.33423 -0.73206073 0.49474081 7 8
4.2546096 -0.11066779 -0.98258615 8 1
28.091679 -0.74051279 1.472734 47 9
4.9024611 -0.13094418 -0.95328182 7 2
28.881067 -0.78149873 2.5276906 25 10
5.7738605 -0.15724455 -0.91482884 6 3
52.374607 -1.4446589 6.4332395 16 11
6.9788475 -0.19493686 -0.85722905 7 4
28.690893 -0.80642068 4.5459862 18 12
8.5618172 -0.24363972 -0.74936509 12 5
25.651058 -0.73890173 4.9881291 19 13
11.076086 -0.3229261 -0.58071983 14 6
26.337591 -0.77247983 6.0831265 16 14
15.494816 -0.4598754 -0.27058211 12 7
3.7323229 -0.12055334 -1.0005945 9 0
28.402538 -0.92732161 0.4960323 7 8
4.2420721 -0.13924165 -0.97988683 9 1
28.642916 -0.95018345 1.5019374 5 9
4.9014564 -0.16431089 -0.95328182 7 2
28.596476 -0.96363258 2.5032873 2 10
5.7608113 -0.19613874 -0.91295165 6 3
26.465481 -0.910321 3.2514744 10 11
6.9853368 -0.24149205 -0.85820401 7 4
26.005787 -0.90814209 4.1214228 19 12
8.5679235 -0.30219299 -0.75006229 12 5
25.541607 -0.90532255 4.9679031 31 13
11.083682 -0.39673513 -0.58124322 13 6
26.442728 -0.95574707 6.1087708 32 14
15.541386 -0.56444454 -0.27145472 18 7
25.718843 -0.94306713 6.8959746 42 15
3.7391117 -0.14691012 -1.002665 9 0
28.445326 -1.1275647 0.49690494 10 8
4.237102 -0.16869819 -0.97898698 8 1
28.264393 -1.1352153 1.4824685 15 9
4.9139214 -0.19908154 -0.95595312 8 2
28.463633 -1.1581454 2.4923055 20 10
5.7593017 -0.23635168 -0.91295165 4 3
48.133015 -1.9921248 5.915051 12 11
6.9834809 -0.29025263 -0.85820401 7 4
25.929737 -1.0867778 4.1104727 42 12
8.5656052 -0.36200047 -0.75006229 12 5
11.080642 -0.47410351 -0.58124322 13 6
26.057709 -1.1240346 6.0214901 14 14
15.541061 -0.67310232 -0.27152455 15 7
25.597763 -1.1176224 6.8654342 14 15
3.7418547 -0.17318887 -1.0037004 9 0
28.51866 -1.3299406 0.49833602 5 8
4.2436075 -0.19863886 -0.98078656 9 1
28.419373 -1.3402237 1.4910516 49 9
4.9222169 -0.2338479 -0.95786124 7 2
29.049904 -1.3852034 2.5444248 5 10
5.7535648 -0.27636355 -0.91232592 4 3
26.529503 -1.2835855 3.261224 22 11
6.9614568 -0.33803624 -0.85576659 7 4
8.5668507 -0.42198643 -0.75041097 12 5
25.67354 -1.2691207 4.9965243 36 13
11.09302 -0.55224323 -0.58208054 13 6
27.773643 -1.3923728 6.4201031 21 14
15.512017 -0.78037637 -0.27110568 15 7
25.450422 -1.2892628 6.8281646 14 15
3.7559874 -0.20012982 -1.0078415 9 0
28.584558 -1.533074 0.4996624 10 8
4.2499008 -0.22867857 -0.98258615 9 1
28.493086 -1.5431303 1.4954478 65 9
4.9106631 -0.2676712 -0.95595312 8 2
29.513006 -1.613866 2.5859108 10 10
5.7692475 -0.31750089 -0.91514176 5 3
26.327635 -1.4581155 3.2375813 13 11
6.9747834 -0.38750869 -0.8577165 7 4
25.42882 -1.4216917 4.0338197 29 12
8.563695 -0.48178363 -0.75041097 12 5
24.682028 -1.3929039 4.8053341 15 13
11.09687 -0.63012594 -0.58249921 13 6
23.193108 -1.3251222 5.3632832 15 14
15.474249 -0.88682026 -0.27054721 15 7
25.402225 -1.4646831 6.8178115 19 15
3.7352152 -0.22518392 -1.002665 9 0
28.331638 -1.717948 0.4954389 7 8
4.2559819 -0.25881582 -0.98438585 8 1
28.970034 -1.7718832 1.5210924 13 9
4.9086747 -0.3019473 -0.95595312 8 2
47.118111 -2.906631 4.130136 17 10
5.7649183 -0.35764742 -0.91482884 6 3
26.514936 -1.6542407 3.261955 13 11
6.9719086 -0.43619204 -0.8577165 7 4
25.501078 -1.6043917 4.0469599 12 12
8.548193 -0.54080242 -0.74936509 12 5
24.736359 -1.5692834 4.8179274 27 13
11.102167 -0.70821643 -0.58302259 14 6
27.693151 -1.7762755 6.4066062 17 14
15.505597 -0.99726683 -0.2712104 16 7
22.817736 -1.4755567 6.1267648 22 15
3.7374072 -0.25151441 -1.0037004 9 0
28.053604 -1.8977461 0.4907966 5 8
4.2540712 -0.28852165 -0.98438585 9 1
28.697914 -1.9564276 1.507485 21 9
4.9181986 -0.33701393 -0.95824283 8 2
30.626551 -2.1040199 2.6857913 23 10
5.7524276 -0.39720473 -0.91326451 5 3
25.645262 -1.7797984 3.1564164 13 11
6.9686933 -0.48485413 -0.8577165 7 4
25.069529 -1.7530321 3.9803193 22 12
8.5461969 -0.60060614 -0.74953938 13 5
25.846964 -1.8209958 5.0365944 30 13
11.092968 -0.78542417 -0.58281326 14 6
26.731491 -1.902069 6.1870537 22 14
15.514214 -1.1066295 -0.27148965 20 7
22.891663 -1.6408947 6.1495404 13 15
3.7394133 -0.27788639 -1.0047356 9 0
27.032627 -2.0183597 0.47316965 38 8
4.2441792 -0.3176316 -0.98258615 8 1
27.016556 -2.0313849 1.4198747 82 9
4.9137683 -0.37119305 -0.95786124 7 2
26.923796 -2.038588 2.3622692 22 10
5.7475448 -0.43720442 -0.91295165 6 3
25.78264 -1.970287 3.1749406 21 11
6.9690971 -0.53379583 -0.85820401 7 4
25.277267 -1.9449798 4.0153604 27 12
8.5517273 -0.66102248 -0.75041097 12 5
25.70639 -1.991539 5.0117893 24 13
11.089206 -0.86300296 -0.58291793 14 6
23.17387 -1.8116145 5.3664322 26 14
15.516078 -1.2156923 -0.27166417 18 7
22.73328 -1.7891481 6.1102004 31 15
3.7527862 -0.30523837 -1.0088767 9 0
27.043787 -2.2091489 0.47362339 49 8
4.2340899 -0.34661761 -0.98078656 9 1
27.059444 -2.2246914 1.4229101 15 9
4.9130139 -0.40564981 -0.95824283 8 2
30.250679 -2.5030055 2.6556354 19 10
5.7541957 -0.47813675 -0.91451597 5 3
25.548674 -2.131911 3.1478856 10 11
6.9652004 -0.58243585 -0.85820401 7 4
8.5627871 -0.72204739 -0.75180542 12 5
22.87677 -1.9330791 4.4626408 42 13
11.100821 -0.94191831 -0.58385998 13 6
23.119881 -1.969879 5.3569846 39 14
15.487288 -1.3222834 -0.2713151 18 7
22.585503 -1.9362605 6.0739655 42 15
3.7197738 -0.32870924 -1.0005945 9 0
25.37047 -2.250865 0.44458261 11 8
4.2432137 -0.37720379 -0.983486 8 1
25.157347 -2.2452333 1.3236811 2 9
4.8983297 -0.4388878 -0.95595312 8 2
25.130552 -2.2561059 2.2074807 16 10
5.7487502 -0.51811939 -0.91420311 6 3
25.637949 -2.3197017 3.1608036 10 11
6.9688725 -0.63176435 -0.8591789 7 4
24.075169 -2.1910117 3.8288906 19 12
8.5555534 -0.7816276 -0.75163114 14 5
23.285015 -2.1313961 4.5450706 47 13
11.113864 -1.0212207 -0.5849067 13 6
23.311258 -2.1502097 5.4046741 31 14
15.483654 -1.4309239 -0.27141982 16 7
22.584898 -2.0951376 6.077589 33 15
3.725081 -0.35540387 -1.002665 9 0
4.2482357 -0.40756196 -0.98528558 9 1
25.192751 -2.425786 1.3264027 11 9
4.9068713 -0.47420672 -0.95824283 10 2
25.179632 -2.4378297 2.2132328 18 10
5.7528572 -0.55900437 -0.91545457 6 3
26.328438 -2.5676084 3.2480619 27 11
6.9682441 -0.68078661 -0.85966641 7 4
24.334518 -2.3860204 3.8726919 35 12
8.5498886 -0.84133714 -0.75163114 15 5
23.965117 -2.3624694 4.6809268 12 13
11.110439 -1.0991778 -0.58511603 13 6
23.264652 -2.309819 5.3974757 41 14
15.471297 -1.5387866 -0.27138492 18 7
22.191029 -2.2149591 5.9756145 33 15
3.7263527 -0.38179478 -1.0037004 9 0
24.550833 -2.5240903 0.43079522 4 8
4.2375331 -0.43641153 -0.983486 9 1
25.189106 -2.6030409 1.3271353 18 9
4.9092994 -0.50905877 -0.95938772 7 2
25.197672 -2.6172609 2.2163703 22 10
5.7252378 -0.59669578 -0.91170013 6 3
26.041363 -2.7232723 3.2149136 15 11
6.9651675 -0.73083955 -0.85991013 8 4
23.894888 -2.5114539 3.8054252 29 12
8.5556946 -0.90225935 -0.75267702 15 5
22.5009 -2.3808231 4.3981476 50 13
11.110439 -1.1775578 -0.58553475 14 6
22.943724 -2.4398267 5.3268409 35 14
15.489715 -1.6526387 -0.27190849 20 7
22.319092 -2.3852229 6.0144372 30 15
3.7350471 -0.40971389 -1.0068061 9 0
19.571228 -2.1503119 0.34367281 3 8
4.2226796 -0.46544218 -0.98078656 9 1
21.554859 -2.3834865 1.1365278 15 9
4.9017229 -0.54288715 -0.95862442 7 2
25.204041 -2.8003633 2.2186365 36 10
5.7404532 -0.63983727 -0.91482884 6 3
25.907291 -2.8922336 3.2007768 16 11
6.9579234 -0.77922648 -0.85966641 7 4
27.525572 -3.0923522 4.3870487 16 12
8.5590868 -0.96308082 -0.75354856 19 5
22.341318 -2.521775 4.3702893 60 13
11.103712 -1.2572565 -0.58563942 14 6
23.414087 -2.6552804 5.4402165 34 14
15.47184 -1.7600579 -0.27180377 18 7
22.073046 -2.5188084 5.9528384 49 15
3.7320957 -0.43577924 -1.0068061 9 0
4.2348113 -0.49672672 -0.98438585 9 1
25.191446 -2.9637723 1.3293334 20 9
4.8899136 -0.57702875 -0.95709801 8 2
25.148262 -2.9720423 2.2154989 10 10
5.7299619 -0.6791997 -0.9138903 6 3
25.789341 -3.0660629 3.1888335 12 11
6.9444294 -0.82684386 -0.85869151 7 4
23.596125 -2.8178444 3.7638137 36 12
8.5678024 -1.0261987 -0.75494307 17 5
22.313421 -2.6765149 4.3683815 31 13
11.088717 -1.334028 -0.58532542 13 6
23.017218 -2.7772374 5.3524852 15 14
15.417485 -1.8629904 -0.27107078 19 7
21.857388 -2.6489053 5.8995214 16 15
3.7212937 -0.4608736 -1.0047356 9 0
19.203503 -2.3851156 0.33777386 34 8
4.2196374 -0.52483571 -0.98168641 9 1
19.731806 -2.4612236 1.0421137 27 9
4.8916106 -0.6118834 -0.95824283 8 2
19.700199 -2.4677575 1.7370138 11 10
5.7388005 -0.72090906 -0.91608036 7 3
25.426582 -3.2031074 3.1466668 16 11
6.9424262 -0.87580144 -0.8591789 7 4
24.655703 -3.1191118 3.9362044 17 12
8.5465927 -1.0842326 -0.75372285 14 5
22.430523 -2.8495448 4.3950944 48 13
11.094983 -1.4134281 -0.58616281 13 6
22.500479 -2.8743951 5.2368603 55 14
15.380301 -1.9675337 -0.27065191 25 7
22.487938 -2.8847606 6.0750012 1 15
3.7141545 -0.48634005 -1.0037004 9 0
18.936565 -2.4863219 0.33337587 81 8
4.2274632 -0.5558055 -0.98438585 9 1
19.749786 -2.6036153 1.0439978 13 9
4.8930588 -0.64679003 -0.95938772 7 2
19.696318 -2.6070597 1.738234 12 10
5.7160034 -0.75861651 -0.91326451 6 3
28.687767 -3.8175735 3.5534666 16 11
6.9400787 -0.92477137 -0.85966641 7 4
28.627604 -3.8248229 4.5744572 22 12
8.5348654 -1.1433429 -0.75337422 14 5
22.005354 -2.9517787 4.3157182 49 13
11.092761 -1.4919152 -0.58658141 14 6
22.852598 -3.0816696 5.3236914 8 14
15.391952 -2.0783379 -0.27110568 22 7
22.572542 -3.0559392 6.1034708 40 15
3.7106688 -0.5122577 -1.0037004 9 0
18.944496 -2.6220262 0.33382961 97 8
4.2273402 -0.58583993 -0.98528558 9 1
19.762779 -2.7458282 1.0456725 11 9
4.8864794 -0.68066305 -0.95900601 8 2
19.687504 -2.7458775 1.7391056 6 10
5.710568 -0.79850286 -0.91326451 5 3
23.586506 -3.3064718 2.924377 26 11
6.9393511 -0.97402704 -0.86039764 8 4
28.701921 -4.0389009 4.5907264 14 12
8.5503502 -1.2062391 -0.75546592 15 5
22.028919 -3.1116471 4.3244953 42 13
11.080099 -1.5690403 -0.58647674 14 6
22.573917 -3.2047055 5.263855 17 14
15.414683 -2.1910896 -0.27176887 23 7
22.567869 -3.2159016 6.1081295 28 15
3.7146494 -0.53926057 -1.0057708 10 0
18.953434 -2.7582505 0.33431828 94 8
4.2115769 -0.61365199 -0.98258615 8 1
19.788584 -2.8903692 1.04808 19 9
4.889379 -0.71589798 -0.96053255 8 2
19.756565 -2.8962586 1.7469497 13 10
5.7048545 -0.83835042 -0.91326451 6 3
23.474474 -3.4580362 2.913409 33 11
6.930418 -1.0221591 -0.86015391 7 4
28.784412 -4.2556458 4.6085596 12 12
8.5634012 -1.2691149 -0.75738341 17 5
25.579927 -3.7955644 5.0266724 10 13
11.051096 -1.6437107 -0.58553475 13 6
21.593058 -3.2193985 5.0402532 23 14
15.444501 -2.3054404 -0.27257168 25 7
21.778727 -3.2587383 5.9005566 44 15
3.7146137 -0.56576204 -1.0068061 9 0
18.96139 -2.8947265 0.33480695 81 8
4.2033381 -0.64245027 -0.98168641 9 1
19.765945 -3.0281453 1.0479753 19 9
4.8803806 -0.74941856 -0.95976931 8 2
19.765404 -3.038655 1.7495644 12 10
5.6988626 -0.87815708 -0.91326451 5 3
23.383059 -3.6115313 2.9051216 41 11
6.9211512 -1.0702139 -0.85991013 8 4
28.759859 -4.4574013 4.6094985 8 12
8.5484257 -1.3279498 -0.75686044 16 5
26.222082 -4.0781403 5.1583304 18 13
11.041325 -1.7211286 -0.58563942 14 6
21.294727 -3.32705 4.9759173 39 14
15.461617 -2.4184597 -0.27316508 23 7
22.121885 -3.4681501 5.9999433 33 15
3.7029424 -0.59046412 -1.0047356 9 0
19.793762 -3.1633608 0.34988585 73 8
4.1987505 -0.67177927 -0.98168641 9 1
19.73052 -3.1638491 1.0472425 73 9
4.8653378 -0.781914 -0.95786124 8 2
19.724035 -3.1734033 1.7478212 15 10
5.710145 -0.92075115 -0.91608036 6 3
6.9233093 -1.1200914 -0.86112887 10 4
25.927967 -4.2040586 4.1602187 19 12
8.5310802 -1.3863178 -0.75616324 15 5
27.022343 -4.3960266 5.3216634 13 13
11.019183 -1.7965623 -0.58511603 13 6
21.434458 -3.5023444 5.0141592 11 14
15.473957 -2.5311847 -0.27368864 22 7
21.957966 -3.59969 5.9621558 40 15
3.6834855 -0.61376077 -1.0005945 9 0
19.824451 -3.3103619 0.35082829 14 8
4.1978021 -0.70171797 -0.98258615 9 1
19.761137 -3.310426 1.0500687 21 9
4.8539519 -0.81488597 -0.95671636 8 2
19.770168 -3.322582 1.7539221 11 10
5.6957855 -0.95928031 -0.91482884 6 3
24.130934 -4.0727782 3.0048108 4 11
6.9172783 -1.1687284 -0.86137259 10 4
26.157022 -4.4288249 4.2018299 17 12
8.5113726 -1.4441752 -0.75529164 13 5
21.765059 -3.6969151 4.2912946 31 13
11.002435 -1.8727759 -0.5849067 14 6
21.599661 -3.6843381 5.0586991 23 14
15.485476 -2.6441994 -0.27421221 21 7
22.132236 -3.7871084 6.0165076 37 15
3.6943374 -0.64210767 -1.0047356 9 0
19.859959 -3.4589744 0.35187542 15 8
4.192801 -0.73100686 -0.98258615 9 1
19.765089 -3.4531152 1.0515342 27 9
4.8520122 -0.84942985 -0.9574796 8 2
19.760229 -3.4629292 1.7551423 12 10
5.6792221 -0.99731255 -0.91326451 5 3
24.553532 -4.3206129 3.0611145 6 11
6.9148159 -1.2180241 -0.86210382 8 4
23.112186 -4.0794611 3.7171962 31 12
8.5050068 -1.5042541 -0.75564027 13 5
21.752251 -3.8511689 4.2939658 42 13
10.961562 -1.944657 -0.58344132 14 6
21.588764 -3.8377702 5.0622988 10 14
15.506016 -2.7592502 -0.2749103 21 7
22.0425 -3.9303365 5.9994254 9 15
3.6897647 -0.66788322 -1.0047356 9 0
19.8491 -3.6000359 0.35211974 19 8
4.1760912 -0.75817156 -0.97988683 9 1
19.760151 -3.5945909 1.0525808 37 9
4.8536897 -0.88469052 -0.95900601 8 2
19.763014 -3.605803 1.7575827 12 10
5.6760077 -1.0376468 -0.9138903 6 3
24.345081 -4.4593749 3.0389342 12 11
6.9061437 -1.2662685 -0.86210382 7 4
23.27743 -4.2764077 3.7484832 16 12
8.5021362 -1.5650359 -0.75633752 13 5
21.66305 -3.9915488 4.281754 24 13
10.937897 -2.0193222 -0.58291793 14 6
21.831635 -4.038372 5.1257348 3 14
15.574856 -2.8838172 -0.27648103 15 7
21.771397 -4.0390205 5.9331684 9 15
3.6926062 -0.69505554 -1.0068061 9 0
19.811693 -3.7362962 0.35191032 7 8
4.1821856 -0.78947622 -0.98258615 10 1
19.756161 -3.736537 1.0537323 48 9
4.8473954 -0.91855377 -0.95900601 8 2
19.721699 -3.7407153 1.7561883 19 10
5.6744466 -1.0783535 -0.91482884 6 3
23.51383 -4.4769969 2.9390013 20 11
6.8873849 -1.3125932 -0.86088508 8 4
23.433279 -4.4743757 3.7785184 10 12
8.5007877 -1.6262254 -0.75720912 16 5
21.769634 -4.1685328 4.3084674 42 13
10.917649 -2.0945044 -0.58260393 13 6
21.592402 -4.1502252 5.0762458 48 14
15.656457 -3.0121243 -0.27829608 23 7
21.630749 -4.1693411 5.9026275 45 15
3.6914558 -0.72155887 -1.0078415 9 0
19.773352 -3.87221 0.3517009 26 8
4.1765723 -0.81865394 -0.98258615 10 1
19.757032 -3.8797565 1.0551976 74 9
4.8408647 -0.95237231 -0.95900601 8 2
23.825699 -4.6916919 2.1245084 13 10
5.6764708 -1.1198537 -0.91639322 5 3
24.566717 -4.8554296 3.0747638 27 11
6.8819485 -1.3614143 -0.86137259 9 4
24.544708 -4.8644352 3.9631112 22 12
8.4853182 -1.6847558 -0.75686044 15 5
21.664902 -4.3054862 4.2935843 45 13
10.918431 -2.1737919 -0.58344132 13 6
15.711525 -3.1366208 -0.27965736 25 7
21.123743 -4.2247744 5.7721829 28 15
3.671052 -0.74488235 -1.0037004 9 0
19.876431 -4.0402927 0.35403952 10 8
4.178246 -0.85007375 -0.98438585 9 1
4.828155 -0.98580992 -0.95786124 7 2
24.00429 -4.9055467 2.1435084 24 10
5.6625061 -1.1592561 -0.91545457 6 3
24.509954 -5.0267134 3.0720828 17 11
6.8875866 -1.4138185 -0.8633225 9 4
23.16452 -4.7634201 3.7456672 4 12
8.4652395 -1.7438238 -0.75616324 15 5
10.908464 -2.2530782 -0.58375531 14 6
21.483864 -4.4451838 5.0649977 7 14
15.731757 -3.2578902 -0.28042528 26 7
22.069021 -4.5783091 6.0392838 16 15
3.6600904 -0.7693007 -1.0021474 11 0
20.370205 -4.2889624 0.36335912 17 8
4.1798372 -0.88082975 -0.98618543 9 1
22.119499 -4.6693745 1.1847814 7 9
4.8326797 -1.0219295 -0.9601509 7 2
23.965559 -5.0721822 2.1431599 22 10
5.6504102 -1.1979399 -0.91482884 6 3
23.245111 -4.9366612 2.9177961 17 11
6.8930826 -1.46517 -0.8652724 9 4
25.482027 -5.4256692 4.1264291 33 12
8.4626026 -1.8049576 -0.75703478 12 5
21.713232 -4.6350985 4.3157182 50 13
10.867078 -2.3237488 -0.58239454 13 6
28.77902 -6.164434 6.7948713 20 14
15.759467 -3.3785367 -0.28133279 23 7
21.301783 -4.5744848 5.8379226 38 15
3.6621814 -0.79647619 -1.0042179 10 0
19.837622 -4.3216743 0.35438859 15 8
4.1583538 -0.90666771 -0.98258615 8 1
21.612206 -4.7201262 1.1593462 5 9
4.8215919 -1.0548037 -0.95938772 7 2
24.752842 -5.4196248 2.2168934 14 10
5.6457686 -1.2382041 -0.91545457 6 3
25.168329 -5.5290108 3.1639721 10 11
6.8768692 -1.5119777 -0.86454117 8 4
25.705891 -5.6612144 4.1689792 31 12
8.4497957 -1.8639932 -0.75703478 13 5
21.638166 -4.7772589 4.3073225 47 13
10.84864 -2.3991268 -0.58228987 13 6
21.695587 -4.8058228 5.1302338 45 14
15.856539 -3.51531 -0.28349692 23 7
21.154287 -4.6975408 5.8063469 48 15
3.6659558 -0.8241421 -1.0068061 11 0
19.927919 -4.4872961 0.35655266 14 8
4.1443186 -0.93396246 -0.98078656 9 1
21.574829 -4.8700118 1.1591369 11 9
4.8083658 -1.08714 -0.95824283 8 2
24.613354 -5.5694337 2.2078292 14 10
5.6350603 -1.2771518 -0.91514176 6 3
24.660645 -5.5982347 3.1049874 11 11
6.8545313 -1.5573113 -0.86307877 8 4
25.130278 -5.7186847 4.0820017 14 12
8.4385185 -1.9233807 -0.75720912 13 5
21.627256 -4.9334435 4.311902 49 13
10.839417 -2.4765851 -0.5827086 11 6
25.536757 -5.844007 6.0480342 11 14
15.915425 -3.645119 -0.28499779 28 7
21.514511 -4.9353857 5.9145331 13 15
3.6563494 -0.84884125 -1.0057708 9 0
20.205797 -4.698319 0.36210254 14 8
4.1376972 -0.96287221 -0.98078656 9 1
21.557812 -5.0245934 1.1600789 7 9
4.8025708 -1.1211282 -0.95862442 7 2
24.050034 -5.6187468 2.1607652 14 10
5.6433177 -1.3205112 -0.9179576 6 3
24.999773 -5.8590403 3.15276 7 11
6.858954 -1.6087531 -0.86502868 7 4
24.98205 -5.8686876 4.0644808 7 12
8.4151888 -1.9799638 -0.75633752 13 5
21.701216 -5.1099582 4.3336544 32 13
10.84519 -2.557699 -0.58396471 13 6
25.161543 -5.9432998 5.9688511 17 14
15.959648 -3.772701 -0.28625438 31 7
22.438272 -5.3124533 6.1785288 39 15
3.6315472 -0.86984646 -1.0005945 9 0
21.037817 -5.0468497 0.37763515 16 8
4.1384535 -0.99355489 -0.98258615 8 1
21.55328 -5.1824422 1.1617537 9 9
4.7869921 -1.1527903 -0.95709801 8 2
24.690086 -5.9503579 2.2219484 22 10
5.632041 -1.359413 -0.91764468 6 3
23.0191 -5.5646539 2.9078028 1 11
6.8514142 -1.6575314 -0.86551613 8 4
24.053513 -5.8280458 3.9199352 14 12
8.3914795 -2.0363147 -0.75546592 15 5
26.535635 -6.4441624 5.3079247 19 13
10.844535 -2.6375978 -0.5849067 13 6
21.660238 -5.2761912 5.1468801 50 14
15.964006 -3.8916051 -0.28681284 28 7
22.059074 -5.3855805 6.0843186 28 15
3.6403902 -0.89888293 -1.0047356 9 0
21.104958 -5.2190399 0.37948513 13 8
4.1276336 -1.0214859 -0.98168641 9 1
21.535959 -5.3375897 1.1628003 7 9
4.7826385 -1.1871274 -0.95786124 8 2
24.280554 -6.0313206 2.1888292 14 10
5.6051602 -1.3944064 -0.91482884 6 3
22.879526 -5.7002649 2.8951283 42 11
