# .PCD v0.7 - Point Cloud Data file format
VERSION 0.7
FIELDS x y z intensity ring
SIZE 4 4 4 4 2
TYPE F F F F U
COUNT 1 1 1 1 1
WIDTH 1324
HEIGHT 1
VIEWPOINT 0 0 0 1 0 0 0
POINTS 1324
DATA ascii
-11.83305 14.844251 1.6608399 13 10
-6.2277465 7.8181415 -1.583117 3 3
-11.868396 14.909933 2.3398917 20 11
-7.6608534 9.6275635 -1.5106926 16 4
-11.9095 14.977658 3.0307617 23 12
-8.3484583 10.502974 -1.1738135 7 5
-11.948285 15.042596 3.7341323 26 13
-9.4368105 11.88923 -0.7955066 22 6
-12.001117 15.125363 4.4576302 20 14
-9.478117 11.954119 -0.26628882 30 7
-12.039003 15.194886 5.1944985 27 15
-3.094558 3.9268353 -1.3396474 4 0
-9.6149988 12.205321 0.2712104 38 8
-3.790936 4.8156877 -1.4149421 7 1
-11.802828 14.998711 1.000245 21 9
-4.5010753 5.7239523 -1.4154211 9 2
-11.833766 15.059659 1.6756563 12 10
-6.1487637 7.8277259 -1.5765467 2 3
-11.883072 15.138716 2.3630469 21 11
-7.5959029 9.6839352 -1.51118 15 4
-11.925505 15.209162 3.06111 22 12
-7.9763246 10.179901 -1.1314558 9 5
-11.971271 15.289499 3.7745838 30 13
-9.3347378 11.926452 -0.79372716 16 6
-12.015287 15.362278 4.5026202 21 14
-9.3808851 12.002666 -0.26590487 40 7
-12.049475 15.422623 5.2441916 25 15
-3.0760543 3.9584861 -1.3432709 5 0
-9.4167223 12.126842 0.26799917 38 8
-3.7592638 4.8429198 -1.415392 8 1
-11.822691 15.241714 1.0109214 19 9
-4.4634075 5.7583423 -1.4161844 6 2
-11.854242 15.298923 1.6932617 13 10
-6.0697756 7.8392262 -1.5702893 2 3
-11.890075 15.367312 2.3857143 20 11
-7.5298104 9.7354136 -1.51118 16 4
-11.932593 15.438959 3.0905197 23 12
-7.938519 10.274952 -1.1359879 5 5
-11.971301 15.505829 3.8077846 28 13
-9.2329473 11.967609 -0.79215711 24 6
-12.03421 15.604195 4.5494103 21 14
-9.279438 12.040899 -0.26534638 42 7
-12.054667 15.653305 5.2938848 25 15
-3.0448201 3.9752636 -1.341718 6 0
-9.3619184 12.227177 0.26880196 16 8
-3.7229939 4.8659506 -1.4144921 8 1
-9.6850729 12.662963 0.8354913 14 9
-4.4217267 5.7854686 -1.4154211 6 2
-11.86324 15.533316 1.7099956 12 10
-6.0138812 7.8772173 -1.5696636 3 3
-11.895969 15.593089 2.4081383 20 11
-7.5940509 9.9613953 -1.5379913 17 4
-11.956538 15.689509 3.1243093 25 12
-8.3095989 10.911851 -1.1999602 7 5
-11.984025 15.748385 3.8467097 30 13
-9.1089554 11.974538 -0.78849363 16 6
-12.045266 15.846072 4.5953002 19 14
-9.1878929 12.095835 -0.26513696 40 7
-12.076347 15.904239 5.3508253 26 15
-3.0235116 4.0036049 -1.3443062 5 0
-9.2871704 12.306603 0.2691161 34 8
-3.6874387 4.8880687 -1.4135925 8 1
-9.661355 12.816393 0.84114355 34 9
-4.3812289 5.8161969 -1.4154211 6 2
-11.878281 15.774459 1.7276011 12 10
-5.9373627 7.8905983 -1.564032 2 3
-11.907312 15.836006 2.4327562 19 11
-7.6024027 10.114411 -1.5535904 15 4
-11.970091 15.936863 3.1568477 23 12
-7.8277707 10.429407 -1.1408687 27 5
-11.999094 15.992907 3.8863976 28 13
-9.0203371 12.031451 -0.78807491 20 6
-12.052365 16.087292 4.6407404 14 14
-9.1005516 12.151692 -0.26499733 47 7
-12.750967 17.038357 5.7023015 9 15
-3.0012553 4.0323644 -1.3468944 6 0
-9.2153482 12.390395 0.26953498 34 8
-3.6532238 4.9136925 -1.4135925 8 1
-11.852592 15.953707 1.0415903 17 9
-4.340517 5.846642 -1.4154211 6 2
-11.884227 16.013796 1.7446836 13 10
-5.8809547 7.9302702 -1.563719 3 3
-7.5800533 10.23264 -1.5635839 15 4
-12.547253 16.950443 3.3401892 23 12
-7.6990862 10.408513 -1.132676 7 5
-12.590995 17.028173 4.1165137 34 13
-8.9218855 12.074851 -0.7868188 22 6
-12.559031 17.009771 4.8814378 13 14
-9.0214386 12.222971 -0.26517189 38 7
-13.434375 18.215275 6.0646482 3 15
-2.9604623 4.0360837 -1.3412004 5 0
-9.1522655 12.486685 0.27023306 39 8
-3.6165271 4.9359326 -1.4126925 8 1
-12.44177 16.993298 1.1037654 38 9
-4.2949572 5.8704638 -1.4138948 6 2
-12.464894 17.043596 1.8473531 15 10
-5.8172884 7.959969 -1.561529 2 3
-12.513919 17.135721 2.6053228 26 11
-7.5306692 10.315773 -1.5682149 1 4
-12.564817 17.224346 3.3767946 24 12
-7.7365551 10.613353 -1.1490613 7 5
-12.597834 17.28861 4.1581101 28 13
-8.8291397 12.125542 -0.78608614 22 6
-12.684189 17.432674 4.9772673 22 14
-9.0276327 12.411793 -0.26789445 29 7
-13.22624 18.197668 6.0278959 3 15
-2.9333444 4.058219 -1.341718 6 0
-9.1433229 12.658882 0.27257168 37 8
-3.5705721 4.9452615 -1.4081936 8 1
-4.2596102 5.9082685 -1.4158028 7 2
-12.485393 17.324165 1.8682704 15 10
-5.7327156 7.9603138 -1.5537072 1 3
-12.529649 17.411186 2.6338406 22 11
-7.4445572 10.348758 -1.56529 8 4
-12.582623 17.504122 3.4143388 22 12
-7.6169391 10.603995 -1.1422632 9 5
-12.618819 17.573883 4.2054305 25 13
-8.7617388 12.211226 -0.78765625 31 6
-12.697301 17.709263 5.0308051 7 14
-8.9034843 12.422504 -0.26677749 32 7
-12.953769 18.086956 5.9611206 3 15
-2.9083054 4.0833178 -1.3432709 6 0
-9.1092167 12.798983 0.27421221 34 8
-3.5224068 4.9510117 -1.4027947 7 1
-4.2125731 5.9298592 -1.4138948 14 2
-12.495651 17.596096 1.888142 15 10
-5.6575689 7.9727554 -1.5483886 2 3
-12.543282 17.689314 2.6626017 23 11
-7.4410043 10.497649 -1.5799143 8 4
-12.594841 17.78175 3.4512575 26 12
-7.6440148 10.800025 -1.1576025 12 5
-12.628491 17.849064 4.2500796 23 13
-8.7627497 12.394411 -0.7955066 28 6
-12.72853 18.017122 5.0928917 15 14
-8.8672981 12.556231 -0.26831329 39 7
-12.751441 18.069618 5.9259214 42 15
-2.8797274 4.1035218 -1.3432709 5 0
-9.1310148 13.021074 0.27759799 9 8
-3.4855168 4.9722924 -1.4018949 7 1
-12.579327 17.958456 1.1490884 1 9
-4.1631918 5.947865 -1.4112234 12 2
-12.51643 17.888588 1.9101051 16 10
-5.575737 7.9748225 -1.5411925 4 3
-12.554772 17.970097 2.6916065 22 11
-7.4493723 10.66652 -1.5974635 7 4
-12.609445 18.068495 3.4897404 35 12
-7.8339696 11.23391 -1.1982172 20 5
-12.613599 18.094627 4.2874784 43 13
-7.959094 11.426085 -0.72977263 5 6
-12.606889 18.11194 5.0946913 32 14
-8.8262501 12.68513 -0.2697444 36 7
-12.604027 18.128063 5.9160862 34 15
-2.8389242 4.1060467 -1.3375769 4 0
-12.436232 18.000454 0.38189358 20 8
-3.4429691 4.9852786 -1.3987457 8 1
-12.371959 17.927488 1.141552 12 9
-4.1048512 5.952539 -1.4054991 21 2
-12.440987 18.047718 1.917775 17 10
-5.5031214 7.98915 -1.5364995 2 3
-12.440274 18.073652 2.6940439 26 11
-7.4489889 10.826201 -1.6135503 8 4
-12.428166 18.076321 3.4744098 31 12
-7.8476014 11.418332 -1.212162 14 5
-12.433628 18.104559 4.2691607 39 13
-8.7278442 12.718104 -0.80838126 26 6
-12.435919 18.128227 5.0753455 28 14
-8.9127226 13.002094 -0.27515465 37 7
-12.416026 18.12636 5.8870978 34 15
-2.8091018 4.1241698 -1.3370593 6 0
-12.262781 18.0103 0.38032284 24 8
-3.4080813 5.0091934 -1.3987457 8 1
-12.270992 18.04266 1.1435407 35 9
-4.0576177 5.9706001 -1.4032094 16 2
-12.253132 18.043472 1.9081877 17 10
-5.4419527 8.0166197 -1.5346223 2 3
-12.27016 18.088917 2.6838069 26 11
-7.4578791 11.002819 -1.6320744 11 4
-12.252759 18.083637 3.4597051 35 12
-8.0782299 11.931487 -1.2606206 13 5
-12.254118 18.112877 4.250843 33 13
-7.6933856 11.375911 -0.71972418 5 6
-12.255584 18.135494 5.0533004 23 14
-8.8922367 13.168406 -0.27735364 22 7
-12.241556 18.135197 5.8627691 33 15
-2.7809644 4.1431952 -1.3370593 6 0
-12.082167 18.014093 0.37861249 31 8
-3.3652239 5.0193267 -1.3951464 8 1
-12.089151 18.044924 1.1383072 33 9
-4.0158362 5.9987822 -1.4032094 17 2
-12.081276 18.053602 1.9005182 19 10
-5.3781719 8.0429201 -1.5324322 1 3
-12.090639 18.09491 2.6721075 25 11
-7.4710178 11.185389 -1.6515735 9 4
-12.088927 18.112871 3.4490674 28 12
-8.0775471 12.107186 -1.2733454 7 5
-12.113118 18.169729 4.2447371 23 13
-8.6335993 12.960237 -0.816127 20 6
-12.18262 18.294731 5.0744457 18 14
-11.980607 18.004986 -0.37749556 33 7
-12.218412 18.376255 5.9129801 19 15
-2.7509062 4.1608977 -1.3365415 6 0
-11.923986 18.042532 0.37749556 24 8
-3.3193617 5.0264363 -1.3906474 8 1
-11.966043 18.126793 1.1383072 19 9
-3.9684243 6.0161452 -1.4009198 16 2
-12.005381 18.214025 1.9085364 14 10
-5.3200402 8.0743933 -1.5314937 4 3
-12.045786 18.296167 2.6896567 19 11
-7.4516621 11.326826 -1.6647354 20 4
-12.102117 18.402699 3.4884889 20 12
-7.8965411 12.016758 -1.258006 5 5
-12.131456 18.475395 4.2962556 24 13
-9.1972761 14.012178 -0.87840676 16 6
-12.196756 18.596056 5.1342831 16 14
-11.872163 18.114941 -0.37805402 18 7
-12.235966 18.677153 5.9828615 24 15
-2.7214658 4.177907 -1.3360239 6 0
-11.93082 18.329802 0.38175392 18 8
-3.2691293 5.0244131 -1.383899 8 1
-11.972019 18.414177 1.1510772 19 9
-3.920979 6.0354714 -1.3990116 20 2
-12.016766 18.504192 1.9303253 14 10
-5.2441854 8.0815096 -1.525862 3 3
-12.06464 18.606337 2.722805 21 11
-7.4456511 11.487228 -1.6808221 11 4
-12.115093 18.705595 3.5297878 17 12
-7.808125 12.064902 -1.2573087 7 5
-12.14938 18.780075 4.347774 23 13
-9.1295948 14.123007 -0.88133758 14 6
-12.20092 18.888643 5.1914206 16 14
-11.880919 18.400284 -0.38231242 15 7
-12.262379 19.005615 6.0605068 28 15
-2.6922321 4.196805 -1.3360239 5 0
-11.947169 18.638241 0.38643116 20 8
-3.226613 5.0356278 -1.3807496 8 1
-11.989636 18.726063 1.1653125 20 9
-3.8702841 6.049468 -1.3959587 12 2
-12.03113 18.812553 1.953683 14 10
-5.196147 8.1312399 -1.5283649 2 3
-12.080812 18.919323 2.7561972 16 11
-7.4218798 11.627612 -1.6937402 15 4
-12.121238 19.004562 3.5701478 15 12
-8.1648769 12.811353 -1.329125 31 5
-12.174093 19.109493 4.4042535 21 13
-11.847262 18.610804 -1.156206 10 6
-12.222503 19.215071 5.257556 15 14
-11.886292 18.693712 -0.38667551 16 7
-12.272363 19.315779 6.1319413 18 15
-2.6535816 4.200798 -1.3313652 4 0
-11.959795 18.947784 0.39110845 20 8
-3.1830602 5.0448461 -1.3771503 8 1
-12.003485 19.03908 1.1795479 20 9
-3.8216774 6.0663733 -1.393669 14 2
-12.039653 19.118628 1.9766922 14 10
-5.1329412 8.1572866 -1.5264877 4 3
-12.092138 19.231752 2.7893457 18 11
-7.3774948 11.737967 -1.7022711 9 4
-12.141651 19.332954 3.6158266 16 12
-7.9906178 12.728263 -1.3148315 13 5
-12.189576 19.431847 4.4588251 21 13
-11.854942 18.913057 -1.1698134 4 6
-12.244562 19.542223 5.3241415 15 14
-11.89875 19.005053 -0.39138767 15 7
-12.288852 19.643375 6.2085514 19 15
-2.6343949 4.2356248 -1.3365415 6 0
-11.962523 19.241034 0.39547154 18 8
-3.1354253 5.04708 -1.3717515 8 1
-12.020069 19.356188 1.1940973 16 9
-3.7740886 6.0822353 -1.3913792 11 2
-12.053914 19.440977 2.0012703 14 10
-5.056489 8.1584539 -1.5202303 2 3
-12.10623 19.548201 2.8232253 13 11
-7.2911911 11.782434 -1.7012962 4 4
-12.160456 19.658747 3.6611927 16 12
-7.9120378 12.800686 -1.3165747 28 5
-12.19392 19.743641 4.510725 17 13
-9.1952467 14.894186 -0.91734481 2 6
-12.267443 19.885963 5.3943262 16 14
-11.914782 19.329384 -0.39634416 15 7
-12.306871 19.973272 6.2861977 18 15
-2.6044939 4.251811 -1.3360239 7 0
-11.978232 19.569681 0.40049785 18 8
-3.0969298 5.0616555 -1.3699518 8 1
-12.038828 19.691828 1.2095888 18 9
-3.7243676 6.0967093 -1.388708 9 2
-12.07498 19.774239 2.0270681 14 10
-4.9983759 8.1918716 -1.5199175 2 3
-12.118277 19.876303 2.8583238 15 11
-7.1705313 11.765682 -1.6917903 5 4
-12.183204 20.006355 3.7100003 15 12
-7.7955527 12.811357 -1.3120426 13 5
-12.215353 20.082809 4.5691123 16 13
-9.2175932 15.166241 -0.93011475 10 6
-12.281055 20.222633 5.4622617 15 14
-11.934437 19.659605 -0.40144026 16 7
-12.327437 20.322983 6.3690195 17 15
-2.5707569 4.2632732 -1.3339534 6 0
-11.994056 19.906322 0.40566376 16 8
-3.0484469 5.0614519 -1.3641032 8 1
-12.039062 20.004705 1.2236148 18 9
-3.6786814 6.1175127 -1.3875631 8 2
-12.090611 20.114193 2.0532148 14 10
-4.9359827 8.2180986 -1.5183531 4 3
-12.131413 20.214039 2.8946409 15 11
-7.0657558 11.778001 -1.6864281 5 4
-12.189475 20.334906 3.7550535 15 12
-7.9925771 13.344055 -1.3608497 28 5
-12.238218 20.440481 4.6309342 16 13
-11.073031 18.509022 -1.1303521 4 6
-12.292567 20.563793 5.5310965 13 14
-11.945626 19.99135 -0.40650147 14 7
-12.34372 20.673933 6.4518414 16 15
-2.5231826 4.2512131 -1.3246359 5 0
-12.013915 20.257889 0.41110891 18 8
-3.0120432 5.080934 -1.3636533 23 1
-12.064007 20.366648 1.2405716 16 9
-3.6258838 6.1261501 -1.3837469 7 2
-12.10613 20.462185 2.0800588 15 10
-4.8895469 8.2710629 -1.5217947 3 3
-12.155582 20.578541 2.9346142 15 11
-6.9833574 11.827043 -1.6864281 3 4
-12.201804 20.681509 3.8032351 15 12
-7.9123831 13.421837 -1.3631158 22 5
-12.256699 20.799429 4.6927567 17 13
-10.273705 17.44824 -1.0611639 2 6
-12.311746 20.92625 5.6053305 15 14
-11.953783 20.325916 -0.41159755 14 7
-12.364487 21.041092 6.5393224 14 15
-2.485647 4.2553797 -1.3204948 6 0
-15.518123 26.58803 0.5373596 17 8
-2.9706059 5.0917392 -1.3609538 18 1
-15.575838 26.71904 1.6208447 18 9
-3.5820386 6.1496181 -1.3833653 6 2
-12.099322 20.780367 2.1037652 3 10
-4.8227444 8.289629 -1.5189787 2 3
-12.168251 20.932341 2.9728811 13 11
-6.8896484 11.856628 -1.6837471 3 4
-12.221771 21.049768 3.8551714 16 12
-7.8084903 13.459516 -1.3613727 23 5
-12.273701 21.164717 4.755724 17 13
-8.5114384 14.688901 -0.88971132 2 6
-12.332334 21.300074 5.6822639 16 14
-15.444615 26.686262 -0.53819734 16 7
-12.386541 21.419556 6.629909 16 15
-2.4529903 4.2676044 -1.318942 7 0
-15.515374 27.014784 0.54378206 18 8
-2.9311056 5.1055937 -1.3591542 21 1
-15.484328 26.993444 1.6308932 24 9
-3.5370662 6.1710687 -1.3826021 6 2
-12.053991 21.038935 2.1213708 9 10
-4.7657361 8.324811 -1.5192918 2 3
-12.181492 21.295925 3.0123665 13 11
-6.8136029 11.916501 -1.6854532 3 4
-12.246005 21.43474 3.9099236 14 12
-7.8417554 13.736912 -1.3838589 25 5
-12.286189 21.53124 4.8186908 16 13
-9.4335537 16.545481 -0.99815142 2 6
-12.354059 21.68536 5.7618961 13 14
-15.337097 26.932449 -0.5409897 100 7
-12.401021 21.794315 6.7189426 17 15
-2.4297941 4.2963967 -1.3225653 7 0
-15.547749 27.51416 0.55163568 18 8
-2.878139 5.0953903 -1.3510561 9 1
-15.606694 27.652264 1.6640742 3 9
-3.4900403 6.1887712 -1.3810756 7 2
-12.078032 21.426308 2.1518753 12 10
-4.7026544 8.3492727 -1.5177274 2 3
-12.197058 21.672812 3.0535586 13 11
-6.709805 11.927446 -1.6803347 2 4
-12.264481 21.819334 3.9643626 14 12
-7.7876153 13.86602 -1.3913542 22 5
-12.308568 21.924635 4.8873816 16 13
-8.4364519 15.039726 -0.90373743 14 6
-12.36435 22.060061 5.8383794 13 14
-12.428813 22.20232 6.8178115 15 15
-2.3988032 4.3115659 -1.3220477 6 0
-2.8320868 5.0966206 -1.3461071 35 1
-3.4391303 6.1992517 -1.3780226 6 2
-12.150389 21.910864 2.191967 6 10
-4.6298904 8.3559818 -1.5130343 2 3
-12.208907 22.052673 3.0949941 12 11
-6.6138768 11.951419 -1.6771661 3 4
-12.280087 22.208679 4.0194278 14 12
-7.7084723 13.946608 -1.3941432 20 5
-12.329841 22.326252 4.9575996 18 13
-8.3949366 15.213673 -0.91064578 2 6
-12.392734 22.467926 5.923861 14 14
-8.501441 15.425772 -0.30744159 12 7
-12.445903 22.601614 6.9135747 15 15
-2.3640051 4.3197351 -1.3194594 7 0
-12.525861 22.897909 0.45557764 22 8
-2.7898915 5.1042995 -1.3429577 53 1
-12.513945 22.904598 1.3678527 33 9
-3.3912096 6.2121787 -1.375733 6 2
-12.183165 22.336233 2.2259576 10 10
-4.5691233 8.3803663 -1.5117829 2 3
-12.237998 22.464735 3.1410608 13 11
-6.5217433 11.981606 -1.6749724 3 4
-12.296679 22.600611 4.0751181 15 12
-7.7289181 14.217139 -1.4157579 30 5
-12.355468 22.746473 5.0316334 18 13
-7.6545749 14.097972 -0.84072489 12 6
-12.410275 22.875921 6.0084424 14 14
-10.930282 20.164629 -0.4003582 11 7
-12.472152 23.018723 7.0150318 15 15
-2.3263063 4.3204169 -1.3148009 6 0
-12.323054 22.905558 0.45400691 27 8
-2.7486246 5.111156 -1.3398085 44 1
-12.315911 22.921038 1.3636658 40 9
-3.3347595 6.211484 -1.3703903 7 2
-12.200426 22.734646 2.2573338 10 10
-4.4890399 8.3720179 -1.5045868 3 3
-12.258992 22.88208 3.187371 13 11
-6.4400301 12.025723 -1.6749724 2 4
-12.322192 23.029028 4.1367536 14 12
-7.6892858 14.376589 -1.4263909 23 5
-12.374312 23.155573 5.1033778 18 13
-8.768569 16.422071 -0.97564697 12 6
-12.440546 23.308865 6.0997729 14 14
-10.643161 19.958014 -0.39480835 31 7
-12.493743 23.447926 7.1190767 16 15
-2.2969913 4.3382597 -1.3153185 6 0
-10.848874 20.498598 0.40482602 22 8
-12.182952 23.048475 1.3662826 19 9
-3.2768157 6.2045269 -1.3639028 15 2
-12.22274 23.162872 2.2913244 12 10
-4.423655 8.3866539 -1.5017711 2 3
-12.277877 23.296904 3.2334378 12 11
-6.3586926 12.07566 -1.6757036 4 4
-12.349177 23.461967 4.1993275 14 12
-7.7315464 14.701484 -1.4532349 19 5
-12.392256 23.583771 5.1785564 18 13
-8.6250086 16.421259 -0.97208816 12 6
-12.471304 23.764416 6.1960516 13 14
-10.404206 19.842331 -0.39107352 34 7
-12.518592 23.884907 7.2257104 15 15
-2.2620542 4.3435135 -1.3122126 6 0
-10.53197 20.240343 0.39826393 34 8
-2.6724966 5.1381941 -1.3371091 5 1
-12.193973 23.464375 1.3858563 19 9
-3.2361343 6.2324796 -1.3650476 12 2
-12.242849 23.588602 2.325141 13 10
-4.356813 8.4015503 -1.4989552 3 3
-12.299396 23.738094 3.2826729 14 11
-6.2444019 12.056964 -1.6671727 3 4
-12.372085 23.909023 4.2637782 15 12
-7.6113439 14.721471 -1.4499229 25 5
-12.41802 24.028605 5.2575512 19 13
-8.7713242 16.986839 -1.0019196 2 6
-12.492738 24.214584 6.2905312 14 14
-10.210243 19.798943 -0.3888396 31 7
-12.543561 24.344368 7.338038 13 15
-2.2281544 4.3523216 -1.310142 6 0
-10.298434 20.133566 0.39473855 32 8
-2.6347857 5.1532564 -1.3362092 5 1
-12.204314 23.890429 1.4059533 16 9
-3.1791568 6.2286906 -1.3593234 15 2
-12.260774 24.032 2.3603518 13 10
-4.2872877 8.4106426 -1.4952009 2 3
-12.312665 24.175385 3.331177 14 11
-6.1393628 12.059577 -1.6615667 2 4
-12.391158 24.361032 4.328855 15 12
-7.672668 15.097513 -1.4816475 13 5
-12.446483 24.501537 5.3418889 16 13
-8.7935352 17.325499 -1.0182484 2 6
-12.509342 24.667942 6.3854609 14 14
-10.02748 19.782339 -0.38712928 33 7
-2.1951103 4.3625941 -1.3085891 6 0
-10.103733 20.097775 0.39264426 30 8
-2.5856199 5.1454062 -1.3294607 6 1
-10.375749 20.665806 1.2118915 16 9
-3.1294327 6.2384491 -1.356652 8 2
-12.290956 24.5124 2.3990488 14 10
-4.2328901 8.4491997 -1.4967651 3 3
-12.331068 24.635305 3.3826058 9 11
-6.0434747 12.079065 -1.6583982 3 4
-7.8225813 15.662271 -1.531675 20 5
-9.2134972 18.471333 -1.0817842 18 6
-9.8757544 19.825012 -0.38660571 27 7
-2.1586084 4.3656893 -1.3049657 6 0
-9.9366064 20.114035 0.39159712 28 8
-2.5522237 5.1685739 -1.3308104 6 1
-10.268335 20.812965 1.2162877 14 9
-3.0753877 6.2390137 -1.3520726 6 2
-23.888582 48.483906 4.7287221 11 10
-4.1546059 8.4395542 -1.489882 2 3
-5.9502416 12.103148 -1.6559607 3 4
-7.7218251 15.734387 -1.5334182 19 5
-9.0192738 18.402491 -1.0740386 16 6
-9.742384 19.904253 -0.38681516 36 7
-2.1263871 4.3771782 -1.3039304 6 0
-9.7889576 20.168524 0.39131784 28 8
-2.5160782 5.1862659 -1.3308104 5 1
-10.141949 20.923685 1.2185905 6 9
-3.0291889 6.2550306 -1.3509278 7 2
-23.723135 49.00816 4.7635841 11 10
-4.0887055 8.4541273 -1.4873791 3 3
-5.8414268 12.094342 -1.6491361 2 4
-7.5140142 15.585111 -1.5137209 13 5
-8.4894171 17.631824 -1.0255755 6 6
-9.6092548 19.984398 -0.38705948 34 7
-2.1040988 4.4093509 -1.3091067 7 0
-9.6668482 20.276083 0.39208576 28 8
-2.4680758 5.1790752 -1.3245119 5 1
-9.868556 20.727091 1.203099 13 9
-2.98123 6.2671614 -1.3490196 6 2
-4.0202608 8.4628382 -1.4839375 6 3
-5.7364297 12.091784 -1.6432863 2 4
-7.7955723 16.461905 -1.5935556 23 5
-8.8314695 18.674679 -1.0826217 16 6
-9.4763346 20.06546 -0.3873387 33 7
-2.069983 4.4169364 -1.3070362 5 0
-9.5233736 20.339451 0.39201596 33 8
-2.4335084 5.1997104 -1.3254116 5 1
-21.626474 46.251572 2.675833 9 9
-2.9224503 6.2558036 -1.3421506 14 2
-24.526918 52.526344 5.0717669 12 10
-3.9510639 8.4692163 -1.4801831 2 3
-5.6300831 12.084751 -1.6369492 1 4
-7.7589869 16.677164 -1.6092436 13 5
-8.6798496 18.690594 -1.0800049 20 6
-9.320035 20.096661 -0.38667551 21 7
-2.0350611 4.4225044 -1.3044481 6 0
-9.4089384 20.456486 0.3930282 37 8
-2.3947096 5.2112594 -1.3240619 6 1
-24.228861 52.750092 3.0421848 12 9
-2.8634241 6.2398639 -1.3345182 31 2
-24.061663 52.482571 5.051198 12 10
-3.8916776 8.492322 -1.4795573 2 3
-5.5307097 12.09127 -1.6325619 2 4
-7.6630559 16.776234 -1.6136013 12 5
-8.6319981 18.923689 -1.0900534 18 6
-9.2242527 20.259516 -0.38856038 27 7
-1.9961592 4.4168892 -1.298754 7 0
-9.3506546 20.709396 0.3966234 36 8
-2.3583806 5.2256627 -1.323612 6 1
-21.14926 46.905861 2.696558 9 9
-2.8157601 6.250752 -1.3326101 23 2
-23.522272 52.241825 5.0125008 11 10
-3.8217607 8.4958639 -1.47549 2 3
-5.4417772 12.114148 -1.630612 3 4
-7.6435757 17.047485 -1.6345189 13 5
-8.5005016 18.98531 -1.0901581 16 6
-9.1073685 20.369293 -0.38946792 37 7
-1.9668415 4.4342494 -1.2997893 6 0
-9.2333937 20.83633 0.39781016 32 8
-2.3186843 5.2348733 -1.3218124 5 1
-2.7831669 6.2953963 -1.3379527 12 2
-23.279387 52.68177 5.0389962 11 10
-3.7471969 8.4880018 -1.4695455 2 3
-5.3506651 12.137312 -1.628662 3 4
-7.6471381 17.379454 -1.6611885 12 5
-8.5211992 19.393446 -1.1101505 16 6
-9.0195665 20.556902 -0.39184144 34 7
-1.9427752 4.4638152 -1.3044481 6 0
-2.2743139 5.2330608 -1.3173134 5 1
-24.375652 56.140518 3.2075663 14 9
-2.7352424 6.3056674 -1.3360447 6 2
-22.964926 52.967308 5.0508494 12 10
-3.6854932 8.5085192 -1.4686069 3 3
-5.2571321 12.15433 -1.625981 2 4
-7.6139903 17.628639 -1.680014 8 5
-8.3958864 19.476301 -1.1115111 16 6
-8.9683485 20.834267 -0.39592528 33 7
-1.9085302 4.4701624 -1.3023775 7 0
-21.644518 50.720333 0.96257007 9 8
-2.2361963 5.2452254 -1.3164135 5 1
-16.526669 38.783741 2.209415 5 9
-2.6891818 6.3169141 -1.3345182 6 2
-3.6205368 8.5170469 -1.4657912 2 3
-5.1473403 12.132257 -1.6181813 3 4
-7.57234 17.873993 -1.6983167 11 5
-8.249115 19.499889 -1.1096271 20 6
-8.8919039 21.060326 -0.39903182 28 7
-1.8773141 4.4812665 -1.3018599 6 0
-15.916662 38.031368 0.71963251 5 8
-2.2011957 5.2621217 -1.3168634 6 1
-16.199287 38.763649 2.2017739 15 9
-2.6374519 6.3174167 -1.3307021 6 2
-22.324512 53.499557 5.0717669 12 10
-3.5640285 8.549408 -1.4670426 3 3
-5.0562482 12.146854 -1.6155001 3 4
-7.6017771 18.298088 -1.7335278 14 5
-8.0308924 19.359606 -1.0984272 20 6
-1.8401093 4.479969 -1.2977188 7 0
-15.66369 38.173004 0.72022593 11 8
-2.1636636 5.2755589 -1.3164135 5 1
-15.855577 38.698372 2.1917255 5 9
-2.5962617 6.3429422 -1.3322284 6 2
-21.734707 53.126713 5.021914 11 10
-3.4788463 8.5119114 -1.456405 2 3
-4.9563231 12.145099 -1.6106254 2 4
-7.5429869 18.520472 -1.7495644 9 5
-7.9083323 19.446653 -1.1002066 24 6
-1.809512 4.4944973 -1.2982364 6 0
-2.122422 5.279686 -1.3137141 5 1
-15.263485 38.007462 2.1465073 4 9
-2.5548372 6.3682027 -1.3337549 6 2
-15.204192 37.91721 3.5740829 5 10
-3.4002388 8.4883127 -1.4482704 2 3
-4.870676 12.177561 -1.6103816 2 4
-7.446744 18.655951 -1.7574084 6 5
-7.8233986 19.62941 -1.107429 22 6
-1.7752546 4.4998326 -1.2961658 6 0
-15.194436 38.553562 0.72333246 11 8
-2.0797949 5.2798705 -1.310115 5 1
-14.973654 38.05175 2.1430531 9 9
-2.5117562 6.3895373 -1.3345182 6 2
-3.3300741 8.4842606 -1.4435774 3 3
-4.7797532 12.19648 -1.6084318 2 4
-7.3460712 18.78356 -1.7645551 10 5
-8.001461 20.490982 -1.1528566 23 6
-1.7486713 4.5247297 -1.2997893 6 0
-14.891781 38.572884 0.72172678 11 8
-2.0400801 5.2869883 -1.3083154 5 1
-14.642267 37.985771 2.1335278 4 9
-2.4586217 6.3849311 -1.3299388 6 2
-14.920926 38.769154 3.6343944 11 10
-3.253036 8.4612093 -1.4357557 2 3
-4.6802554 12.19249 -1.603557 2 4
-7.1983757 18.791592 -1.760546 3 5
-8.0658436 21.089191 -1.1833161 19 6
-14.771696 38.683258 -0.72277397 4 7
-1.7156725 4.5332141 -1.298754 7 0
-15.217566 40.250854 0.75111669 6 8
-2.003809 5.3029246 -1.3087653 6 1
-14.455716 38.296349 2.145251 4 9
-2.4112158 6.3945923 -1.3284123 6 2
-14.650606 38.874245 3.6345689 5 10
-3.1827545 8.454133 -1.4307499 3 3
-4.585948 12.200708 -1.6003884 7 4
-7.0341239 18.75371 -1.7523533 4 5
-7.932415 21.182402 -1.1854095 17 6
-1.677271 4.5269661 -1.2935777 6 0
-14.307341 38.657024 0.71949291 5 8
-1.9687672 5.322268 -1.310115 5 1
-14.127087 38.231472 2.13604 4 9
-2.3610756 6.3965349 -1.3253593 6 2
-32.396729 87.815147 8.1889791 52 10
-3.1209238 8.4687319 -1.4294983 2 3
-4.4917483 12.208207 -1.5972198 3 4
-6.887064 18.748795 -1.7474726 5 5
-7.8888292 21.522299 -1.2013196 20 6
-1.641675 4.5276685 -1.2904718 6 0
-14.260537 39.351376 0.73059267 11 8
-1.9262562 5.3212237 -1.3065157 5 1
-13.81896 38.195278 2.1287129 4 9
-2.3121428 6.3976874 -1.3223064 6 2
-3.0444343 8.4377518 -1.420738 2 3
-4.3943062 12.205649 -1.5928324 2 4
-6.7432094 18.76079 -1.7441607 3 5
-7.9148421 22.056749 -1.2281157 6 6
-13.799934 38.541695 -0.7145713 29 7
-1.6121103 4.5423799 -1.2915071 6 0
-13.944707 39.335003 0.72846347 16 8
-1.8841336 5.3176804 -1.3024666 6 1
-12.840952 36.281857 2.0170279 12 9
-2.2634959 6.4025674 -1.3200166 6 2
-13.43786 38.031708 3.5289359 5 10
-2.9841387 8.4550753 -1.4201121 3 3
-4.3032064 12.21281 -1.5899075 2 4
-6.6080799 18.785582 -1.7422433 4 5
-8.0781536 23.016054 -1.2783582 19 6
-13.490321 38.500748 -0.71209311 41 7
-1.5830573 4.5587215 -1.2930601 6 0
-12.823404 36.969185 0.68301737 10 8
-1.8415132 5.3119688 -1.2979677 34 1
-12.983202 37.493259 2.0794125 8 9
-2.2224295 6.4252477 -1.3215431 6 2
-2.917491 8.4490499 -1.415732 2 3
-4.2076845 12.206161 -1.5852765 1 4
-6.4528265 18.750998 -1.7349222 4 5
-7.9654055 23.198959 -1.2854759 16 6
-13.193578 38.491425 -0.71024317 41 7
-1.5519904 4.5693917 -1.2930601 6 0
-12.571484 37.055607 0.68301737 10 8
-1.8003068 5.3096161 -1.2943684 30 1
-12.72835 37.582649 2.0795171 12 9
-2.1748681 6.4290686 -1.3192534 6 2
-12.596004 37.256065 3.4407341 4 10
-2.8460078 8.4275398 -1.408849 3 3
-4.1048441 12.176207 -1.5777208 2 4
-6.3028007 18.728397 -1.7288213 3 5
-11.901364 35.446026 -1.959563 13 6
-12.888054 38.451408 -0.70786959 41 7
-1.5165895 4.5670156 -1.2894366 6 0
-12.36492 37.278873 0.68556541 10 8
-1.7635106 5.3198977 -1.2939185 33 1
-12.536272 37.861816 2.0901937 12 9
-2.126744 6.4306746 -1.3165821 7 2
-12.322735 37.282299 3.4353306 9 10
-2.7922969 8.4579706 -1.4107262 2 3
-4.005713 12.154845 -1.5713835 2 4
-6.1459112 18.681911 -1.7206286 4 5
-11.64549 35.482571 -1.9571555 18 6
-12.599875 38.458431 -0.70640361 45 7
-1.4787017 4.5672417 -1.2863307 6 0
-12.124176 37.492397 0.68779939 10 8
-1.7289293 5.3496718 -1.2979677 23 1
-11.802028 36.56163 2.013469 8 9
-2.0808327 6.453928 -1.3181087 9 2
-11.99491 37.225819 3.4217343 9 10
-2.7208753 8.4542437 -1.4066589 2 3
-3.8979919 12.133533 -1.5648024 2 4
-5.9730773 18.637486 -1.7122618 4 5
-11.335055 35.432011 -1.9496193 23 6
-12.28413 38.46809 -0.70486778 40 7
-1.448527 4.5829797 -1.2878836 6 0
-11.766418 37.272923 0.68224949 10 8
-1.6868486 5.3467441 -1.2943684 5 1
-11.770405 37.353664 2.0525117 4 9
-2.0380826 6.4757891 -1.319635 7 2
-11.798116 37.510105 3.4402113 9 10
-2.661195 8.4711475 -1.4063461 2 3
-3.7959642 12.105522 -1.557734 2 4
-5.815465 18.591259 -1.7042433 5 5
-11.071956 35.460701 -1.9468977 23 6
-11.981377 38.444088 -0.70287824 40 7
-1.4147885 4.5874429 -1.2863307 6 0
-11.504151 37.348423 0.68214476 5 8
-1.6408806 5.3304529 -1.2876198 6 1
-11.958939 38.897278 2.1326904 4 9
-1.9899418 6.4804754 -1.317727 6 2
-11.229675 36.593491 3.3488724 9 10
-2.6048846 8.4989624 -1.4079103 2 3
-3.7043905 12.108948 -1.5548092 2 4
-5.6785531 18.608536 -1.7021517 4 5
-10.822376 35.531399 -1.9465836 13 6
-1.3816146 4.5935078 -1.2852954 7 0
-10.897949 36.27874 0.66120189 9 8
-1.6047475 5.345511 -1.2885196 5 1
-10.990744 36.657288 2.0056188 4 9
-1.9384562 6.4735222 -1.3135291 7 2
-11.313224 37.804798 3.4524133 10 10
-2.5488811 8.5282974 -1.4097875 2 3
-3.5953639 12.052717 -1.5443285 2 4
-5.5303206 18.586618 -1.6965737 5 5
-10.513788 35.403145 -1.9354886 13 6
-12.337345 41.623463 -0.75778347 10 7
-1.3495144 4.6030407 -1.2852954 6 0
-10.928179 37.323093 0.67882884 9 8
-1.5679369 5.3584547 -1.2889696 5 1
-10.578815 36.200176 1.9765199 20 9
-1.8838648 6.4548583 -1.3070416 45 2
-10.931313 37.479279 3.4156334 14 10
-2.492595 8.5572634 -1.4116647 1 3
-3.5000494 12.039401 -1.5394537 1 4
-5.3748074 18.524332 -1.6875095 4 5
-10.214735 35.297256 -1.9257541 9 6
-1.315222 4.6049204 -1.2832248 6 0
-10.872005 38.090775 0.69142944 10 8
-1.526216 5.3542776 -1.2853703 5 1
-10.325597 36.248299 1.9752638 12 9
-1.8371983 6.4580903 -1.3051336 46 2
-10.470651 36.855141 3.35201 9 10
-2.4305134 8.56073 -1.4094746 2 3
-3.4083414 12.036802 -1.5360414 2 4
-5.2274718 18.498133 -1.6817572 3 5
-9.9601431 35.31599 -1.9230326 9 6
-1.2864362 4.6230717 -1.2858131 4 0
-10.330619 37.17543 0.67348832 14 8
-1.480871 5.3326216 -1.277722 4 1
-10.412812 37.547405 2.0420446 4 9
-1.7899746 6.4631901 -1.3036071 45 2
-10.380036 37.505459 3.4046519 9 10
-2.3827963 8.6212807 -1.4166707 1 3
-3.3136625 12.013797 -1.5301917 1 4
-5.0876341 18.495754 -1.6782709 4 5
-9.7085896 35.367329 -1.9220905 9 6
-1.2480732 4.6095634 -1.2796015 1 0
-10.038492 37.126961 0.67132431 9 8
-1.441067 5.3334227 -1.2754724 3 1
-10.14231 37.667431 3.4128444 4 10
-2.3307531 8.6682281 -1.4216765 1 3
-3.2173629 11.990623 -1.5243418 1 4
-4.9393315 18.45961 -1.6718215 2 5
-9.4805069 35.505642 -1.9259634 9 6
-1.2266829 4.6592646 -1.2909895 1 0
-10.285471 39.122379 0.70608944 5 8
-1.4028072 5.3395839 -1.2745727 1 1
-9.9058132 37.758675 2.0458126 4 9
-1.6955789 6.4723592 -1.3005542 2 2
-9.9063244 37.841404 3.4222574 4 10
-3.1035168 11.897541 -1.5097176 1 4
-4.7962952 18.439651 -1.6669407 3 5
-9.244442 35.617363 -1.9284756 9 6
-23.077074 89.104118 -1.6066337 47 7
-9.6151533 37.639374 0.67809576 9 8
-1.3626037 5.3379178 -1.2718732 2 1
-1.6450251 6.46311 -1.2963563 2 2
-9.8403254 38.689724 3.4926791 5 10
-3.0184245 11.911222 -1.5087426 1 4
-4.6508594 18.407007 -1.6610141 2 5
-9.0404968 35.859203 -1.9381053 4 6
-9.3617744 37.7444 0.67879391 4 8
-1.3196791 5.3246021 -1.2664744 1 1
-9.7086926 39.23106 2.1180363 9 9
-1.599864 6.4744368 -1.2963563 1 2
-9.5747385 38.776829 3.4944222 5 10
-2.9219234 11.87803 -1.5019178 1 4
-4.5150108 18.395672 -1.6571794 2 5
-8.8326397 36.096046 -1.9475257 4 6
-11.434288 47.481178 0.85248023 7 8
-1.2792878 5.3204222 -1.2633251 1 1
-9.4909067 39.502083 2.1291316 4 9
-1.5493481 6.4584489 -1.2910137 1 2
-2.8389277 11.898139 -1.5019178 1 4
-4.3592525 18.312387 -1.6468949 1 5
-8.6421356 36.388515 -1.9600865 4 6
-1.2425978 5.3271093 -1.2628752 0 1
-1.495326 6.4308639 -1.2833813 1 2
-2.757874 11.917187 -1.5019178 1 4
-4.1981606 18.198711 -1.6339959 1 5
-11.42115 50.515079 0.90399981 8 8
-1.2216978 5.4078856 -1.2799715 0 1
-18.14308 80.638435 7.2313118 33 10
-4.051899 18.142019 -1.6263262 1 5
-10.800658 49.370701 0.88214934 8 8
-1.1839138 5.4162831 -1.2799715 0 1
-3.9047375 18.060125 -1.6165646 1 5
-1.1460695 5.424417 -1.2799715 0 1
-3.7557511 17.977726 -1.6068033 1 5
-3.6199038 17.952732 -1.6022711 1 5
-9.7343235 49.388165 0.87865883 8 8
-3.4853578 17.930626 -1.5980877 1 5
-0.64845884 14.170985 -1.2410978 0 5
-0.36901447 9.3504467 -1.1489843 1 4
-0.54565203 14.075622 -1.2323822 0 5
-0.30154085 9.2853374 -1.1406971 1 4
-0.23589593 9.2554646 -1.1367973 1 4
-0.84639335 35.650524 -0.6224575 3 7
-0.26839983 27.460508 -0.4793478 2 7
-0.048771963 17.463274 -0.30482376 1 7
0.75863624 7.0290532 1.119758 0 12
0.77970284 6.7802424 1.0809623 0 12
2.3111649 19.883591 4.6213942 1 14
0.77344924 6.4008117 0.56407195 0 10
0.80212456 6.5707088 1.0484239 0 12
0.8151952 6.6488361 1.3020806 0 13
0.57802427 4.5691175 -1.2340492 1 0
0.65229148 5.1345868 -1.19494 0 1
0.71076542 5.5638018 -1.0902827 1 2
0.82671231 6.4624496 0.56999856 1 10
0.85122627 6.6173716 0.81920576 0 11
0.86518466 6.6981678 1.069699 2 12
0.82508945 6.3702526 -0.56198025 0 5
0.86462325 6.6663461 1.3066601 2 13
0.92534637 7.0956917 1.6520406 0 14
0.60530144 4.5305042 -1.2247318 1 0
0.8918497 6.657506 0.11724527 0 8
0.6886375 5.1337714 -1.1958399 1 1
0.74827892 5.5489764 -1.0883746 2 2
0.85047984 6.2985625 0.55605364 3 10
0.86818874 6.4128323 -1.0249587 1 3
0.87790906 6.4676728 0.80141288 1 11
0.9060545 6.6489038 1.0628159 2 12
0.8665753 6.3426223 -0.56006277 0 5
0.91832685 6.7126665 1.3169638 5 13
0.86198014 6.2844558 -0.33243802 1 6
0.98627681 7.1720724 1.6713864 1 14
0.87478185 6.3530803 -0.11193974 1 7
0.63422364 4.5070376 -1.2195554 2 0
0.90813732 6.4372678 0.11347555 0 8
0.72064769 5.1018238 -1.1895411 1 1
0.96948457 6.8462081 0.36237419 1 9
0.79030859 5.5669427 -1.0929539 7 2
0.89499217 6.2964172 0.55640227 7 10
0.90457433 6.3479466 -1.0155727 1 3
0.9222014 6.4554906 0.80068165 1 11
0.93955624 6.5524693 1.0484239 4 12
0.91338533 6.354167 -0.56163162 3 5
0.94670898 6.5778384 1.291777 9 13
0.90069908 6.2427025 -0.33055395 3 6
1.0000558 6.9142861 1.6128991 1 14
0.9191134 6.3468184 -0.11193974 1 7
0.99803042 6.8748741 1.8614267 1 15
0.66821826 4.5196996 -1.2242141 3 0
1.0436381 7.0420017 0.12426113 1 8
0.75681961 5.1005239 -1.190441 1 1
0.97846717 6.5785036 0.3485575 0 9
0.83002239 5.5671148 -1.0940988 7 2
0.93686563 6.2762218 0.5551821 8 10
0.88017422 5.8823748 -0.94204849 2 3
0.95223016 6.3487754 0.78825098 3 11
0.93329269 6.2151189 -0.77167672 0 4
0.97704554 6.4910555 1.0396636 7 12
0.95266742 6.3141446 -0.55866832 4 5
0.97999865 6.487596 1.2753674 12 13
0.93199724 6.1552978 -0.32626238 6 6
1.0254972 6.7568545 1.5778067 4 14
0.96429831 6.3461781 -0.11204445 2 7
0.69413161 4.478653 -1.2143791 2 0
1.1038257 7.1056795 0.12551771 6 8
0.79839665 5.1336284 -1.199439 0 1
1.0443652 6.6997857 0.35536119 2 9
0.86917365 5.5631237 -1.0944804 8 2
0.97019053 6.202601 0.54925549 16 10
0.94508654 6.028306 -0.96645224 5 3
0.98943949 6.2968698 0.78264499 3 11
0.99948746 6.3535647 -0.78971344 0 4
1.0081826 6.3943186 1.0252717 6 12
0.98739547 6.2483006 -0.55343896 6 5
1.0267975 6.4902921 1.2772754 15 13
0.98495567 6.2117648 -0.3296119 6 6
1.0601037 6.6706223 1.5593606 9 14
1.0044979 6.3136182 -0.11159069 4 7
1.0482944 6.5741057 1.7837809 1 15
0.72723669 4.4851389 -1.2174848 6 0
1.1145954 6.8589697 0.12129422 9 8
0.82795846 5.0894599 -1.190441 0 1
1.0843638 6.6509347 0.35316306 5 9
0.90513849 5.5394831 -1.091046 10 2
1.0279456 6.2841573 0.55709946 10 10
0.96893072 5.9104481 -0.94861871 7 3
1.0443178 6.3564081 0.79093212 3 11
1.0405947 6.3268447 -0.78727603 2 4
1.0348078 6.277976 1.007751 14 12
1.0488555 6.349371 -0.56302613 8 5
1.0736849 6.4926505 1.2791836 19 13
1.0230762 6.1732106 -0.32793713 8 6
1.1053704 6.6553693 1.557561 10 14
1.060686 6.3794384 -0.11288217 5 7
1.1338545 6.8048253 1.8484857 5 15
0.75820869 4.4780483 -1.2169672 7 0
1.1841966 6.9791703 0.12356304 5 8
0.85694283 5.0451312 -1.181443 0 1
1.1109964 6.5270352 0.34698743 5 9
0.94610006 5.5465755 -1.0937172 12 2
1.0872155 6.3671708 0.56511784 7 10
1.0111693 5.9093804 -0.9495573 12 3
1.065855 6.2159181 0.77435786 5 11
1.174742 6.8437614 -0.85259801 0 4
1.0705743 6.223876 1.0002421 13 12
1.0738659 6.2299776 -0.55309033 8 5
1.1086404 6.4250216 1.2673534 22 13
1.0675095 6.17379 -0.32835582 8 6
1.1318418 6.5322833 1.5305669 10 14
1.0901603 6.2851853 -0.11134635 7 7
1.1465949 6.5968957 1.7941337 7 15
0.78810763 4.4650364 -1.2148967 10 0
1.1917952 6.7383752 0.11944427 30 8
0.88738734 5.0121613 -1.1751443 0 1
1.1764227 6.6312137 0.35295373 8 9
0.98548663 5.5437012 -1.0944804 11 2
1.0970838 6.1652293 0.54786098 24 10
1.0371428 5.8166103 -0.93579108 9 3
1.1078308 6.2005086 0.7733829 8 11
1.1057644 6.1827288 -0.77118921 1 4
1.1314245 6.3134699 1.0158856 21 12
1.1127524 6.1968365 -0.55082428 8 5
1.1555524 6.4287186 1.2696431 17 13
1.1151841 6.1917405 -0.32971656 11 6
1.180879 6.5433993 1.535066 10 14
1.1215676 6.2085481 -0.11012468 10 7
1.2012243 6.6362543 1.8070747 12 15
0.81681883 4.446125 -1.2112732 9 0
1.2670459 6.8832898 0.12216685 40 8
0.92624146 5.0269251 -1.1800933 4 1
1.2520592 6.7819281 0.36143214 8 9
1.0295187 5.5656443 -1.1002047 13 2
1.1361083 6.1358709 0.54594356 24 10
1.0849289 5.8480735 -0.94204849 13 3
1.1514513 6.1945758 0.77362669 7 11
1.1075088 5.9523759 -0.74340308 0 4
1.1544733 6.1927862 0.99773914 21 12
1.1534266 6.1752071 -0.54960412 12 5
1.1834443 6.3297944 1.2517071 27 13
1.1591189 6.1877308 -0.32992589 21 6
1.2193453 6.4966898 1.526068 13 14
1.1789143 6.2752481 -0.11145107 11 7
1.2682548 6.7378197 1.8370978 6 15
0.84711409 4.4365187 -1.2102379 9 0
1.2560761 6.5659165 0.11668679 34 8
0.95984751 5.0126801 -1.1782937 5 1
1.3230793 6.8965969 0.36802649 4 9
1.0668696 5.5506096 -1.0986782 13 2
1.1736443 6.1003981 0.54350317 39 10
1.1190026 5.8054419 -0.9364168 10 3
1.1957988 6.1922331 0.77435786 10 11
1.221367 6.3187108 -0.79020089 7 4
1.2063169 6.2291799 1.0049351 18 12
1.2044759 6.2080793 -0.55326468 15 5
1.2264829 6.3155961 1.2505622 31 13
1.1935163 6.1343966 -0.32751846 20 6
1.241552 6.3694291 1.4981741 12 14
1.2207835 6.257051 -0.11127654 15 7
1.2974706 6.6377954 1.812251 25 15
0.88069296 4.4437618 -1.2138613 7 0
1.3155144 6.6256366 0.11790846 46 8
0.98987883 4.9810104 -1.1724449 21 1
1.3423353 6.7422395 0.36028075 16 9
1.1067462 5.5488014 -1.0998231 15 2
1.23181 6.1702094 0.55047566 30 10
1.1575679 5.7878032 -0.93485248 13 3
1.2510862 6.2440734 0.78191376 7 11
1.2904313 6.4345956 -0.8058002 7 4
1.2633938 6.2883906 1.0158856 21 12
1.2415 6.1682673 -0.55047566 24 5
1.2693809 6.3011055 1.2494174 27 13
1.228411 6.0867586 -0.32542503 32 6
1.2995051 6.4274592 1.5139207 16 14
1.2636399 6.2444563 -0.11120673 26 7
1.3338001 6.5793486 1.7987925 7 15
0.90042019 4.382628 -1.1988499 4 0
1.3431978 6.5261931 0.11630284 45 8
1.0254151 4.9777951 -1.1733446 31 1
1.4091545 6.8285494 0.36540967 21 9
1.1470444 5.5486307 -1.1013496 16 2
1.3713381 6.6277633 0.59213609 18 10
1.2139831 5.8569517 -0.94736725 5 3
1.2861725 6.1943703 0.77679521 17 11
1.2816019 6.1669354 -0.7733829 17 4
1.2802867 6.1498451 0.99492329 16 12
1.2902268 6.1867552 -0.55291605 28 5
1.2692144 6.080688 1.2074393 9 13
1.3281027 6.3517318 -0.34007907 6 6
1.2688385 6.0577416 1.428889 4 14
1.3063831 6.2315683 -0.11113693 36 7
1.2633684 6.0159268 1.6471245 13 15
0.92456311 4.3460021 -1.1905677 6 0
1.2816098 6.0140219 0.1073323 25 8
1.0564855 4.953362 -1.1692957 39 1
1.2882035 6.0294609 0.32312223 15 9
1.1890401 5.5558457 -1.1044025 16 2
1.2861253 6.0043464 0.53722799 12 10
1.254011 5.8444715 -0.94674152 7 3
1.2976873 6.0377407 0.7582711 7 11
1.5776057 7.3339028 -0.92108858 9 4
1.3007231 6.0364795 0.97802842 11 12
1.3888749 6.4346724 -0.57592511 18 5
1.3000273 6.0179477 1.1967541 17 13
1.3179227 6.0904865 -0.32657638 21 6
1.3102701 6.0449276 1.4279894 7 14
1.3019494 6.0014668 -0.10719268 17 7
1.3077953 6.0182881 1.6502303 10 15
0.95488346 4.3394413 -1.1905677 6 0
1.3171079 5.9756355 0.10680873 11 8
1.0876824 4.9306417 -1.1656964 37 1
1.3194897 5.9715657 0.32050541 20 9
1.2303437 5.5589104 -1.1066922 17 2
1.3237002 5.9757686 0.53548485 35 10
1.2943547 5.8336458 -0.9464286 11 3
1.3290404 5.9800892 0.75217766 10 11
1.334825 6.0011721 -0.75485879 19 4
1.340686 6.017611 0.97646403 13 12
1.3382921 5.9970169 -0.53757662 17 5
1.348428 6.037466 1.2024784 10 13
1.3329376 5.9583464 -0.31998208 11 6
1.4316972 6.389327 1.5116711 16 14
1.3350613 5.9532075 -0.10649458 17 7
1.4662153 6.5273538 1.7925807 36 15
0.97958487 4.3081808 -1.1838384 6 0
1.3579056 5.9623952 0.10673892 41 8
1.1194775 4.9115281 -1.1629969 37 1
1.3624805 5.9680505 0.32081944 47 9
1.2713131 5.5597544 -1.1086004 23 2
1.3662757 5.9702663 0.53583348 43 10
1.3354938 5.8263922 -0.94674152 15 3
1.3836354 6.0267739 0.75924611 3 11
1.363353 5.9336667 -0.74754661 19 4
1.4437979 6.2737637 1.01964 7 12
1.3716238 5.9506397 -0.53426468 25 5
1.4170197 6.1426864 1.2253754 4 13
1.3745023 5.948895 -0.31998208 29 6
1.3712598 5.9254189 1.4041444 17 14
1.3806536 5.9612741 -0.10680873 41 7
1.5497284 6.6806827 1.8376153 28 15
1.0114036 4.3087597 -1.1859089 6 0
1.4022409 5.9644508 0.10694835 35 8
1.1541855 4.9054904 -1.1634469 32 1
1.4059418 5.9661698 0.32123813 6 9
1.3105447 5.5526552 -1.108982 21 2
1.4157116 5.9935451 0.53879678 12 10
1.3761344 5.8169274 -0.94674152 16 3
1.4613756 6.1676331 0.77825767 25 11
1.4093219 5.9433198 -0.74998403 14 4
1.4715863 6.1962643 1.0086895 21 12
1.4140587 5.9447947 -0.53461331 32 5
1.4816922 6.224318 1.2436931 15 13
1.4173923 5.9449816 -0.32029608 41 6
1.50266 6.2928972 1.493675 9 14
1.4189841 5.9378757 -0.1065644 13 7
1.5927299 6.6546707 1.8334742 11 15
1.0346389 4.2734299 -1.1781443 6 0
1.4551588 6.0011563 0.10778606 20 8
1.1879445 4.8954191 -1.1629969 31 1
1.4513354 5.9717345 0.32207552 1 9
1.351135 5.5510006 -1.1105084 16 2
1.5056138 6.1809669 0.55657655 34 10
1.4162425 5.8052592 -0.9464286 31 3
1.4992155 6.1360683 0.77557659 25 11
1.4526657 5.9410491 -0.75095892 8 4
1.5119894 6.1743274 1.0068123 29 12
1.4597951 5.9521942 -0.53618211 10 5
1.5213693 6.1985688 1.2406402 28 13
1.4688705 5.9756727 -0.32249418 15 6
1.5703132 6.378757 1.5166199 15 14
1.4809699 6.0113158 -0.1080653 13 7
1.636373 6.6321359 1.8303684 30 15
1.062577 4.258605 -1.1760738 6 0
1.5750698 6.3031979 0.11340573 51 8
1.21831 4.871882 -1.1593977 33 1
2.8244064 11.277751 0.60929525 14 9
1.3936762 5.5566669 -1.1135614 16 2
1.5346622 6.114264 0.55152148 62 10
1.458181 5.8009782 -0.94736725 7 3
1.5478323 6.1485529 0.77850145 21 11
1.5173839 6.0231609 -0.76265842 14 4
1.5444263 6.1214838 0.99992919 26 12
1.596976 6.3204675 -0.57034713 31 5
1.5737476 6.2239614 1.2478909 31 13
1.6213561 6.402842 -0.34615004 26 6
1.6263039 6.4129739 1.5274177 20 14
1.5533981 6.1210022 -0.1102294 36 7
2.6567154 10.453204 2.8899736 3 15
1.0913224 4.2473407 -1.1750386 6 0
1.6150496 6.2765555 0.1131265 45 8
1.246461 4.8406119 -1.1539989 34 1
2.8656669 11.112708 0.6014449 35 9
1.4383233 5.569613 -1.1181407 15 2
1.5793047 6.1111174 0.55221879 46 10
1.5035903 5.8097806 -0.9504959 8 3
1.6091466 6.2086959 0.78751975 19 11
1.6050022 6.1793818 1.0111924 30 12
2.143111 8.2393217 -0.74483299 7 5
1.6305133 6.2641211 1.2581946 28 13
1.6428428 6.3024635 -0.34133515 11 6
1.7000755 6.512712 1.5539619 22 14
1.5829521 6.0597038 -0.10932188 36 7
2.6709578 10.210127 2.827857 5 15
1.1214415 4.2414856 -1.1755562 7 0
1.6357937 6.1781392 0.11155578 52 8
1.2837183 4.8449779 -1.1571481 31 1
2.8530235 10.752671 0.58302259 13 9
1.4791907 5.5670252 -1.1196673 15 2
1.6183431 6.0864654 0.55099863 43 10
1.5568231 5.8468633 -0.95831764 10 3
1.6151174 6.057291 0.76972687 22 11
1.6269217 6.0972867 -0.77484536 17 4
1.657792 6.2042861 1.0171371 29 12
1.6644658 6.2205677 -0.5633747 14 5
1.6889315 6.3075819 1.2692615 31 13
1.606106 5.9898996 -0.32500634 14 6
1.7389317 6.4762173 1.5481132 16 14
1.642861 6.1141658 -0.11050864 59 7
2.6849501 9.9785652 2.7688463 3 15
1.1459552 4.2149124 -1.1703798 7 0
1.7182835 6.3112788 0.11417364 50 8
1.3200703 4.8452997 -1.1593977 19 1
2.8591583 10.480076 0.56931055 15 9
1.5185372 5.5584564 -1.1200489 13 2
1.6686791 6.1038456 0.55361325 53 10
1.5819567 5.7786942 -0.94893163 28 3
1.6725825 6.1013875 0.77679521 20 11
1.6631473 6.0628076 -0.77192044 17 4
1.6900748 6.1525612 1.0105668 25 12
1.6682243 6.0647173 -0.55030131 20 5
1.7495953 6.3562098 1.2814733 27 13
1.646295 5.972764 -0.32469231 35 6
1.8354316 6.6498909 1.5926535 14 14
1.6807145 6.0851994 -0.11019449 45 7
2.6989319 9.7584867 2.7129414 6 15
1.1711941 4.1919241 -1.1662387 7 0
1.7342899 6.1989889 0.11235859 46 8
1.35439 4.8378425 -1.1598476 6 1
2.8783467 10.267546 0.55884337 1 9
1.5631394 5.5685124 -1.1242466 15 2
1.7333424 6.170692 0.56076008 43 10
1.6292114 5.7922301 -0.95299888 20 3
1.725901 6.1277776 0.78167003 26 11
1.7027377 6.0414968 -0.77070183 7 4
1.752838 6.2109537 1.0221429 30 12
1.7208178 6.0893517 -0.55361325 24 5
1.8334631 6.4836383 1.309713 23 13
1.7086301 6.0341492 -0.32866985 41 6
1.9073248 6.7269082 1.6142488 11 14
1.7351643 6.1156406 -0.1109624 50 7
2.7068021 9.5275602 2.6539307 4 15
1.1982994 4.176218 -1.1641681 7 0
1.8167279 6.3231893 0.11483683 54 8
1.3827493 4.8095398 -1.1553485 5 1
2.8897266 10.037997 0.54743415 12 9
1.6063273 5.572556 -1.1272997 15 2
1.7587068 6.0971823 0.5551821 44 10
1.6679647 5.7750216 -0.95206028 30 3
1.7653328 6.1041369 0.78020763 22 11
1.7603251 6.0828538 -0.77752644 10 4
1.8071545 6.2365108 1.0284003 27 12
1.8578814 6.399035 1.2952114 29 13
1.7451364 6.0028963 -0.32762313 47 6
2.8360457 9.7427034 2.3426404 9 14
1.7906768 6.1475368 -0.11176521 44 7
2.715915 9.3118458 2.599061 6 15
1.2246969 4.1584849 -1.16158 7 0
1.8715739 6.3467946 0.11550003 49 8
1.4129812 4.7885551 -1.1526492 6 1
2.9240823 9.8969078 0.54083985 64 9
1.6490904 5.5743837 -1.1299709 12 2
1.8131067 6.1248746 0.5588426 42 10
1.7166618 5.7916455 -0.95675331 15 3
1.8316232 6.1715932 0.79044467 23 11
1.8072724 6.0856395 -0.7794764 6 4
1.8596549 6.2540383 1.0334063 31 12
1.786907 6.0017171 -0.54786098 33 5
1.9176416 6.4367108 1.3055153 29 13
1.7618812 5.906354 -0.32301757 40 6
2.8225727 9.4500504 2.2769547 7 14
1.8243891 6.1042299 -0.11120673 49 7
2.7326772 9.1316404 2.5540264 6 15
1.2536988 4.1498337 -1.16158 6 0
1.9355227 6.3986516 0.11668679 49 8
1.4463772 4.778574 -1.1526492 6 1
2.985574 9.8514051 0.53947908 10 9
1.6896769 5.5683708 -1.1311158 8 2
1.8783975 6.186419 0.56564075 41 10
1.7587771 5.7851896 -0.95769191 16 3
1.8879598 6.2023339 0.79605067 22 11
1.850868 6.0766721 -0.77996385 16 4
1.9378445 6.3542714 1.0521784 28 12
1.8468008 6.0481682 -0.55326468 28 5
2.0399776 6.6766381 1.3570337 27 13
1.8352076 5.9989533 -0.32877451 42 6
2.8884776 9.4301157 2.2769547 7 14
1.9173582 6.2557678 -0.11420855 45 7
2.7396858 8.9276552 2.5022626 6 15
1.2820679 4.1391344 -1.1610622 7 0
2.0014672 6.4537425 0.11794336 52 8
1.4791251 4.766499 -1.1521993 2 1
2.902566 9.3420496 0.51268309 16 9
1.7255944 5.5470657 -1.1292077 7 2
1.9245019 6.1826663 0.56651235 44 10
1.8038245 5.787858 -0.96019489 13 3
1.9359444 6.2041612 0.79800051 24 11
1.8802299 6.0219159 -0.77460164 20 4
1.9833375 6.3443584 1.0528041 27 12
1.8871975 6.0294223 -0.55274171 36 5
1.8633015 5.942162 -0.32636705 44 6
2.8106406 8.952342 2.1662786 6 14
1.9555912 6.2250605 -0.11389441 46 7
2.7503548 8.7442999 2.456193 5 15
1.3056712 4.1135116 -1.1564035 6 0
1.5094106 4.7467718 -1.1499498 45 1
2.9325769 9.211174 0.50661212 13 9
1.7630858 5.5311432 -1.1284446 7 2
1.9900188 6.2393131 0.57296187 39 10
1.839981 5.7619505 -0.95800477 23 3
2.0009706 6.2585649 0.80677515 23 11
1.9034746 5.9500303 -0.76704568 23 4
2.1034992 6.5673943 1.0922256 21 12
1.89943 5.9231367 -0.54420048 29 5
2.0940139 6.5259943 1.3322284 11 13
1.9291729 6.0050716 -0.33055395 41 6
2.8593476 8.8898354 2.155931 1 14
2.1025333 6.5329552 -0.11979332 49 7
2.7556407 8.552042 2.4075348 7 15
1.3295788 4.0895987 -1.1522624 7 0
2.8898113 8.8781013 0.16297057 13 8
2.9757597 9.1259155 0.50305325 4 9
1.8053105 5.5298982 -1.1307341 7 2
2.0118759 6.1589808 0.56686091 43 10
1.8862997 5.7677407 -0.96113342 27 3
2.0995939 6.412344 0.82846785 22 11
1.972158 6.0196009 -0.77777022 23 4
1.9531678 5.9475908 -0.5476867 33 5
2.8645415 8.7176828 1.7836826 15 13
1.9410901 5.9003901 -0.32552966 47 6
2.9195073 8.8641043 2.1545811 18 14
2.1180475 6.4269547 -0.11811788 45 7
2.7698803 8.3950033 2.3687119 7 15
1.3587092 4.0820489 -1.1527801 6 0
2.3890643 7.1692638 0.13190529 22 8
1.5681446 4.7030497 -1.1445509 3 1
2.9894328 8.9552555 0.49478418 19 9
1.8476062 5.5283318 -1.1330239 7 2
2.1104257 6.3110662 0.58220035 48 10
1.9146049 5.7188416 -0.95518899 28 3
2.1663895 6.4634061 0.83699876 23 11
2.0223432 6.0301518 -0.78093886 21 4
2.1679566 6.4568601 1.0787722 3 12
2.0213025 6.0131307 -0.55500776 31 5
2.2775538 6.771523 1.388708 2 13
2.0300386 6.028657 -0.33338007 43 6
2.1411335 6.3475885 -0.11693113 43 7
2.8284211 8.3754616 2.3687119 6 15
1.3921553 4.0870938 -1.1569211 7 0
2.5248981 7.4041357 0.13654763 11 8
1.5965326 4.6790771 -1.1414016 4 1
3.0195982 8.8396654 0.48955056 70 9
1.8772649 5.4892912 -1.1276813 7 2
2.1524987 6.2905231 0.58167744 49 10
1.9525656 5.699728 -0.9542504 27 3
2.0334651 5.9257607 -0.76923937 19 4
2.8759768 8.3714218 1.4019659 5 12
2.0561044 5.978147 -0.55309033 36 5
2.0610144 5.9822373 -0.33160067 40 6
2.8415644 8.2384872 2.0119622 6 14
2.1462548 6.2190685 -0.11483683 51 7
2.8811462 8.3390779 2.3640532 7 15
1.4136626 4.0572081 -1.1512272 6 0
2.9097896 8.3417168 0.15420946 12 8
1.6240225 4.6530981 -1.1378024 2 1
1.9090568 5.457521 -1.123865 7 2
2.2384892 6.3956957 0.59283334 56 10
2.0158253 5.7530708 -0.96551365 27 3
2.2301359 6.3576016 0.82724917 9 11
2.0576923 5.8627195 -0.76290214 28 4
2.8891621 8.2225475 1.3803779 4 12
2.1110153 6.0012364 -0.55657655 36 5
2.1033947 5.9695854 -0.33170533 43 6
2.8581705 8.1026697 1.9836185 6 14
2.2169065 6.2812462 -0.11626793 48 7
2.8929548 8.1876135 2.3267834 2 15
1.436766 4.0326819 -1.147086 6 0
2.9175711 8.1799393 0.15159161 16 8
1.6702224 4.6801901 -1.1472504 5 1
2.9881804 8.3640509 0.46547604 5 9
1.943805 5.4348168 -1.1219569 7 2
2.2797287 6.370533 0.5919618 20 10
2.0586021 5.7462969 -0.96676511 26 3
2.2871988 6.3773804 0.83188021 17 11
2.0918641 5.8295283 -0.76046479 30 4
2.9137721 8.111083 1.3650473 0 12
2.1542089 5.9901023 -0.55692518 39 5
2.8595676 7.9471025 1.6417207 1 13
