# .PCD v0.7 - Point Cloud Data file format
VERSION 0.7
FIELDS x y z intensity ring
SIZE 4 4 4 4 2
TYPE F F F F U
COUNT 1 1 1 1 1
WIDTH 1337
HEIGHT 1
VIEWPOINT 0 0 0 1 0 0 0
POINTS 1337
DATA ascii
-2.1776035 6.4260693 -1.3188719 7 2
-2.86308 8.4634733 -1.4151063 3 3
-4.1226501 12.207908 -1.5821079 2 4
-6.3341565 18.799828 -1.7356194 4 5
-11.946028 35.51741 -1.9638547 13 6
-13.020844 38.780193 -0.71404773 42 7
-1.5200121 4.5719862 -1.2909895 6 0
-12.359023 37.217621 0.68451828 10 8
-1.7659812 5.3211312 -1.2943684 30 1
-12.557028 37.880184 2.0914497 8 9
-2.1363938 6.4522967 -1.3211615 6 2
-12.333244 37.270428 3.4346333 14 10
-2.7902896 8.4419909 -1.4082233 2 3
-4.0248885 12.198687 -1.5772332 3 4
-6.1722212 18.750862 -1.7270782 3 5
-11.676579 35.535427 -1.9602958 9 6
-12.71364 38.759941 -0.71202326 45 7
-1.4862665 4.5769739 -1.2894366 6 0
-12.106915 37.327724 0.68497205 10 8
-1.7281886 5.3314772 -1.2939185 28 1
-11.941606 36.883842 2.0317867 8 9
-2.0919003 6.4689221 -1.3215431 9 2
-12.040886 37.257042 3.4255691 9 10
-2.736743 8.4781857 -1.411039 3 3
-3.92014 12.166029 -1.5694335 3 4
-6.0064192 18.685375 -1.7171425 5 5
-11.373307 35.44492 -1.9508753 18 6
-12.397617 38.706825 -0.70944035 41 7
-1.4548609 4.5890803 -1.2899542 6 0
-11.807993 37.291233 0.68277305 10 8
-1.6932777 5.3508439 -1.2957181 6 1
-11.849945 37.49192 2.0606761 4 9
-2.0466878 6.4833689 -1.3215431 7 2
-11.881798 37.661308 3.4550278 10 10
-2.6786785 8.5008507 -1.4116647 2 3
-3.8130782 12.123034 -1.5604153 2 4
-5.8519568 18.650814 -1.71017 4 5
-11.113622 35.485336 -1.9487817 13 6
-12.068004 38.603493 -0.70598477 41 7
-1.4245005 4.6046619 -1.2915071 5 0
-11.514895 37.267681 0.68085325 4 8
-1.6518557 5.3495007 -1.2925688 6 1
-11.533175 37.396244 2.0509417 8 9
-1.9927064 6.4693556 -1.3158189 7 2
-11.41225 37.073059 3.3936703 9 10
-2.619266 8.5193443 -1.4116647 2 3
-3.7184501 12.117097 -1.5562717 2 4
-5.7117019 18.658825 -1.7072067 4 5
-10.850461 35.512394 -1.9460604 13 6
-1.3889707 4.6033974 -1.2884012 6 0
-10.890945 36.140934 0.65886325 18 8
-1.6161549 5.3665004 -1.2939185 5 1
-11.119371 36.969006 2.0232036 4 9
-1.9474933 6.48311 -1.3158189 7 2
-11.259706 37.506763 3.4260921 9 10
-2.5631301 8.5487757 -1.4135419 2 3
-3.6229527 12.106627 -1.5516406 2 4
-5.5590739 18.623787 -1.7004085 4 5
-10.565207 35.462864 -1.9392567 13 6
-12.37537 41.618427 -0.7578882 5 7
-1.355709 4.6092758 -1.287366 7 0
-10.787175 36.722599 0.66807812 9 8
-1.5737098 5.3608236 -1.2898693 6 1
-10.661551 36.365337 1.9860451 12 9
-1.8939101 6.4682851 -1.3100946 41 2
-10.969048 37.486935 3.4172022 9 10
-2.5033858 8.5664616 -1.4135419 2 3
-3.5188911 12.064928 -1.5431098 1 4
-5.4005375 18.564575 -1.6915187 4 5
-10.300108 35.476299 -1.9360118 9 6
-1.3240315 4.6204839 -1.2878836 6 0
-10.891442 38.058189 0.69097573 10 8
-1.5303519 5.3510699 -1.2849205 5 1
-10.382165 36.350548 1.9812303 8 9
-1.8433214 6.4624701 -1.3062785 46 2
-10.48806 36.794258 3.3473034 9 10
-2.4381113 8.5647306 -1.4104134 2 3
-3.4275236 12.064377 -1.5399412 2 4
-5.2577653 18.55582 -1.6873351 4 5
-9.9902287 35.328247 -1.9240792 9 6
-1.2875886 4.6147289 -1.2837424 4 0
-10.349609 37.143166 0.67303461 9 8
-1.4887776 5.3466043 -1.2813212 4 1
-1.7950083 6.4638314 -1.3039887 45 2
-10.389184 37.436764 3.3990738 9 10
-2.3919756 8.6310377 -1.418548 1 3
-3.331044 12.044005 -1.5343351 2 4
-5.119616 18.561342 -1.6845462 3 5
-9.7359276 35.370171 -1.9226137 9 6
-1.2583774 4.6347914 -1.2868483 2 0
-10.046597 37.054329 0.67013752 14 8
-1.4503958 5.353106 -1.2804214 3 1
-10.154778 37.53112 2.0376484 4 9
-1.7529141 6.487576 -1.3062785 6 2
-10.108858 37.43914 3.3927987 4 10
-2.3398936 8.6780415 -1.4235538 1 3
-3.2283173 11.997957 -1.5255606 1 4
-4.9708047 18.525433 -1.6780967 2 5
-9.5011568 35.483582 -1.925126 9 6
-1.2208785 4.6208367 -1.2806368 1 0
-1.4109439 5.3515482 -1.277722 3 1
-9.8985863 37.597435 2.0375438 8 9
-1.7007269 6.4689779 -1.3001726 3 2
-9.8477268 37.483955 3.390707 9 10
-3.1273961 11.954907 -1.5172734 1 4
-4.8325133 18.512573 -1.6739132 3 5
-9.2845802 35.644073 -1.9303596 9 6
-9.6375656 37.590294 0.6773628 4 8
-1.3682629 5.3445168 -1.2736728 1 1
-9.4071836 36.798477 1.9905459 4 9
-1.6477488 6.4502592 -1.2940667 2 2
-3.0370131 11.949513 -1.5138612 1 4
-4.68749 18.484056 -1.6683351 2 5
-9.0625725 35.841267 -1.9374772 9 6
-9.3499842 37.584553 0.67603642 4 8
-1.3280971 5.3425913 -1.2709734 1 1
-9.6918297 39.045937 2.1084065 4 9
-1.6067449 6.4828467 -1.2982645 1 2
-9.6185875 38.837818 3.5005231 5 10
-2.9497113 11.955006 -1.5119112 1 4
-4.5389194 18.451345 -1.6624086 2 5
-8.8507128 36.060776 -1.9459558 4 6
-11.47463 47.539333 0.85363209 7 8
-1.2861973 5.3327889 -1.2664744 1 1
-9.4891424 39.403908 2.1241074 4 9
-1.5531884 6.4595456 -1.2913953 1 2
-4.390573 18.401188 -1.6550876 2 5
-8.6671972 36.409241 -1.9614471 4 6
-11.949529 50.31461 -0.90267342 7 7
-1.2502671 5.3473315 -1.2678242 0 1
-9.2855768 39.776489 2.1406455 4 9
-1.5169641 6.5084724 -1.2990277 1 2
-4.2270355 18.265656 -1.6402711 1 5
-8.5286303 36.97097 -1.9884526 4 6
-1.2189336 5.3825374 -1.2741227 0 1
-10.862383 48.004845 2.5794303 8 9
-4.0771961 18.195566 -1.6313812 1 5
-1.1906143 5.4287806 -1.2831209 0 1
-3.9352956 18.155436 -1.6252803 1 5
-3.7904875 18.096664 -1.6176106 1 5
-3.6498339 18.052382 -1.6113354 1 5
-9.7621193 49.392872 0.87883341 8 8
-3.5061812 17.987467 -1.6033171 1 5
-3.3717074 17.964508 -1.5991336 1 5
-3.2462094 17.98761 -1.5991336 1 5
-0.65605164 14.282328 -1.2508591 0 5
-0.372931 9.4079037 -1.1560526 1 4
-0.55244994 14.187016 -1.2421436 0 5
-0.30464676 9.3309164 -1.1463031 1 4
-0.17469741 9.2667494 -1.138016 1 4
-0.59850699 34.987553 -0.61079931 3 7
-0.27840272 27.500402 -0.48004588 2 7
-0.054821406 17.451256 -0.30461431 1 7
0.77806884 6.776453 1.0803366 0 12
0.61460549 5.1313834 -1.1931404 0 1
0.67351681 5.5901861 -1.0944804 1 2
0.78856164 6.5354533 0.57592511 0 10
0.81675351 6.7002649 1.0690732 0 12
0.81308055 6.6411834 1.3005542 0 13
0.65531689 5.1656327 -1.2021384 0 1
0.71153349 5.5775585 -1.0929539 1 2
0.82457453 6.4546885 0.56930131 1 10
0.85158885 6.629333 0.82066822 0 11
0.86502659 6.7061553 1.0709505 2 12
0.81937736 6.3348298 -0.5588426 0 5
0.8770774 6.7716346 1.3272674 1 13
0.91504812 7.0262856 1.6358441 0 14
0.60655689 4.5459285 -1.2288729 1 0
0.88830137 6.639823 0.11693113 0 8
0.68463898 5.110713 -1.190441 1 1
0.74887997 5.560781 -1.0906643 2 2
0.85364085 6.3303037 0.5588426 2 10
0.86706644 6.4129839 -1.0249587 1 3
0.87598342 6.4619246 0.80068165 1 11
0.90782756 6.6705928 1.0662575 3 12
0.85819554 6.2894731 -0.55535638 0 5
0.91901565 6.7264423 1.319635 5 13
0.86250973 6.2964787 -0.33306605 1 6
0.97389233 7.0911584 1.6524904 0 14
0.87558001 6.3671002 -0.11218407 1 7
0.63639659 4.5281916 -1.2252494 2 0
0.90003586 6.3879232 0.11260293 1 8
0.71975732 5.1019492 -1.1895411 2 1
0.9601754 6.7890272 0.3593387 1 9
0.78851277 5.5612488 -1.0918092 6 2
0.89725089 6.3202453 0.55849403 8 10
0.90513945 6.359838 -1.0174499 1 3
0.91995323 6.4477906 0.7997067 2 11
0.93617237 6.5369897 1.045921 4 12
0.91255653 6.3562984 -0.5618059 3 5
0.95086837 6.6149259 1.2990277 7 13
0.89818227 6.232976 -0.33003056 3 6
1.0194701 7.0571847 1.6461918 1 14
0.92573136 6.4004149 -0.11288217 1 7
0.66770953 4.5217276 -1.2247318 4 0
2.5984099 17.554028 0.30974531 1 8
0.75678408 5.1064391 -1.1917907 2 1
0.97819954 6.5846009 0.34887153 0 9
0.82760769 5.5575504 -1.0921907 5 2
0.93870831 6.2960911 0.55692518 8 10
0.88002634 5.8883886 -0.94298708 5 3
0.95111907 6.3489418 0.78825098 3 11
0.97884637 6.5107608 1.0427923 6 12
0.95008385 6.3044591 -0.55779672 4 5
0.98794305 6.5479465 1.2871976 13 13
0.9371978 6.1969309 -0.32846051 5 6
1.024902 6.7608867 1.5787065 4 14
0.96289366 6.3443689 -0.11200955 2 7
0.69837421 4.511229 -1.2231789 2 0
1.1013626 7.0979676 0.12537809 7 8
0.79361182 5.1087337 -1.1935903 1 1
1.0367461 6.6585236 0.35316306 2 9
0.86487019 5.5419383 -1.0902827 8 2
0.96849585 6.1988325 0.54890686 14 10
0.95136631 6.0753098 -0.97396111 3 3
0.99357313 6.3303804 0.78678852 3 11
1.0095252 6.4101052 1.0277746 5 12
0.9856866 6.2445359 -0.55309033 6 5
1.0259712 6.4924102 1.277657 14 13
0.9832496 6.2079906 -0.32940254 6 6
1.0583254 6.6669588 1.558461 9 14
1.0002574 6.2940435 -0.11124164 3 7
1.0459316 6.566658 1.7817104 1 15
0.72799832 4.494801 -1.220073 6 0
1.1367878 7.0032563 0.12384228 8 8
0.8270703 5.0896044 -1.190441 0 1
1.0706825 6.5742445 0.34908086 4 9
0.90512049 5.5454535 -1.0921907 10 2
1.021384 6.2509103 0.55413622 13 10
0.98417985 6.0100374 -0.96457505 7 3
1.0412825 6.3448372 0.78946966 4 11
1.0465705 6.37012 -0.79263824 3 4
1.0330733 6.2742577 1.0071251 14 12
1.0402837 6.3043413 -0.55901694 6 5
1.071595 6.4870262 1.2780387 19 13
1.0233036 6.1812711 -0.32835582 8 6
1.1086711 6.682477 1.5638597 11 14
1.061866 6.3934321 -0.1131265 5 7
1.131712 6.7993059 1.8469328 2 15
0.75742716 4.4781804 -1.2169672 7 0
1.1823102 6.9754333 0.12349322 1 8
0.85932225 5.0644937 -1.1859419 0 1
1.108518 6.5193534 0.34656873 6 9
0.94645107 5.554482 -1.0952437 11 2
1.0703589 6.2750516 0.55692518 11 10
1.008141 5.8978744 -0.94768006 10 3
1.0674515 6.2317572 0.77630776 5 11
1.1443599 6.673748 -0.83139277 0 4
1.0728333 6.2435312 1.0033708 14 12
1.074128 6.2380195 -0.55378759 8 5
1.1065186 6.4194102 1.2662085 24 13
1.0657493 6.1700406 -0.32814649 9 6
1.1330312 6.5459208 1.5337163 11 14
1.1047647 6.3760118 -0.11295197 7 7
1.1467688 6.6047087 1.7962043 2 15
0.78867227 4.4727836 -1.2169672 11 0
1.2031447 6.809474 0.12070084 28 8
0.89330059 5.0506954 -1.1841424 0 1
1.1770079 6.6412516 0.35347709 7 9
0.98795187 5.5632033 -1.0982966 12 2
1.0960078 6.165421 0.54786098 25 10
1.0402846 5.8401289 -0.93954557 10 3
1.1084898 6.210474 0.77460164 5 11
1.1769611 6.58743 -0.82164317 4 4
1.1306677 6.3156114 1.0161984 21 12
1.1085048 6.1793804 -0.54925549 12 5
1.1533864 6.4231234 1.2684983 21 13
1.1109203 6.1742439 -0.32877451 10 6
1.1793944 6.5416875 1.5346161 11 14
1.1233251 6.2244864 -0.11040393 9 7
1.1986943 6.6288595 1.8050041 7 15
0.81848413 4.4595685 -1.2148967 10 0
1.2647563 6.8776112 0.12206213 25 8
0.92889202 5.0462518 -1.1845922 4 1
1.2450763 6.7507215 0.35975742 9 9
1.025696 5.5503793 -1.0971519 13 2
1.1419201 6.1732931 0.54925549 21 10
1.0860708 5.8599162 -0.94392568 11 3
1.1496452 6.1908731 0.77313918 9 11
1.3723819 7.3831377 -0.92206353 5 4
1.1559243 6.2065811 0.99992919 20 12
1.1549103 6.1891179 -0.55082428 15 5
1.1808976 6.3222809 1.2501806 27 13
1.1547353 6.1702638 -0.32898384 23 6
1.2185675 6.4988179 1.5265179 14 14
1.1792977 6.2833152 -0.11159069 10 7
2.5270107 13.438111 3.6638427 0 15
0.84850967 4.4480529 -1.2133437 9 0
1.2590625 6.5877409 0.11707074 41 8
0.96263182 5.0319886 -1.1827927 5 1
1.3151118 6.8615189 0.36614239 10 9
1.0647901 5.545011 -1.0975335 16 2
1.1703262 6.0888638 0.54245734 42 10
1.1172423 5.8017573 -0.93579108 11 3
1.1920826 6.1787987 0.77265167 11 11
1.2236519 6.3364658 -0.79239452 7 4
1.1969719 6.1867237 0.998052 18 12
1.1992248 6.1867723 -0.5513472 20 5
1.2261255 6.319665 1.2513254 31 13
1.1966375 6.1561704 -0.32866985 19 6
1.2382053 6.3581686 1.4954746 15 14
1.2193059 6.255301 -0.11124164 12 7
1.2985337 6.6493974 1.8153569 23 15
0.88029277 4.4458113 -1.2143791 9 0
1.3143612 6.6258659 0.11790846 51 8
0.99508178 5.0117655 -1.1796434 6 1
1.3505135 6.7894859 0.36279288 15 9
1.1050079 5.5451446 -1.0990598 17 2
1.2280051 6.1567469 0.54925549 33 10
1.1635222 5.8228731 -0.94048411 15 3
1.2542856 6.2657022 0.78459489 12 11
1.292425 6.4503927 -0.80775005 9 4
1.2615188 6.2847371 1.0152597 23 12
1.2388524 6.1606703 -0.5497784 27 5
1.2675066 6.2974782 1.2486541 31 13
1.2309015 6.1045933 -0.32636705 25 6
1.2972258 6.4219561 1.512571 17 14
1.265324 6.2583966 -0.11145107 26 7
1.3410887 6.6212358 1.8101805 15 15
0.90626109 4.4149551 -1.2076497 2 0
1.3376249 6.5048823 0.11591888 23 8
1.0280843 4.995152 -1.1773938 21 1
1.4027165 6.8033662 0.36404896 20 9
1.146076 5.548831 -1.1013496 16 2
1.3572712 6.565567 0.58655816 14 10
1.2105545 5.8455582 -0.94549 3 3
1.2798526 6.1693268 0.77362669 15 11
1.2832175 6.1747093 -0.77435786 21 4
1.298123 6.2409658 1.0096282 15 12
1.2891471 6.1869802 -0.55291605 34 5
1.2804463 6.1344995 1.2181247 12 13
1.286968 6.1603684 -0.32982123 12 6
1.2701763 6.0694075 1.4315885 4 14
1.3104861 6.2511401 -0.11148597 35 7
1.2650955 6.0293822 1.6507479 15 15
0.92978889 4.3705664 -1.197297 6 0
1.2838918 6.0298924 0.10761154 27 8
1.0581115 4.9609852 -1.1710953 41 1
1.2882035 6.0294609 0.32312223 16 9
1.1888942 5.5598927 -1.1051657 15 2
1.2873771 6.0101905 0.5377509 17 10
1.2544254 5.8464026 -0.94705439 7 3
1.2991343 6.049613 0.75973356 6 11
1.5968093 7.4231749 -0.93230057 15 4
1.3011392 6.0384107 0.97834122 11 12
1.3890089 6.4407582 -0.57644808 21 5
1.3008565 6.0217862 1.1975174 18 13
1.3255262 6.1256242 -0.32846051 13 6
1.3096304 6.04706 1.4284393 6 14
1.3032212 6.0073295 -0.1072974 18 7
1.3094361 6.0258393 1.6523008 13 15
0.95778954 4.3526478 -1.1941911 7 0
1.31926 5.9853997 0.10698325 13 8
1.0918803 4.9496713 -1.1701953 37 1
1.3177661 5.9637651 0.32008675 20 9
1.2303437 5.5589104 -1.1066922 16 2
1.3241311 5.9777141 0.53565919 30 10
1.2943547 5.8336458 -0.9464286 12 3
1.3337777 6.0014052 0.75485879 13 11
1.3335321 5.9953589 -0.75412756 17 4
1.340686 6.017611 0.97646403 13 12
1.3374244 5.9931283 -0.53722799 17 5
1.3462882 6.0278854 1.2005702 10 13
1.3359897 5.9719896 -0.32071477 11 6
1.4295667 6.3798189 1.5094216 16 14
1.3368118 5.9610124 -0.1066342 14 7
1.4683323 6.5367785 1.795169 35 15
0.98386806 4.3270178 -1.1890148 6 0
1.3592378 5.9682446 0.10684364 41 8
1.1251074 4.9362283 -1.1688457 45 1
1.3633696 5.9719448 0.3210288 43 9
1.2660615 5.536788 -1.104021 23 2
1.3671646 5.9741507 0.53618211 36 10
1.3377005 5.8360195 -0.94830585 13 3
1.3836354 6.0267739 0.75924611 4 11
1.3664646 5.9472094 -0.7492528 17 4
1.445127 6.2795386 1.0205785 8 12
1.3716238 5.9506397 -0.53426468 25 5
1.3980438 6.0604272 1.2089659 3 13
1.375851 5.9547329 -0.32029608 28 6
1.3765322 5.9482017 1.4095433 11 14
1.3765929 5.9437413 -0.10649458 32 7
1.5392514 6.6355176 1.825192 25 15
1.0091962 4.299356 -1.1833206 6 0
1.4013255 5.9605575 0.10687853 41 8
1.1626655 4.9415317 -1.1719949 36 1
1.4096067 5.9817219 0.32207552 7 9
1.3109957 5.5545654 -1.1093636 17 2
1.4166278 5.9974236 0.53914541 13 10
1.377044 5.8207722 -0.94736725 15 3
1.4673254 6.1927438 0.78142631 24 11
1.4111539 5.951046 -0.75095892 15 4
1.4724991 6.2001076 1.0093153 22 12
1.4117533 5.9351029 -0.53374171 30 5
1.4594145 6.1307335 1.2249938 6 13
1.4183186 5.9488673 -0.32050541 42 6
1.5171435 6.3535514 1.5080719 15 14
1.4194487 5.9398208 -0.1065993 18 7
2.7029643 11.293401 3.1115227 19 15
1.0364573 4.2809405 -1.180215 6 0
1.4528028 5.9914393 0.10761154 20 8
1.1943784 4.9219322 -1.1692957 22 1
1.4617122 6.0144315 0.32437828 4 9
1.3520637 5.5548162 -1.1112716 16 2
1.5056138 6.1809669 0.55657655 38 10
1.4153061 5.8014212 -0.94580293 30 3
1.4949751 6.1187124 0.7733829 22 11
1.4531373 5.9429779 -0.7512027 8 4
1.5157481 6.1896763 1.0093153 25 12
1.4564731 5.9386487 -0.53496194 8 5
1.4783161 6.0231552 1.2055314 15 13
1.467917 5.9717937 -0.32228485 14 6
1.5749716 6.3976798 1.521119 21 14
1.4737946 5.9821911 -0.10754173 13 7
1.6451656 6.6677718 1.8402034 13 15
1.0695924 4.2867212 -1.1838384 6 0
1.577009 6.3109579 0.11354536 53 8
1.2192556 4.8756633 -1.1602976 33 1
2.8370218 11.328123 0.61201674 14 9
1.3960643 5.5661879 -1.1154695 15 2
1.5385426 6.1297235 0.55291605 57 10
1.4567363 5.7952304 -0.9464286 7 3
1.5439552 6.133152 0.77655149 20 11
1.5091399 5.9904366 -0.75851488 12 4
1.5618229 6.1904364 1.0111924 26 12
1.5837981 6.268312 -0.56564075 38 5
1.5723038 6.2182512 1.2467461 28 13
1.6630299 6.5674143 -0.35504717 25 6
1.6286991 6.4224186 1.5296671 22 14
1.5568413 6.1345696 -0.11047374 36 7
2.6709912 10.509375 2.9055028 3 15
1.0946877 4.2604384 -1.1786621 6 0
1.6140529 6.2726822 0.11305669 47 8
1.2532644 4.8670325 -1.1602976 36 1
2.8601809 11.091434 0.60029346 37 9
1.4378324 5.5677123 -1.1177591 13 2
1.5788062 6.1091881 0.55204445 44 10
1.506065 5.8193431 -0.95206028 10 3
1.6290678 6.2855597 0.79726928 12 11
1.8863266 7.2729344 -0.92255098 14 4
1.6089748 6.1946774 1.0136955 30 12
1.6458441 6.323019 1.2700247 24 13
1.6357898 6.2754059 -0.33986974 6 6
1.69663 6.4995131 1.5508126 21 14
1.5885117 6.080986 -0.10970583 36 7
2.6768248 10.232554 2.8340688 5 15
1.1209477 4.2396183 -1.1750386 6 0
1.6373291 6.1839385 0.1116605 54 8
1.285715 4.8525133 -1.1589478 35 1
2.8550727 10.760394 0.58344132 13 9
1.4756615 5.5537429 -1.1169959 15 2
1.617831 6.0845394 0.55082428 46 10
1.5573314 5.848772 -0.9586305 10 3
1.6156288 6.0592093 0.7699706 22 11
1.6253862 6.0915327 -0.77411413 10 4
1.6542225 6.1909275 1.0149469 26 12
1.6649808 6.2224922 -0.56354898 25 5
1.689947 6.3113747 1.2700247 28 13
1.6081752 5.9976163 -0.32542503 6 6
1.7227602 6.4159908 1.5337163 17 14
1.637153 6.0929227 -0.11012468 59 7
2.6879616 9.9897566 2.7719519 5 15
1.1474756 4.2205048 -1.1719327 6 0
1.7214354 6.3228555 0.11438307 52 8
1.3221192 4.8528204 -1.1611973 36 1
2.8602097 10.48393 0.56951994 13 9
1.5190545 5.5603499 -1.1204305 12 2
1.6634251 6.0846272 0.55187017 52 10
1.5871725 5.7977467 -0.95206028 25 3
1.6720579 6.099474 0.77655149 20 11
1.675751 6.1087527 -0.77777022 7 4
1.6869353 6.1411324 1.0086895 26 12
1.6692812 6.0685596 -0.55065 20 5
1.7480322 6.3505311 1.2803285 29 13
1.6457641 5.9708381 -0.32458761 34 6
1.8271358 6.6198349 1.5854551 15 14
1.6833764 6.0948377 -0.11036902 40 7
2.7020218 9.7696581 2.716047 6 15
1.1784719 4.2179728 -1.1734856 7 0
1.7391387 6.2163205 0.11267274 46 8
1.3580675 4.8509784 -1.1629969 18 1
2.8902073 10.309855 0.56114614 1 9
1.5631394 5.5685124 -1.1242466 15 2
1.7322648 6.1668553 0.56041139 38 10
1.6206536 5.7618051 -0.94799298 27 3
1.722672 6.1163135 0.78020763 23 11
1.7054302 6.0510502 -0.77192044 7 4
1.7565937 6.2242618 1.024333 29 12
1.7256943 6.1066079 -0.5551821 21 5
1.8163677 6.4231849 1.2975012 24 13
1.7135276 6.051445 -0.3296119 44 6
1.9232724 6.7831535 1.6277459 10 14
1.7340727 6.111793 -0.11089259 59 7
1.8404354 6.4780717 1.8044864 11 15
1.2057587 4.2022147 -1.171415 7 0
1.8244586 6.3500962 0.1153255 49 8
1.3849032 4.8170309 -1.1571481 5 1
2.8946993 10.055271 0.5483762 13 9
1.6063273 5.572556 -1.1272997 16 2
1.7614677 6.1067533 0.55605364 42 10
1.6701573 5.7826128 -0.95331174 35 3
1.7642298 6.1003222 0.77972013 23 11
1.7553587 6.0656924 -0.77533287 12 4
1.8115528 6.2516894 1.0309032 29 12
1.7499603 6.0312676 -0.54942977 8 5
1.8606186 6.4084625 1.2971196 30 13
1.7507118 6.0220747 -0.32866985 45 6
2.8278761 9.7146387 2.3358917 6 14
1.7901175 6.1456165 -0.11173031 43 7
2.7240283 9.3396645 2.6068256 6 15
1.2301545 4.1770163 -1.1667564 6 0
1.8760986 6.3621387 0.11577927 48 8
1.4173933 4.8035078 -1.1562485 6 1
2.9376643 9.9428778 0.54335195 52 9
1.6485333 5.5725012 -1.1295893 15 2
1.8119757 6.1210542 0.55849403 40 10
1.7166618 5.7916455 -0.95675331 21 3
1.8395302 6.1982355 0.79385698 24 11
1.8038816 6.0742211 -0.77801394 5 4
1.8652852 6.2729731 1.0365349 30 12
1.7874755 6.0036268 -0.54803526 28 5
1.9310948 6.4818673 1.314674 28 13
1.7630229 5.9101815 -0.3232269 43 6
2.8504579 9.5434113 2.2994497 6 14
1.8283974 6.1176414 -0.11145107 49 7
2.7365541 9.1445961 2.5576501 6 15
1.2570509 4.1609292 -1.1646857 7 0
1.9314698 6.385253 0.11644246 52 8
1.45541 4.8084168 -1.1598476 6 1
1.6896769 5.5683708 -1.1311158 11 2
1.8673991 6.1501961 0.56232882 46 10
1.7938263 5.9004779 -0.97677696 15 3
1.9018333 6.2479105 0.80190039 21 11
1.8560736 6.0937629 -0.78215748 6 4
1.9217104 6.3013663 1.043418 31 12
1.8316725 5.9986238 -0.54873258 29 5
2.0313723 6.6484747 1.3513094 24 13
1.8363761 6.0027733 -0.32898384 44 6
2.8776336 9.3947124 2.2684064 4 14
1.9161862 6.2519441 -0.11413874 35 7
2.74422 8.9424305 2.5064037 6 15
1.2814964 4.137289 -1.1605446 7 0
1.997913 6.4422822 0.11773393 48 8
1.4935642 4.8130288 -1.1634469 4 1
2.9197512 9.3973608 0.51571852 12 9
1.7290934 5.5583134 -1.1314974 8 2
1.9221332 6.1750565 0.56581503 47 10
1.8049998 5.7916288 -0.96082056 15 3
1.9412663 6.2212162 0.8001942 23 11
1.8808216 6.0238109 -0.77484536 28 4
1.9809797 6.3368163 1.0515525 29 12
1.885412 6.0237179 -0.55221879 30 5
1.8650943 5.9478793 -0.32668105 47 6
2.8129756 8.9597797 2.1680782 2 14
1.977766 6.2956476 -0.11518589 56 7
2.7509344 8.7461424 2.4567106 4 15
1.3121002 4.1337662 -1.1620976 6 0
2.0349698 6.4034014 0.11728017 11 8
1.5117728 4.7542005 -1.1517494 34 1
2.9368181 9.2244959 0.50734478 16 9
1.7714331 5.5573301 -1.1337872 8 2
1.985781 6.2260261 0.5717417 42 10
1.8387792 5.7581873 -0.95737904 23 3
1.9888802 6.2207484 0.80190039 23 11
1.9216201 6.0067515 -0.77435786 28 4
2.11555 6.6050186 1.098483 21 12
1.9152485 5.972465 -0.54873258 30 5
2.097013 6.5353413 1.3341365 6 13
1.9639932 6.1134596 -0.33652022 41 6
2.8575573 8.8842688 2.1545811 1 14
2.1098847 6.5557981 -0.12021218 42 7
2.7627506 8.5741072 2.4137464 6 15
1.3355516 4.1079702 -1.1574388 6 0
2.8885734 8.8742981 0.16290076 13 8
2.9726636 9.1164207 0.50252992 5 9
1.8156683 5.5616255 -1.1372217 7 2
2.0254862 6.2006469 0.57069582 40 10
1.8875277 5.7714958 -0.96175921 21 3
2.0804448 6.3538613 0.820912 26 11
1.9758663 6.03092 -0.77923268 32 4
2.1591508 6.5825796 1.0972315 4 12
1.9488164 5.9343405 -0.54646653 35 5
2.8535099 8.6841097 1.7768134 24 13
1.9367211 5.8871093 -0.32479697 45 6
2.9158494 8.8529978 2.1518817 18 14
2.1268103 6.4535446 -0.11860656 47 7
2.7729068 8.4041758 2.3713002 7 15
1.3617597 4.0912137 -1.1553683 6 0
2.3928573 7.1806459 0.13211471 26 8
1.585404 4.7548122 -1.1571481 5 1
2.9843736 8.9400997 0.49394682 16 9
1.8457392 5.5227456 -1.131879 7 2
2.1129532 6.318624 0.5828976 44 10
1.9221302 5.7413192 -0.95894337 25 3
2.1562958 6.433291 0.83309889 20 11
2.0109816 5.9962745 -0.77655149 16 4
2.9513886 8.7901678 1.4686069 8 12
2.0136843 5.9904675 -0.55291605 34 5
2.8571126 8.4946423 1.7420862 4 13
2.0395992 6.0570493 -0.33495015 48 6
2.1277118 6.3077979 -0.11619812 46 7
2.8197675 8.3498363 2.361465 6 15
1.3877952 4.0742936 -1.1532978 6 0
2.5300615 7.4192767 0.13682686 16 8
1.6084894 4.7141199 -1.1499498 2 1
3.0234718 8.8510046 0.49017861 70 9
1.8836176 5.5078673 -1.1314974 7 2
2.1589491 6.3093739 0.58342052 48 10
1.9544861 5.7053347 -0.95518899 25 3
2.0521502 5.9802117 -0.77630776 15 4
2.8689167 8.3508711 1.3985243 6 12
2.0593448 5.9875679 -0.55396187 34 5
2.8863208 8.3872375 1.7241502 0 13
2.0603635 5.9803481 -0.33149597 40 6
2.8415644 8.2384872 2.0119622 4 14
2.1514733 6.23419 -0.11511607 49 7
2.8792534 8.3335991 2.3625002 10 15
1.4168408 4.06633 -1.1538154 7 0
2.9124243 8.3492699 0.15434909 14 8
1.63815 4.6935759 -1.1477003 2 1
1.9181321 5.4834647 -1.1292077 7 2
2.2404637 6.4013371 0.59335625 43 10
2.0158253 5.7530708 -0.96551365 37 3
2.2373638 6.3782072 0.82993031 22 11
2.0511184 5.8439889 -0.76046479 32 4
2.8891621 8.2225475 1.3803779 4 12
2.104404 5.9824414 -0.55483341 35 5
2.1100321 5.9884224 -0.33275205 40 6
2.8653014 8.1228848 1.9885672 4 14
2.2155757 6.2774754 -0.11619812 48 7
2.8833008 8.1602898 2.3190186 5 15
1.4426013 4.0490603 -1.1517448 6 0
2.9155557 8.1742887 0.15148689 18 8
1.6715323 4.6838603 -1.1481502 6 1
3.0372329 8.5013514 0.47311705 2 9
1.9517388 5.4569998 -1.1265364 7 2
2.2797287 6.370533 0.5919618 16 10
2.0632658 5.7593145 -0.96895516 27 3
2.2858584 6.3736429 0.83139277 20 11
2.0871708 5.8164492 -0.7587586 22 4
2.9024186 8.0794783 1.3597286 1 12
2.1467924 5.9694796 -0.55500776 36 5
2.8595676 7.9471025 1.6417207 0 13
2.1734476 6.0336761 -0.33610156 40 6
2.8723557 7.9651957 1.9548247 6 14
2.317035 6.4217396 -0.11916503 59 7
2.9185386 8.0800037 2.3019366 4 15
1.4701707 4.0370755 -1.1512272 7 0
1.7041934 4.6720762 -1.1481502 3 1
3.0026517 8.2229176 0.45877704 8 9
1.9897883 5.4432416 -1.1265364 7 2
2.11429 5.7744493 -0.97396111 27 3
2.9089496 7.936193 1.0378394 7 11
2.1632683 5.8986492 -0.771433 19 4
2.3984587 6.5328856 1.1022373 2 12
2.2028456 5.993619 -0.55866832 36 5
2.8702586 7.8053327 1.6165339 0 13
2.2030952 5.9846191 -0.33421743 45 6
2.8706157 7.7895241 1.9165829 4 14
2.3500469 6.3735123 -0.11857165 60 7
2.8216841 7.6444087 2.1833978 7 15
1.5050582 4.0448184 -1.1564035 6 0
2.9316809 7.8704367 0.14660022 16 8
1.7299614 4.6418052 -1.1436511 6 1
3.0097187 8.0670242 0.45124069 7 9
2.022243 5.4145055 -1.1234834 7 2
2.1538568 5.7576985 -0.97364825 27 3
2.9204214 7.7985744 1.0224838 4 11
2.2155428 5.9131446 -0.77533287 20 4
2.8699546 7.6516094 1.2943389 7 12
2.2635448 6.0284557 -0.5633747 33 5
2.8563235 7.6031594 1.5787537 18 13
2.2820833 6.0681725 -0.33976504 46 6
2.8459711 7.5595574 1.8648442 6 14
2.3705192 6.2933254 -0.11738489 47 7
2.8245485 7.4907579 2.1450922 7 15
1.5270827 4.0179605 -1.1517448 7 0
2.9367754 7.7189488 0.14415687 18 8
1.7616318 4.6277933 -1.1432012 10 1
2.9656813 7.7826614 0.43648189 23 9
2.0557983 5.3892484 -1.1211938 7 2
2.9142089 7.6355586 0.71502572 14 10
2.2059886 5.77389 -0.97896701 23 3
2.893954 7.566628 0.99469769 6 11
2.1815655 5.7010112 -0.74949652 25 4
2.8745461 7.5041056 1.272751 11 12
2.3398175 6.1018009 -0.5717417 34 5
2.8685458 7.4767203 1.5566198 21 13
2.3351328 6.08006 -0.34133515 44 6
2.8518195 7.4176369 1.8347007 8 14
2.4531682 6.3774052 -0.11926974 54 7
2.8330371 7.3572807 2.1124811 7 15
1.548105 3.9891922 -1.1465684 7 0
2.9471455 7.5864191 0.14206259 24 8
1.791779 4.6099329 -1.1418515 9 1
2.9330373 7.5384073 0.42392129 20 9
2.0962224 5.3820825 -1.1227202 7 2
2.9139118 7.4776525 0.70212668 19 10
2.253423 5.776752 -0.98209572 25 3
2.9069953 7.4445381 0.98129201 12 11
2.3242059 5.9459443 -0.78386366 16 4
2.878659 7.3605957 1.2517889 11 12
2.4121385 6.1613832 -0.57888842 19 5
2.8732629 7.3317046 1.5306698 16 13
2.3870008 6.0877824 -0.34269586 46 6
2.859391 7.285078 1.8068069 8 14
2.839098 7.2222552 2.0793524 7 15
1.5766133 3.9780114 -1.1465684 7 0
2.9462314 7.4299598 0.13951454 22 8
1.8189696 4.5825033 -1.1382524 3 1
2.940443 7.4002914 0.41732696 20 9
2.1366465 5.3746142 -1.1242466 7 2
2.9165111 7.3288779 0.69009912 19 10
2.2398756 5.6228437 -0.9586305 23 3
2.9118571 7.3060455 0.96569276 4 11
2.3619821 5.9203544 -0.78264499 22 4
2.8938923 7.2462487 1.2358325 10 12
2.4950144 6.2443023 -0.58830124 16 5
2.8762577 7.1911588 1.505483 12 13
2.4572279 6.1372952 -0.34646407 49 6
2.8696005 7.1636343 1.7816124 4 14
2.5601938 6.3847785 -0.12007255 10 7
2.8468099 7.092392 2.0477762 7 15
1.6065177 3.9722812 -1.1481214 6 0
2.9475465 7.2807908 0.13710611 25 8
1.850915 4.5696936 -1.1382524 5 1
2.947762 7.2703781 0.41115132 21 9
2.1706216 5.3482723 -1.1219569 7 2
2.9316289 7.2197289 0.68173224 19 10
2.3274243 5.7260184 -0.97896701 10 3
2.9146872 7.1636658 0.949606 4 11
2.393055 5.8757238 -0.7789889 9 4
2.9026632 7.1234279 1.2183118 11 12
2.9858568 7.3202705 -0.69166797 13 5
2.8853426 7.0667901 1.4837308 9 13
2.4849086 6.0830121 -0.34437063 49 6
2.8765345 7.0346904 1.7546182 4 14
2.9724457 7.2620192 -0.1369665 15 7
2.8545241 6.9704437 2.018271 8 15
1.631953 3.9535403 -1.1460507 6 0
2.9624283 7.1731668 0.13546558 26 8
1.8768669 4.5401235 -1.1342032 4 1
2.9447241 7.1162238 0.40361494 16 9
2.2026472 5.3202915 -1.1192856 6 2
2.9359217 7.0844507 0.6709249 20 10
2.3426044 5.6471801 -0.96832943 10 3
2.9243014 7.045969 0.93668783 4 11
2.4530566 5.9047036 -0.7850824 7 4
2.9095705 6.9966846 1.2001654 7 12
2.8264194 6.7933764 -0.64373231 11 5
2.8930912 6.9467955 1.4627419 11 13
2.9825594 7.1545763 -0.40623173 12 6
2.8798134 6.9047251 1.7271742 5 14
2.981473 7.1414409 -0.13508162 17 7
2.8618715 6.848238 1.9887657 9 15
1.6580149 3.9384897 -1.1450155 6 0
2.9663146 7.0393753 0.13333638 25 8
1.9077603 4.5251145 -1.1337533 5 1
2.9562857 7.0053248 0.39848602 31 9
2.2345505 5.2899256 -1.1162328 5 2
2.9426537 6.962842 0.66133773 22 10
2.3981316 5.6688948 -0.97489971 5 3
2.9266527 6.91153 0.92157602 6 11
2.4929228 5.8815155 -0.78435117 13 4
2.908217 6.8579912 1.1798289 10 12
2.8811872 6.7876492 -0.64512682 22 5
2.8981984 6.8211141 1.4406079 12 13
2.9941485 7.0435143 -0.40110281 15 6
2.8856578 6.7817311 1.7015297 3 14
2.9807825 6.998498 -0.13277791 17 7
2.8641691 6.7214594 1.9577073 10 15
1.6785331 3.9087739 -1.1398392 7 0
2.9703891 6.9137707 0.13134682 27 8
1.9385526 4.5077662 -1.1328535 5 1
2.9636962 6.8849273 0.39283374 23 9
2.274533 5.2814093 -1.1177591 6 2
2.9442914 6.8299994 0.6507048 20 10
2.4331574 5.6388927 -0.97270966 2 3
2.9362836 6.8016253 0.90963286 6 11
2.5520306 5.9058814 -0.78995717 14 4
2.9227126 6.7572312 1.1660627 4 12
2.9680641 6.8587971 -0.65384239 18 5
2.9028301 6.7016315 1.4196191 9 13
3.003161 6.9266214 -0.39565986 15 6
2.8119552 6.4825249 1.631345 0 14
2.9825802 6.8692966 -0.13071853 15 7
2.7766712 6.3889623 1.866603 3 15
1.708972 3.9061067 -1.1424273 7 0
2.9736619 6.790287 0.12939215 31 8
1.9613707 4.4766173 -1.1283545 3 1
2.9687765 6.7694831 0.38739079 24 9
2.3081923 5.2582107 -1.1162328 6 2
2.9466469 6.7094698 0.64111763 15 10
2.4675093 5.6131577 -0.97114527 2 3
2.9413204 6.6846623 0.89671469 4 11
2.6009693 5.9083581 -0.79263824 23 4
2.8220799 6.4045696 1.1084948 1 12
3.0158751 6.8379092 -0.65384239 21 5
2.813642 6.37637 1.354744 3 13
3.0034335 6.800055 -0.38958889 15 6
2.8169603 6.3718357 1.6084001 3 14
2.9944837 6.7701988 -0.12921762 18 7
2.8005464 6.3257504 1.853662 7 15
1.7346269 3.890552 -1.1413921 7 0
2.9761727 6.6689258 0.12747237 17 8
1.9909866 4.4592562 -1.1274546 5 1
2.929584 6.5553064 0.37629557 5 9
2.3464484 5.2455521 -1.1169959 5 2
2.8550582 6.3795762 0.61148465 4 10
2.5074441 5.5975981 -0.9714582 11 3
2.8555353 6.3687148 0.85698533 2 11
2.6835904 5.9824286 -0.80506897 20 4
2.852159 6.3522739 1.1028631 5 12
3.0227029 6.7258224 -0.64512682 20 5
2.8532581 6.3458281 1.3524542 6 13
3.0000136 6.6659999 -0.38309923 11 6
2.8693793 6.369782 1.6128991 3 14
2.9981294 6.652504 -0.12736766 15 7
2.8748267 6.372962 1.8733324 9 15
1.7601478 3.8748295 -1.1403568 7 0
2.879468 6.3330631 0.12143384 3 8
2.0180349 4.4363785 -1.1252052 2 1
2.8842366 6.3347464 0.36478165 9 9
2.3813837 5.2254701 -1.1162328 6 2
2.8912575 6.3413615 0.60974157 9 10
2.5530224 5.5943327 -0.97396111 12 3
2.8958037 6.3395958 0.85576659 3 11
2.904336 6.35534 -0.85796028 11 4
2.9169791 6.3771167 1.1106849 6 12
3.00738 6.5686898 -0.63205343 6 5
2.9252884 6.3864408 1.3654292 9 13
2.9166312 6.3616667 -0.36677042 2 6
2.9023972 6.3247995 1.6066004 1 14
2.8951561 6.3061094 -0.12111971 6 7
2.8918195 6.2930555 1.8557327 12 15
1.788777 3.8659546 -1.1413921 7 0
2.9345384 6.3363934 0.1218876 11 8
2.0497749 4.4239511 -1.1256551 5 1
2.9393179 6.3380098 0.36614239 12 9
2.4095402 5.1909099 -1.1124165 6 2
2.964833 6.3842673 0.61584246 13 10
2.6036727 5.6014514 -0.97834122 12 3
2.9592481 6.3606224 0.86137259 4 11
2.7986889 6.012764 -0.814331 14 4
2.9305599 6.2903466 1.0991087 6 12
2.9445441 6.3145967 -0.60956728 7 5
2.9291291 6.2786856 1.34673 9 13
2.9440694 6.3049579 -0.36467698 8 6
2.9134772 6.2337656 1.5886043 3 14
2.9501185 6.3092933 -0.12157347 10 7
2.8947387 6.1852274 1.8298507 10 15
1.8124292 3.8463824 -1.1393216 7 0
2.9889395 6.3374562 0.12230647 15 8
2.0789466 4.4060082 -1.1247553 6 1
2.9766707 6.3028874 0.36530501 15 9
2.4473965 5.1775126 -1.1131797 7 2
2.9616315 6.2625494 0.60608101 18 10
2.648628 5.5956368 -0.98053133 15 3
2.9576893 6.2429333 0.84821075 5 11
2.8193393 5.9482355 -0.80823755 29 4
2.9396923 6.196559 1.0862811 7 12
2.9971027 6.3118839 -0.61131036 7 5
2.9341431 6.1765089 1.3291756 11 13
3.0206048 6.3527932 -0.36865449 12 6
2.9200768 6.1358514 1.5688087 4 14
3.0069883 6.3156266 -0.12209704 15 7
2.8879848 6.0602303 1.7987925 11 15
1.8367325 3.828409 -1.1377686 6 0
2.9898269 6.226305 0.12056123 17 8
2.1037507 4.3790898 -1.1216059 6 1
2.9868431 6.2117548 0.3612228 18 9
2.4732664 5.1390719 -1.1086004 6 2
2.9689755 6.166326 0.59875995 12 10
2.6927738 5.587687 -0.98240852 23 3
2.9667046 6.1506138 0.8384611 6 11
2.8461308 5.898015 -0.80409402 40 4
2.9467976 6.1011767 1.0731405 5 12
3.0306861 6.2692823 -0.6092186 11 5
2.937017 6.0728059 1.3112395 11 13
3.0257196 6.2506547 -0.36394429 18 6
2.9237595 6.0346422 1.5481132 4 14
3.0100124 6.2099056 -0.12045651 15 7
2.902396 5.9825635 1.7817104 11 15
1.8591744 3.806814 -1.1351804 7 0
2.9954603 6.1280289 0.11906032 21 8
2.1291327 4.3537941 -1.1189066 5 1
2.9888682 6.1064372 0.35630322 19 9
2.5168593 5.1375465 -1.1120348 7 2
2.9803858 6.0810418 0.59248471 17 10
2.7430298 5.5918059 -0.98647583 13 3
2.9667001 6.0424409 0.826518 4 11
2.902271 5.906003 -0.80799377 16 4
2.9492271 5.9989114 1.0587486 8 12
3.0172026 6.1317711 -0.59788835 16 5
2.9413648 5.9723773 1.2940667 15 13
3.014554 6.1183 -0.35745463 13 6
2.946856 5.9756322 1.5382153 9 14
3.0225098 6.1236534 -0.11919994 16 7
2.9483683 5.9708157 1.7842987 18 15
1.8906686 3.8020616 -1.1377686 7 0
3.0007596 6.0317712 0.11759432 29 8
2.1602333 4.3384466 -1.1189066 5 1
2.9888365 5.9973025 0.35117432 17 9
2.5412741 5.0970106 -1.1070738 7 2
2.9864602 5.984684 0.58516365 10 10
2.7953308 5.5967751 -0.99085599 18 3
2.9742074 5.9523277 0.81701219 10 11
2.9594173 5.9175544 -0.81238109 25 4
2.9832399 5.9599876 1.0556198 16 12
3.0420978 6.0749269 -0.59440213 13 5
2.9953034 5.9762692 1.2994094 17 13
3.0331831 6.0465851 -0.35452381 21 6
2.9981167 5.9740725 1.5431641 10 14
3.0185111 6.0094838 -0.11738489 14 7
2.997093 5.9616475 1.787922 11 15
1.9119326 3.7784274 -1.1346627 7 0
3.0113196 5.9459214 0.11633775 37 8
2.19223 4.326736 -1.1198063 6 1
3.0143728 5.9442267 0.34929019 14 9
2.5670226 5.0576859 -1.1024945 8 2
3.0227559 5.9530296 0.58411777 12 10
2.8406005 5.5894513 -0.99304616 22 3
3.0311251 5.9592018 0.820912 12 11
3.0528743 5.9993629 -0.826518 22 4
3.0355308 5.9601398 1.0593743 18 12
3.0456755 5.9749002 -0.58673245 16 5
3.0449772 5.9709549 1.3028439 10 13
3.0308342 5.9380927 -0.34939486 18 6
3.0567472 5.9837031 1.5512625 10 14
3.0249035 5.918818 -0.1160236 25 7
3.051836 5.9663763 1.7956866 12 15
1.9311903 3.7512462 -1.1305215 7 0
3.0646608 5.9478641 0.11679151 39 8
2.2250617 4.3165231 -1.1211561 6 1
3.0731995 5.9567604 0.35127899 12 9
2.5923584 5.0204539 -1.0982966 26 2
3.0752184 5.9530225 0.58620954 24 10
2.902231 5.6133528 -1.0008678 12 3
3.0881631 5.9678669 0.82505554 12 11
3.0782533 5.9461732 -0.82213068 28 4
3.0897892 5.9633574 1.0637544 20 12
3.0726414 5.9251909 -0.58394349 29 5
3.1010535 5.9774342 1.3089497 7 13
3.0814199 5.934514 -0.35044158 32 6
3.1128221 5.9898853 1.558461 10 14
3.0781424 5.9206209 -0.11647736 35 7
3.0978708 5.953496 1.7982749 11 15
1.95733 3.7376733 -1.1305215 6 0
3.1126108 5.9387202 0.11703584 20 8
2.2515206 4.2939816 -1.1193565 6 1
3.1258452 5.9563842 0.35253504 12 9
2.6273448 5.0022335 -1.0982966 36 2
3.123188 5.9437556 0.5874297 35 10
2.9450266 5.5999479 -1.0021193 12 3
3.1371453 5.9602165 0.82700545 12 11
3.1290512 5.9398007 -0.82432431 35 4
3.1470053 5.9713478 1.0690732 13 12
3.1269429 5.9282689 -0.58638382 23 5
3.1483305 5.9637718 1.3108579 9 13
3.1348982 5.9358177 -0.35180232 27 6
3.1673126 5.9921284 1.5647595 10 14
3.1391327 5.9337945 -0.11717546 35 7
3.1619503 5.9744101 1.8112158 17 15
1.9840261 3.7235715 -1.1305215 6 0
3.1728079 5.9521379 0.11773393 28 8
2.275769 4.2657242 -1.1162071 5 1
3.1834395 5.9620528 0.35420978 12 9
2.6594257 4.9785757 -1.0971519 35 2
3.1797309 5.9476104 0.59004438 35 10
2.9999347 5.6065979 -1.0071251 12 3
3.1861768 5.9521694 0.82895535 13 11
3.1695049 5.9160609 -0.82408053 36 4
3.2008536 5.9695683 1.0728277 17 12
3.1823807 5.9326301 -0.5889985 15 5
3.204747 5.9693227 1.3169638 10 13
3.1876924 5.9325862 -0.35295373 25 6
3.2247539 5.9990497 1.5724078 7 14
3.1975327 5.9434347 -0.11780374 35 7
3.2174435 5.9754438 1.8184627 10 15
2.0118139 3.7130268 -1.1315569 6 0
3.2324781 5.9609232 0.11836223 24 8
2.3054938 4.2497325 -1.1162071 5 1
3.2335622 5.9554796 0.35515183 39 9
2.6921737 4.9542418 -1.096007 36 2
3.2392559 5.9585247 0.59335625 37 10
3.1041446 5.7052445 -1.0287131 5 3
3.2467251 5.9623408 0.83358634 14 11
3.2354202 5.9391127 -0.83041775 34 4
3.2585263 5.9765606 1.0781465 18 12
3.2352502 5.9289441 -0.59091592 13 5
3.2717412 5.9933305 1.3272674 12 13
3.2424383 5.9347253 -0.35441914 28 6
3.2722743 5.9843698 1.5746574 4 14
3.250464 5.942019 -0.1182226 27 7
3.2729971 5.9782538 1.8262272 16 15
2.029299 3.6836617 -1.1268982 6 0
3.2894623 5.9662299 0.1189207 20 8
2.3294613 4.2232943 -1.1135077 6 1
3.2885737 5.9572396 0.35661724 42 9
2.7266927 4.9353271 -1.096007 38 2
3.2942686 5.9601779 0.59579664 20 10
3.174494 5.7387495 -1.038725 2 3
3.3075006 5.9742637 0.8384611 17 11
3.2979608 5.954586 -0.83578002 14 4
3.3068748 5.9657598 1.0803366 16 12
3.2929943 5.935832 -0.59387922 8 5
3.3239825 5.9892254 1.3314652 14 13
3.3041575 5.9486098 -0.35661724 33 6
3.3348041 5.9988503 1.5845551 3 14
3.2947836 5.9244246 -0.11832731 11 7
3.3278069 5.9788904 1.8334742 16 15
2.047415 3.6559205 -1.1227571 6 0
3.3398306 5.9588208 0.11923484 23 8
2.3636539 4.2154274 -1.1157572 6 1
3.3515835 5.972456 0.35892001 42 9
2.7591608 4.912746 -1.0952437 45 2
3.3475065 5.9578795 0.59788835 30 10
3.2173879 5.721611 -1.0396636 5 3
3.3676264 5.9838963 0.8430922 19 11
3.3521144 5.9539022 -0.83894861 20 4
3.3678374 5.9769478 1.0865939 16 12
3.3343511 5.9126992 -0.59387922 8 5
3.3811488 5.9932327 1.3375711 17 13
3.3583689 5.9480085 -0.35797796 33 6
3.3861897 5.9923887 1.5890542 3 14
3.3547585 5.9343553 -0.11899051 30 7
3.3818331 5.9773703 1.8402034 23 15
2.0795763 3.6532912 -1.1263806 6 0
3.3902583 5.9509969 0.11954898 24 8
2.3853042 4.1852798 -1.1121581 6 1
3.408041 5.9749355 0.36049011 23 9
2.8060439 4.9155288 -1.1002047 15 2
3.3998878 5.9533968 0.59980583 32 10
3.2592144 5.7024403 -1.0402893 3 3
3.4211447 5.9809194 0.84601706 19 11
3.4054303 5.9510303 -0.84187353 29 4
3.4261689 5.9824328 1.0919127 16 12
3.3963573 5.9255753 -0.59753978 10 5
3.4238811 5.9711866 1.3379527 21 13
3.4117441 5.9452038 -0.35923404 26 6
3.446382 6.00071 1.5976024 7 14
3.4130449 5.9402637 -0.11958389 38 7
3.4369626 5.9770613 1.8474505 25 15
2.102128 3.6336672 -1.1248276 6 0
3.443748 5.9479485 0.11996785 29 8
2.4086046 4.1584077 -1.1094586 6 1
3.4586883 5.9665465 0.36143214 32 9
2.8353643 4.8873296 -1.0982966 7 2
3.4613724 5.9639783 0.60329205 28 10
3.2910056 5.665884 -1.0377864 3 3
3.4777806 5.9826322 0.84967309 11 11
3.4678469 5.9631486 -0.84699202 20 4
3.480768 5.9805622 1.09598 13 12
3.46171 5.9430389 -0.60172325 21 5
3.4812994 5.974278 1.3440586 21 13
3.4642344 5.9402189 -0.36038542 19 6
3.5039053 6.0034342 1.6048008 8 14
3.4766152 5.9542832 -0.1203518 39 7
3.4971225 5.9846134 1.8572855 27 15
2.1274445 3.6189029 -1.1248276 6 0
3.504452 5.9565101 0.12063103 31 8
2.4306574 4.1297345 -1.1063093 6 1
3.5114064 5.9611869 0.36258355 33 9
2.861439 4.8538861 -1.0952437 7 2
3.5191152 5.9671283 0.60608101 32 10
3.3264647 5.6359663 -1.0365349 3 3
3.524513 5.9667506 0.85089183 11 11
3.5194921 5.9558835 -0.84942937 15 4
3.5345047 5.9765182 1.0997344 13 12
3.5183356 5.9444475 -0.60433793 24 5
3.5489326 5.9937496 1.3539807 14 13
3.5208905 5.9416647 -0.36195552 12 6
3.5566661 5.9972634 1.6097497 7 14
3.5344217 5.9573846 -0.12091027 44 7
3.5605166 5.9965978 1.8686736 24 15
2.1516669 3.602304 -1.12431 6 0
3.5695496 5.9713764 0.12143384 38 8
2.4614298 4.1160097 -1.1072091 5 1
3.5703738 5.965661 0.36436296 34 9
2.8831503 4.81358 -1.0906643 7 2
3.5791211 5.9731774 0.6092186 28 10
3.3718255 5.6227703 -1.0384121 3 3
3.583446 5.9709373 0.85503536 8 11
3.5671172 5.9413791 -0.85089183 25 4
3.5863135 5.9686308 1.1028631 17 12
3.571044 5.9385219 -0.60625535 25 5
3.6078918 5.9974284 1.3604681 23 13
3.5859787 5.9562941 -0.36436296 19 6
3.619571 6.0073385 1.6191977 6 14
3.5810871 5.9411278 -0.12108479 49 7
3.6152689 5.9930973 1.8754028 13 15
2.1687458 3.5739822 -1.1201688 7 0
3.6277585 5.9736581 0.12199232 48 8
2.4951642 4.1070528 -1.1094586 6 1
3.6337252 5.9764285 0.36656106 9 9
2.9166849 4.7933345 -1.0906643 7 2
3.6300583 5.9633617 0.61078745 23 10
3.4120252 5.60078 -1.038725 3 3
3.6529443 5.9915371 0.86161631 9 11
3.6374512 5.9637833 -0.8577165 22 4
3.6495082 5.9788561 1.1094334 20 12
3.6300726 5.9423504 -0.6092186 12 5
3.6650305 5.9972224 1.3661925 25 13
3.6514421 5.9703026 -0.36677042 33 6
3.678714 6.01018 1.6268461 4 14
3.6423175 5.9483848 -0.12174799 50 7
3.665096 5.9808898 1.879544 9 15
2.1926303 3.5571098 -1.1196512 6 0
3.6756706 5.9583998 0.12220175 47 8
2.5135417 4.0729499 -1.1049596 6 1
3.6952975 5.9832025 0.36854982 9 9
2.9449167 4.7645059 -1.0887562 7 2
3.6873164 5.9632945 0.61340207 17 10
3.4479244 5.571784 -1.0377864 3 3
3.7093165 5.9895163 0.86502868 14 11
3.6978095 5.9662881 -0.8618601 18 4
3.7130191 5.9884882 1.1160036 23 12
3.6924794 5.9507222 -0.61270487 39 5
3.7078516 5.9708424 1.3661925 9 13
3.7046299 5.963326 -0.3679218 39 6
3.7370462 6.0108309 1.6340445 7 14
3.706975 5.9578238 -0.12248099 51 7
3.7261541 5.9863195 1.889379 12 15
2.2190537 3.5429661 -1.1201688 6 0
3.7320459 5.956315 0.12269042 48 8
2.5384815 4.048255 -1.10316 6 1
3.753942 5.9819827 0.37011993 11 9
2.9791512 4.7454929 -1.0891378 3 2
3.7542727 5.9755583 0.61741126 10 10
3.483501 5.5402794 -1.0365349 2 3
3.7594936 5.9769187 0.86697859 15 11
3.7594671 5.9722443 -0.86649108 21 4
3.7778881 5.9968634 1.1225739 8 12
3.7477431 5.9467111 -0.61497092 37 5
3.7819126 5.9962883 1.3780226 21 13
3.7567964 5.9518676 -0.36886385 29 6
3.7955658 6.0109587 1.641243 10 14
3.7655668 5.958848 -0.12303946 44 7
3.795743 6.0019541 1.9028376 20 15
2.2437327 3.5273888 -1.1201688 7 0
3.7960465 5.9631963 0.12338851 47 8
2.56668 4.030436 -1.10316 6 1
3.8074205 5.9741564 0.37127131 28 9
3.0003645 4.7041907 -1.0845585 7 2
3.8173325 5.9827957 0.62089753 9 10
3.5284734 5.5258145 -1.0384121 3 3
3.821408 5.9799724 0.8713659 15 11
3.8106635 5.9585681 -0.86844105 21 4
3.8292401 5.9853201 1.1253897 16 12
3.8095386 5.9499435 -0.61810851 36 5
3.8395529 5.9922152 1.3833653 22 13
3.815505 5.9523969 -0.37053862 27 6
3.8479517 5.9984064 1.6452919 12 14
3.8253963 5.958674 -0.12359794 45 7
3.8594749 6.0094442 1.9137081 23 15
2.2542377 3.4885266 -1.112922 6 0
3.8625565 5.975173 0.12419132 45 8
2.5901628 4.0037842 -1.1009104 5 1
3.8663547 5.9719071 0.37284139 26 9
3.0309958 4.6798348 -1.0837952 7 2
3.8752182 5.9787326 0.62333786 9 10
3.5636249 5.4937949 -1.0371606 5 3
3.8825128 5.9831219 0.87575316 14 11
3.870549 5.9601216 -0.87258458 18 4
3.8945777 5.9925489 1.1319599 18 12
3.8716185 5.9549398 -0.62142044 22 5
3.903775 5.9998226 1.3913792 23 13
3.8743491 5.9500465 -0.37210867 25 6
3.9110076 6.0040541 1.6542901 13 14
3.8778255 5.9485726 -0.12394699 38 7
3.9192672 6.0075593 1.9219903 20 15
2.2768717 3.4714861 -1.1124043 7 0
3.9250228 5.9798269 0.12485451 46 8
2.6152165 3.9828033 -1.1000106 5 1
3.9343355 5.9871788 0.37545818 42 9
3.0603573 4.6536393 -1.0826503 6 2
3.9245846 5.9655323 0.62473232 31 10
3.5868134 5.4479637 -1.0330933 3 3
3.9493115 5.9939947 0.88135916 16 11
3.9295976 5.9618158 -0.87672812 21 4
3.9570343 5.998877 1.1382173 11 12
3.9273639 5.9493837 -0.62368649 21 5
3.9672461 6.007513 1.3993932 20 13
3.9378853 5.9585285 -0.3743068 24 6
3.9840012 6.0237422 1.6673372 10 14
3.9413984 5.9570613 -0.12468 27 7
3.9664652 5.9904094 1.9250962 28 15
2.2946272 3.4458587 -1.1092985 7 0
3.9799819 5.9722481 0.12527338 46 8
2.6407959 3.9612055 -1.0991108 6 1
3.9948816 5.9878106 0.37723759 23 9
3.0862303 4.622364 -1.0803605 7 2
3.9949083 5.9810653 0.62926447 42 10
3.6280532 5.4277167 -1.0340319 2 3
4.0098214 5.9943285 0.8855027 15 11
3.998724 5.9754815 -0.88282162 26 4
4.0153055 5.9957252 1.1429104 11 12
3.9865503 5.9483018 -0.62647545 23 5
4.0254893 6.0041299 1.4051175 27 13
3.9994149 5.9607472 -0.37619087 8 6
4.0433416 6.0216656 1.6745356 7 14
4.008533 5.9675813 -0.12548281 25 7
4.0297475 5.9946356 1.9354489 29 15
2.3197098 3.4313552 -1.1098161 9 0
4.040628 5.9724731 0.12586676 49 8
2.6563714 3.9249206 -1.094162 6 1
4.0589876 5.9928479 0.37933105 34 9
3.1162221 4.5974555 -1.0795974 6 2
4.0578117 5.9843616 0.63257635 40 10
3.6580956 5.3908124 -1.0318419 2 3
4.0716462 5.9957485 0.88989002 9 11
4.0626554 5.980258 -0.88769639 27 4
4.0826068 6.0051222 1.1501063 15 12
4.0526366 5.9565659 -0.6303103 33 5
4.0805612 5.9953589 1.4096969 27 13
4.0510507 5.9475369 -0.37713292 8 6
4.1116252 6.0319366 1.6853334 4 14
4.0636163 5.9592762 -0.12590165 22 7
4.0965452 6.003058 1.9473546 28 15
2.3403294 3.4102986 -1.1082631 7 0
4.1037316 5.9754405 0.12652995 48 8
2.683708 3.90628 -1.094162 6 1
4.1154342 5.9857626 0.38069177 29 9
3.1549194 4.5852919 -1.081887 6 2
4.1232114 5.9903536 0.63623691 11 10
3.6990006 5.3700247 -1.0327804 3 3
4.1314316 5.9933276 0.89378983 4 11
4.1200814 5.9746304 -0.89110869 33 4
4.1423831 6.0024862 1.1551123 15 12
4.1246958 5.9723902 -0.63501674 41 5
4.1513314 6.0087214 1.4196191 23 13
4.1186013 5.9568934 -0.37954038 8 6
4.1636124 6.0175099 1.6893824 3 14
4.1347141 5.9735098 -0.12680918 24 7
4.165853 6.0140162 1.9602956 29 15
2.3662875 3.3970485 -1.1092985 7 0
4.1705084 5.9827328 0.12729785 43 8
2.7109115 3.8874502 -1.094162 6 1
4.1765566 5.9847274 0.3824712 33 9
3.1733649 4.5438404 -1.0773077 6 2
4.1831913 5.9875526 0.63902587 10 10
3.7420599 5.3521647 -1.0343448 3 3
4.1970677 5.9984965 0.89890838 3 11
4.1867347 5.9814992 -0.89647096 18 4
4.2023172 5.99931 1.1601181 11 12
4.1834416 5.9679232 -0.63763142 25 5
4.2157235 6.0117416 1.4272513 20 13
4.1887674 5.9688687 -0.38215721 32 6
4.2301607 6.0233803 1.6992803 3 14
4.1866598 5.9592271 -0.12712333 22 7
4.2266259 6.0116525 1.9690953 27 15
2.3787932 3.3646715 -1.1041222 7 0
4.2375836 5.9893847 0.12806576 35 8
2.7424884 3.8747923 -1.0959616 6 1
4.2505593 6.0010591 0.38540202 18 9
3.1981952 4.5119662 -1.0750179 5 2
4.2421775 5.9825811 0.6416406 11 10
3.7759018 5.3210788 -1.0334063 3 3
4.2618332 6.0014176 0.90378314 4 11
4.2490845 5.9812541 -0.90085822 17 4
4.2727156 6.0100737 1.1679399 10 12
4.2423286 5.962923 -0.64024603 32 5
4.2792196 6.0125542 1.434502 22 13
4.2523503 5.9703889 -0.38414595 29 6
4.2969923 6.0286131 1.7091781 3 14
4.257184 5.9705582 -0.12799595 47 7
4.2898116 6.0118771 1.9789305 25 15
2.3999743 3.344842 -1.1030868 9 0
4.2979527 5.9856467 0.12862423 45 8
2.7637897 3.8476365 -1.0937121 5 1
4.3179955 6.0069184 0.38770482 28 9
3.2250311 4.4831543 -1.0734915 6 2
4.3117704 5.9916315 0.64582402 16 10
3.8094947 5.2897792 -1.0324676 3 3
4.3303218 6.0085588 0.90938914 12 11
4.3197584 5.9917026 -0.90695173 15 4
4.3319063 6.004127 1.1726329 21 12
4.3036819 5.9606218 -0.64320934 38 5
4.3371844 6.0048151 1.4398447 20 13
4.3126483 5.9664555 -0.38582069 21 6
4.3561072 6.0221519 1.7159266 7 14
4.3175192 5.9666119 -0.12855442 47 7
4.3520732 6.0099459 1.988248 21 15
2.4232657 3.3280065 -1.1030868 9 0
4.3573008 5.9797378 0.12914781 44 8
2.7791047 3.8125 -1.089213 5 1
4.373951 5.9959898 0.38896087 22 9
3.256253 4.4605284 -1.0734915 7 2
4.3769927 5.993566 0.64931029 32 10
3.8451686 5.2614589 -1.0321548 3 3
4.3873978 5.999011 0.91255772 12 11
4.3778958 5.9838257 -0.91036409 11 4
4.4028912 6.0135846 1.1804546 23 12
4.3781586 5.9754338 -0.64809006 29 5
4.4080153 6.0139751 1.4493852 19 13
4.3742752 5.963582 -0.38760012 15 6
4.4291778 6.034009 1.728074 10 14
4.3898387 5.9782343 -0.12946194 49 7
4.4248114 6.0214486 2.0022242 28 15
2.4441447 3.3079007 -1.1020516 7 0
4.4274745 5.987761 0.12998553 26 8
2.8010159 3.7867398 -1.0874133 6 1
4.4323401 5.987782 0.39042628 21 9
3.2931566 4.4455743 -1.0753995 5 2
4.4460125 5.9996805 0.65331942 38 10
3.8818069 5.2344866 -1.0321548 2 3
4.4551954 6.0033064 0.91791999 10 11
4.4300714 5.9650946 -0.912314 5 4
4.4695024 6.0160012 1.1870248 15 12
4.4483013 5.9830942 -0.65227354 37 5
4.4825797 6.0248065 1.4596889 19 13
4.4420404 5.9681449 -0.38990292 19 6
4.4944768 6.0341978 1.7370721 9 14
4.4587975 5.9819412 -0.13022986 39 7
4.4829082 6.0120926 2.0094712 11 15
2.4689119 3.2918715 -1.1025692 9 0
4.4943738 5.990294 0.13071853 41 8
2.8257015 3.7634826 -1.0865136 6 1
4.5014687 5.9910398 0.39272904 15 9
3.3087754 4.4020748 -1.0704385 6 2
4.5187736 6.0075183 0.65767723 27 10
3.9120367 5.1971054 -1.0302775 3 3
4.5172973 5.9990153 0.92206353 11 11
4.49789 5.9688993 -0.91767621 3 4
4.5326571 6.0106764 1.1923436 10 12
4.5103607 5.9789329 -0.65523684 35 5
4.5470033 6.0231385 1.4669396 21 13
4.5135279 5.974452 -0.39241502 30 6
4.5611653 6.0353246 1.74652 7 14
4.5137219 5.9682088 -0.1306138 44 7
4.5631223 6.0291529 2.0260355 13 15
2.4801345 3.2591815 -1.0973928 9 0
4.5637722 5.9929843 0.13148643 40 8
2.8495448 3.7405634 -1.0856137 5 1
4.5746698 6.0007625 0.39545053 28 9
3.3306651 4.3657985 -1.0673856 6 2
4.5763202 5.9964128 0.65994328 21 10
