# .PCD v0.7 - Point Cloud Data file format
VERSION 0.7
FIELDS x y z intensity ring
SIZE 4 4 4 4 2
TYPE F F F F U
COUNT 1 1 1 1 1
WIDTH 1270
HEIGHT 1
VIEWPOINT 0 0 0 1 0 0 0
POINTS 1270
DATA ascii
-2.6699514 -7.9198804 -1.3237487 8 3
-2.2059474 -6.5359697 0.84699202 5 11
-3.2474375 -9.6162434 -1.2462361 11 4
-3.8277042 -11.321475 1.8928572 2 12
-3.8524461 -11.388109 -1.0517955 8 5
-2.9844773 -8.8121929 1.8084878 31 13
-3.8493075 -11.352716 -0.62824088 16 6
-2.0904808 -6.161891 1.5022231 7 14
-3.8747451 -11.408095 -0.21030149 11 7
-2.1406865 -6.2954292 1.7817104 12 15
-1.5103889 -4.4039588 -1.2475078 10 0
-3.6918342 -10.758453 0.19853857 22 8
-1.7791833 -5.1788654 -1.264225 10 1
-3.7663286 -10.956846 0.60720181 17 9
-2.1510048 -6.2505159 -1.2849078 12 2
-3.4143219 -9.9102936 0.91705269 1 10
-2.7308788 -7.9220657 -1.3271902 11 3
-3.8486459 -11.15198 1.4485391 5 11
-3.3021758 -9.5576887 -1.241605 9 4
-3.9434011 -11.407177 1.9116293 3 12
-4.0569668 -11.722438 -1.0852633 7 5
-3.3216581 -9.5869656 1.9722018 33 13
-3.9448113 -11.37909 -0.6311717 18 6
-2.2995744 -6.6258101 1.6191977 6 14
-3.7094891 -10.676198 -0.19728202 10 7
-2.1949074 -6.3135571 1.7910279 16 15
-1.5396912 -4.3917532 -1.2469902 12 0
-3.8032758 -10.836196 0.20045835 16 8
-1.8221411 -5.1886988 -1.2696238 10 1
-3.839417 -10.920865 0.60667849 34 9
-2.1906784 -6.2242351 -1.282618 12 2
-3.8926735 -11.053849 1.0253001 6 10
-2.7966278 -7.9326158 -1.3321961 11 3
-3.5537841 -10.069076 1.3110704 4 11
-3.3750875 -9.5574522 -1.2445298 13 4
-3.9979224 -11.308598 1.8997405 12 12
-3.8522933 -10.890622 -1.010658 3 5
-3.1358395 -8.8553371 1.8260422 21 13
-4.0308285 -11.370098 -0.63221842 18 6
-2.3472269 -6.6173506 1.6209973 6 14
-3.7854197 -10.660123 -0.19745652 5 7
-2.2479894 -6.3235641 1.7982749 17 15
-1.572921 -4.3881707 -1.2490608 13 0
-3.9174509 -10.922995 0.20255263 16 8
-1.8609546 -5.183188 -1.2714233 12 1
-3.9177136 -10.905755 0.60730648 8 9
-2.2403023 -6.2295012 -1.286816 13 2
-3.9913459 -11.086391 1.0308782 6 10
-2.7990091 -7.7702932 -1.3081051 15 3
-3.8586037 -10.700105 1.3966229 2 11
-3.4902606 -9.6680908 -1.2620791 13 4
-4.0640664 -11.251396 1.8947345 11 12
-3.9377151 -10.889694 -1.0130984 10 5
-3.762923 -10.394966 2.148891 45 13
-4.1700234 -11.513285 -0.6417436 16 6
-2.3893816 -6.5898108 1.6182978 7 14
-4.309381 -11.872156 -0.22045881 3 7
-2.2738345 -6.2609043 1.7848163 20 15
-1.6107243 -4.3991318 -1.2552725 12 0
-4.0452271 -11.036195 0.2051705 3 8
-1.8988758 -5.1777191 -1.2732229 13 1
-3.9916899 -10.872515 0.60699248 13 9
-2.2925425 -6.2376652 -1.291777 12 2
-4.008265 -10.90002 1.0160617 10 10
-2.8647892 -7.7820778 -1.313424 15 3
-3.9249735 -10.650555 1.393698 2 11
-3.4948664 -9.4783459 -1.2403862 23 4
-3.9660347 -10.744634 1.8140143 10 12
-4.2974715 -11.630049 -1.0847404 20 5
-4.275949 -11.553195 -0.64561641 16 6
-2.4224639 -6.53825 1.6097497 4 14
-4.371325 -11.791923 -0.21951638 6 7
-2.3047173 -6.2104664 1.774981 15 15
-1.6481647 -4.4058738 -1.2604488 12 0
-4.3381724 -11.584474 0.21592118 11 8
-1.9349768 -5.1643367 -1.2732229 13 1
-4.0850325 -10.891133 0.60960931 14 9
-2.3387923 -6.2288604 -1.2933035 12 2
-4.0758557 -10.849389 1.0139699 14 10
-2.9211345 -7.7674346 -1.3143625 15 3
-4.3321509 -11.507206 1.5097176 23 11
-3.5259659 -9.3608322 -1.2281992 25 4
-4.0074949 -10.627965 1.7989967 7 12
-4.1541071 -11.005143 -1.029135 23 5
-3.8601089 -10.220878 2.1237042 4 13
-4.2992897 -11.371739 -0.63713801 16 6
-2.4556341 -6.4883728 1.6016515 4 14
-4.4138842 -11.656391 -0.21756171 5 7
-2.3562346 -6.2159019 1.7811928 22 15
-1.6850888 -4.4105015 -1.2651075 14 0
-4.1696339 -10.902061 0.2037394 8 8
-1.9730722 -5.1561623 -1.2745727 15 1
-4.1181006 -10.750444 0.603329 27 9
-2.3836269 -6.2160473 -1.2940667 12 2
-2.9632483 -7.7155037 -1.3090436 15 3
-4.4024072 -11.450741 1.5063052 24 11
-3.7002723 -9.6194582 -1.2654914 20 4
-4.0894022 -10.620006 1.8024381 14 12
-3.9861014 -10.346348 -0.97004336 10 5
-4.4354019 -11.488642 -0.64540708 15 6
-2.4835916 -6.429697 1.5913037 7 14
-4.1309547 -10.683408 -0.19993477 11 7
-2.4163086 -6.2425394 1.7936161 15 15
-1.7165405 -4.4004302 -1.2656252 13 0
-4.1863089 -10.726262 0.20098191 23 8
-2.0118575 -5.1495223 -1.2763723 13 1
-4.3765979 -11.196513 0.63002026 9 9
-2.4330373 -6.2179613 -1.2978829 12 2
-4.263999 -10.886037 1.0228598 7 10
-3.1101179 -7.9360876 -1.3500296 12 3
-3.6461604 -9.2848225 -1.224787 33 4
-4.1709867 -10.615824 1.8065054 6 12
-4.5278664 -11.512332 -1.0822999 31 5
-3.0458808 -7.7363796 1.6161523 43 13
-4.2587633 -10.811502 -0.60898125 15 6
-2.5427158 -6.4484596 1.6003017 6 14
-4.2252612 -10.704529 -0.20087719 17 7
-2.4665492 -6.2457123 1.79931 28 15
-1.7421676 -4.3778744 -1.2625194 13 0
-4.2803316 -10.745076 0.20188944 12 8
-2.0540769 -5.1538115 -1.2808713 14 1
-4.5649323 -11.442092 0.64561641 13 9
-2.484396 -6.2208796 -1.3020806 10 2
-4.7076311 -11.781842 1.1100155 11 10
-3.1801176 -7.9508643 -1.3562869 12 3
-4.2473841 -10.613846 1.4036912 2 11
-3.7380641 -9.3316545 -1.2342927 27 4
-4.1817694 -10.428769 1.7795987 36 12
-4.6283932 -11.513494 -0.65032667 1 6
-2.598912 -6.4617381 1.6079501 8 14
-4.3928738 -10.911105 -0.20531012 24 7
-2.5155015 -6.2449059 1.8039688 20 15
-1.771926 -4.3659143 -1.2625194 16 0
-4.6672282 -11.488244 0.21644475 16 8
-2.0920448 -5.1469316 -1.2826709 14 1
-4.3386149 -10.663359 0.603329 34 9
-2.5326071 -6.2183704 -1.3051336 11 2
-5.0185318 -12.315968 1.1635292 1 10
-3.1938767 -7.8302636 -1.3393921 10 3
-5.0493283 -12.373003 1.640849 47 11
-3.839031 -9.3978796 -1.2464797 25 4
-4.2249966 -10.332412 1.7680227 16 12
-4.6524806 -11.372178 -1.0749789 42 5
-2.6442389 -6.4569497 1.3562704 5 13
-5.0028591 -12.204295 -0.69125336 11 6
-2.6236088 -6.3970208 1.5962527 3 14
-4.4860272 -10.927197 -0.20618272 5 7
-2.5939159 -6.3152013 1.8293331 26 15
-1.8075116 -4.3680329 -1.2666605 15 0
-4.5226288 -10.918593 0.20628744 12 8
-2.1315069 -5.1433744 -1.2853703 13 1
-4.4210453 -10.657562 0.60468972 40 9
-2.578639 -6.2100534 -1.3070416 12 2
-4.8874555 -11.764503 1.1145476 11 10
-3.3138485 -7.9688511 -1.3669246 16 3
-5.0045619 -12.028605 1.5996571 121 11
-3.8311715 -9.1992731 -1.2235683 15 4
-4.2937074 -10.299767 1.7673968 7 12
-4.8701315 -11.676758 -1.1068779 11 5
-2.9513438 -7.0692754 1.4890735 4 13
-5.0218949 -12.017007 -0.68256563 7 6
-3.5653918 -8.5275259 2.1338856 5 14
-4.7502179 -11.350197 -0.21476932 9 7
-2.5987892 -6.2065196 1.8029336 22 15
-1.8387038 -4.3591881 -1.2676958 11 0
-4.6629586 -11.044146 0.20925435 13 8
-2.1672251 -5.1305418 -1.2858201 12 1
-4.5214882 -10.693447 0.60845786 17 9
-2.6223795 -6.1959734 -1.3078048 12 2
-5.1888337 -12.253848 1.1642264 10 10
-3.3780363 -7.9697528 -1.3709919 15 3
-3.9092128 -9.209528 -1.2284431 32 4
-2.883652 -6.7868724 1.1679399 18 12
-4.8130965 -11.322457 -1.0763733 21 5
-3.2853432 -7.721046 1.6310353 24 13
-4.9243507 -11.561751 -0.65859574 5 6
-2.6951706 -6.3248572 1.5872546 6 14
-4.7426324 -11.118948 -0.21099959 6 7
-2.6591735 -6.2313304 1.8153569 23 15
-1.8698503 -4.3459191 -1.2676958 12 0
-4.6817541 -10.870914 0.20660159 13 8
-2.2100523 -5.12922 -1.2894194 12 1
-4.8676119 -11.2862 0.64415103 27 9
-2.6666505 -6.1770492 -1.3078048 12 2
-4.9493284 -11.459166 1.0920614 12 10
-3.4326272 -7.9399371 -1.3700532 15 3
-5.215889 -12.053213 1.6125753 14 11
-4.1288085 -9.5365477 -1.2759721 22 4
-2.9863417 -6.8911252 1.1895279 13 12
-4.9225254 -11.353535 -1.0826486 19 5
-3.1412053 -7.2380915 1.5337228 52 13
-5.0570908 -11.641627 -0.6651901 9 6
-2.7473521 -6.3214941 1.5913037 7 14
-4.8356366 -11.1159 -0.21159297 21 7
-2.7055502 -6.2134414 1.8158745 15 15
-1.8970416 -4.3256826 -1.2656252 13 0
-4.8215237 -10.988951 0.20946379 23 8
-2.251292 -5.1261554 -1.2925688 13 1
-5.0736742 -11.547199 0.66100323 6 9
-2.7125859 -6.1677413 -1.309713 14 2
-5.0516834 -11.475391 1.0969422 10 10
-3.5264032 -8.0067787 -1.3856968 13 3
-5.3018169 -12.026511 1.613794 6 11
-4.0253906 -9.1224689 -1.2242996 23 4
-3.0212114 -6.8435321 1.1848348 21 12
-5.1192408 -11.584961 -1.1080981 25 5
-3.4005189 -7.6881938 1.6340883 17 13
-5.2833109 -11.939343 -0.68424034 5 6
-2.7724757 -6.259398 1.5805061 7 14
-4.7672358 -10.752814 -0.20531012 15 7
-2.8253269 -6.3697085 1.8671206 1 15
-1.9272289 -4.3144336 -1.2661428 12 0
-4.9071016 -10.975103 0.20984773 20 8
-2.2885191 -5.1160498 -1.2939185 13 1
-5.0064354 -11.181556 0.6420576 14 9
-2.7668195 -6.1737351 -1.3150556 14 2
-5.1443486 -11.473466 1.1000798 2 10
-3.4932456 -7.7837219 -1.351281 10 3
-5.2302828 -11.643346 1.5672399 8 11
-4.1370287 -9.205307 -1.2391676 32 4
-3.1175375 -6.9303632 1.2036068 19 12
-5.1072145 -11.348175 -1.0887495 21 5
-3.2221572 -7.1529236 1.5249456 19 13
-5.2335396 -11.607209 -0.66728354 16 6
-2.8230312 -6.2581449 1.5850052 8 14
-4.9209623 -10.898725 -0.20873079 22 7
-3.2285414 -7.1437778 2.1005754 7 15
-1.963704 -4.3149405 -1.2702839 12 0
-4.9096022 -10.783114 0.20681101 21 8
-2.3201394 -5.0910811 -1.2916689 14 1
-5.1064572 -11.199921 0.64509302 19 9
-2.8152988 -6.1690478 -1.3181087 13 2
-5.1208463 -11.210737 1.0782908 16 10
-3.6561675 -8.0005159 -1.3932055 11 3
-3.1526203 -6.8922768 0.93059438 18 11
-4.048317 -8.8422909 -1.1940759 20 4
-3.2033014 -6.993392 1.2183118 27 12
-5.2577248 -11.467999 -1.1037403 22 5
-3.5717034 -7.7833247 1.6646177 42 13
-5.24576 -11.426107 -0.65890974 9 6
-2.8495641 -6.2010989 1.5755571 3 14
-3.5758905 -7.7709727 2.2921014 7 15
-1.9979018 -4.3119912 -1.2733897 13 0
-4.9780321 -10.734063 0.20653178 22 8
-2.3604803 -5.0875449 -1.2948182 13 1
-5.1870465 -11.169433 0.64540708 11 9
-2.8649178 -6.1634855 -1.3211615 13 2
-5.1642704 -11.105164 1.0714927 16 10
-3.7085979 -7.9676342 -1.3919541 16 3
-5.3593025 -11.503548 1.5582215 6 11
-4.288713 -9.2013712 -1.2464797 1 4
-5.2672434 -11.2905 1.9732646 4 12
-5.3651562 -11.495134 -1.1098412 16 5
-5.3981557 -11.544803 -0.66791159 5 6
-5.8144178 -12.418095 -0.2393423 7 7
-3.6210377 -7.7265773 2.2864075 13 15
-2.0279553 -4.2979383 -1.2733897 12 0
-5.0364695 -10.669188 0.20593838 31 8
-2.4009356 -5.0815139 -1.2975177 11 1
-5.1921105 -10.983994 0.63671929 24 9
-2.9084842 -6.1473918 -1.3219248 14 2
-5.1802773 -10.93919 1.0589422 20 10
-3.8337886 -8.0921593 -1.4182349 12 3
-5.3090501 -11.195961 1.521417 8 11
-4.3800831 -9.2285929 -1.2542794 27 4
-3.4502397 -7.2661896 1.2740024 13 12
-5.1100225 -10.751997 -1.0415112 3 5
-3.4425404 -7.2369323 1.5577648 12 13
-5.517808 -11.594357 -0.67293578 13 6
-3.7275727 -7.8255596 2.0011647 22 14
-5.7830715 -12.129909 -0.23456034 3 7
-3.6876853 -7.7313924 2.2952073 7 15
-2.0571637 -4.2840352 -1.2733897 15 0
-5.1255579 -10.664407 0.20653178 15 8
-2.4439137 -5.0826159 -1.3020166 13 1
-5.2366199 -10.880891 0.63284647 42 9
-2.9598501 -6.1446242 -1.3257409 14 2
-5.2269397 -10.84624 1.0533643 9 10
-3.8884728 -8.0616379 -1.4176092 11 3
-3.3106136 -6.8574948 0.9349817 12 11
-4.428122 -9.1681767 -1.2501358 12 4
-3.3650434 -6.9609275 1.2245692 38 12
-5.105886 -10.557331 -1.0259974 10 5
-4.819293 -9.9558821 2.1500359 4 13
-5.4618955 -11.273359 -0.65650231 5 6
-4.4870939 -9.2572441 2.3750331 29 14
-5.7799621 -11.913948 -0.23113967 1 7
-3.7348182 -7.6915574 2.2910662 7 15
-2.0844765 -4.2643623 -1.2718368 13 0
-5.2410731 -10.717296 0.2082421 13 8
-2.4776227 -5.0619307 -1.3011169 10 1
-5.3202219 -10.864726 0.6339978 29 9
-3.0033348 -6.1278601 -1.3265042 14 2
-5.39291 -10.99373 1.0713184 22 10
-3.9328132 -8.0137033 -1.4138548 11 3
-3.3615904 -6.8437099 0.93620038 13 11
-4.5331826 -9.220767 -1.2615916 10 4
-3.5030172 -7.1222081 1.2571075 30 12
-5.1583471 -10.478528 -1.021814 13 5
-4.9103737 -9.9660215 2.1595764 9 13
-5.6020846 -11.364905 -0.66403866 20 6
-4.0144529 -8.1369267 2.0947442 22 14
-5.5017605 -11.141758 -0.2168985 1 7
-4.0668826 -8.2323303 2.4603341 2 15
-2.1237772 -4.2708325 -1.2780485 13 0
-5.4618917 -10.97404 0.2139665 13 8
-2.5146267 -5.0501819 -1.3024666 10 1
-5.3834705 -10.802294 0.63253242 11 9
-3.0574327 -6.1295829 -1.3314652 12 2
-3.7862313 -7.5873733 0.74186963 31 10
-3.9930768 -7.9948878 -1.4154192 12 3
-3.4039598 -6.8094225 0.93473798 17 11
-4.8844142 -9.766717 -1.3408067 20 4
-5.7790289 -11.545492 2.0449116 16 12
-5.2322288 -10.448518 -1.0223368 13 5
-5.6923919 -11.357546 2.46945 9 13
-5.2809849 -10.527518 -0.61725032 14 6
-4.1029615 -8.1755972 2.1118405 23 14
-6.1734567 -12.29058 -0.24007531 12 7
-4.5312147 -9.013237 2.7031062 20 15
-2.1561582 -4.2610726 -1.2796015 11 0
-6.0792718 -12.008861 0.2349443 4 8
-2.5498223 -5.0325031 -1.3024666 11 1
-5.5300183 -10.909698 0.64101082 16 9
-3.1035259 -6.1173844 -1.3333733 13 2
-3.4665639 -6.827064 0.66987902 43 10
-4.0438232 -7.9604788 -1.4141676 11 3
-3.482619 -6.8497972 0.94351256 10 11
-4.9029613 -9.6350737 -1.3274009 25 4
-3.4422569 -6.7616448 1.2017297 18 12
-5.3204226 -10.441915 -1.0253001 13 5
-6.2513914 -12.258471 2.6747606 18 13
-5.3361831 -10.459304 -0.61536622 15 6
-4.1475296 -8.1224575 2.1055419 27 14
-6.134438 -12.003235 -0.23529334 5 7
-4.7208576 -9.2333155 2.7786813 20 15
-2.1904151 -4.2566042 -1.2827072 12 0
-6.1821895 -12.00346 0.2356773 15 8
-2.5902655 -5.0271578 -1.3056159 10 1
-5.7351222 -11.121118 0.65576959 17 9
-3.1560624 -6.1147585 -1.3375711 11 2
-3.9645283 -7.6778445 0.75598896 7 10
-4.1119967 -7.9566226 -1.418548 13 3
-5.6607885 -10.944134 1.5128862 15 11
-5.3516006 -10.34195 -1.4297712 11 4
-3.4802935 -6.7199078 1.198601 20 12
-5.4142876 -10.449684 -1.0296578 12 5
-5.8177176 -11.218724 2.456475 18 13
-5.4026294 -10.409389 -0.6146335 15 6
-4.2152929 -8.1182508 2.1118405 26 14
-5.4368072 -10.461839 -0.20579877 14 7
-4.711215 -9.0578814 2.7357175 36 15
-2.2075357 -4.2172475 -1.2754604 11 0
-5.439034 -10.386248 0.20464693 11 8
-2.6280124 -5.0141296 -1.3069657 11 1
-5.751327 -10.968616 0.64907056 32 9
-3.1985223 -6.0948739 -1.3379527 9 2
-6.3026695 -11.999724 1.1858411 28 10
-4.1311421 -7.8620005 -1.4066589 11 3
-5.7434673 -10.921161 1.5150797 4 11
-5.0852675 -9.661417 -1.3405629 1 4
-3.5425208 -6.7275243 1.2042327 24 12
-5.4808159 -10.386503 -0.61547089 19 6
-4.8752427 -9.2310953 2.4101257 21 14
-5.4891534 -10.384733 -0.20503086 24 7
-2.2398207 -4.2089448 -1.2775309 12 0
-5.466289 -10.263303 0.20297149 15 8
-2.6675801 -5.0064445 -1.3096651 13 1
-5.9255023 -11.111481 0.65995646 4 9
-3.2530119 -6.0949111 -1.3429137 10 2
-4.0277805 -7.543364 0.74814492 7 10
-4.2566872 -7.9653759 -1.4304368 15 3
-5.7053499 -10.667244 1.4853437 33 11
-5.2295814 -9.7736015 -1.3610369 8 4
-6.166049 -11.514103 2.0686896 5 12
-6.1807218 -11.536663 -1.1450521 22 5
-5.3549008 -9.986846 2.2026992 9 13
-5.5683022 -10.376146 -0.61714566 15 6
-3.9258516 -7.3124862 1.9161332 15 14
-5.5521407 -10.333036 -0.20475163 25 7
-4.3461418 -8.0817976 2.458781 21 15
-2.2783442 -4.2101955 -1.2827072 13 0
-5.5265026 -10.208273 0.20262244 21 8
-2.7015381 -4.9859853 -1.3092151 12 1
-5.516541 -10.177141 0.60667849 16 9
-3.3037856 -6.0898843 -1.34673 12 2
-4.0185499 -7.4012489 0.73681462 32 10
-4.319293 -7.951839 -1.4332528 15 3
-5.8119597 -10.690947 1.4941182 8 11
-5.2407632 -9.6322327 -1.3464125 17 4
-6.2763867 -11.530856 2.0793271 14 12
-6.2801719 -11.528226 -1.1485384 26 5
-6.0560303 -11.10755 2.4591465 24 13
-6.1112547 -11.204178 -0.66885358 13 6
-3.9954817 -7.3191094 1.9251312 15 14
-5.6442757 -10.330876 -0.20548463 27 7
-4.4075389 -8.0638933 2.4624047 22 15
-2.3088102 -4.1979761 -1.2837424 12 0
-5.607275 -10.186961 0.20297149 37 8
-2.741993 -4.9794307 -1.3123645 14 1
-5.5411835 -10.054419 0.60165417 27 9
-3.3509612 -6.0752664 -1.3486381 9 2
-4.0803871 -7.3946576 0.73890638 26 10
-4.3804326 -7.9318671 -1.43513 15 3
-3.7085626 -6.7097435 0.94131887 15 11
-5.3427081 -9.6623497 -1.3556747 23 4
-6.1166592 -11.052938 2.000797 26 12
-6.3894615 -11.53639 -1.1537677 26 5
-6.1902914 -11.162989 -0.66895825 20 6
-5.0677924 -9.1312628 2.4110253 15 14
-6.571589 -11.835962 -0.23630559 10 7
-5.0727143 -9.1288633 2.7983515 15 15
-2.3342903 -4.1750102 -1.2816719 12 0
-5.7153635 -10.21388 0.20429787 11 8
-2.7795451 -4.9652681 -1.3137141 15 1
-5.6063581 -10.006778 0.6011309 32 9
-3.4019332 -6.0671372 -1.3520726 12 2
-5.5930429 -9.9707603 1.0001993 7 10
-4.4656773 -7.9544892 -1.4448289 12 3
-3.8185179 -6.7961817 0.9571619 4 11
-5.4255962 -9.6525021 -1.3595744 32 4
-6.2072339 -11.034069 2.0051773 9 12
-5.4376407 -9.6581392 -0.96969479 27 5
-6.2606306 -11.115366 2.4797537 5 13
-6.296515 -11.169956 -0.67199373 22 6
-4.0388727 -7.1590781 1.8976872 31 14
-6.2579584 -11.087981 -0.22223894 7 7
-5.2189817 -9.2395658 2.8433859 18 15
-2.3633804 -4.1586123 -1.2816719 12 0
-6.269978 -11.023714 0.22136633 6 8
-2.8179963 -4.9525175 -1.3155137 13 1
-5.6750932 -9.9656582 0.60102618 29 9
-3.453928 -6.0602961 -1.3558888 11 2
-5.6072497 -9.8345461 0.99043781 11 10
-4.3997021 -7.7103734 -1.4060332 6 3
-3.8875284 -6.8072805 0.96252412 3 11
-5.49088 -9.6109438 -1.359087 30 4
-6.4105978 -11.211681 2.0455372 6 12
-5.4973178 -9.610527 -0.96864891 23 5
-6.4756174 -11.30249 -0.6826703 15 6
-5.2377877 -9.1382942 2.431721 17 14
-6.3740196 -11.11167 -0.22360022 2 7
-5.0679083 -8.8276186 2.7274351 5 15
-2.3981519 -4.1520491 -1.2847778 12 0
-6.3578744 -11.003288 0.2218201 27 8
-2.856405 -4.9394712 -1.3173134 14 1
-5.7697992 -9.9734755 0.60385227 40 9
-3.5000176 -6.0451403 -1.3577969 12 2
-5.6627855 -9.7727499 0.98817176 25 10
-3.9636588 -6.8321738 0.96983629 3 11
-5.5977125 -9.6410437 -1.3688365 16 4
-6.6782532 -11.497457 2.105921 18 12
-6.8758988 -11.813981 -0.71637464 20 6
-4.1626973 -7.1464934 1.9093846 24 14
-6.515893 -11.177466 -0.22583415 11 7
-4.307457 -7.3861184 2.2910662 10 15
-2.4361343 -4.1522918 -1.2899542 10 0
-6.467947 -11.015541 0.22297195 24 8
-2.8909478 -4.9215941 -1.3177633 14 1
-6.2188554 -10.578619 0.64310426 8 9
-3.5481074 -6.0307121 -1.3600866 10 2
-5.7311974 -9.7374125 0.98852044 18 10
-4.0273619 -6.8371034 -1.2567947 1 3
-5.6659026 -9.6149559 1.370299 34 11
-5.9233761 -10.043868 -1.4317211 16 4
-5.67698 -9.6183968 1.7689612 9 12
-6.3819699 -10.808538 -1.0981623 0 5
-6.6329489 -11.224648 2.5343251 34 13
-7.0395436 -11.903222 -0.72474837 15 6
-5.3880916 -9.1071396 2.4429684 39 14
-6.5317106 -11.031336 -0.22377476 12 7
-4.3369575 -7.3217216 2.280196 25 15
-2.4712641 -4.1472297 -1.2935777 12 0
-6.5560932 -10.993587 0.22342572 27 8
-2.9273751 -4.9068236 -1.319113 12 1
-6.6593127 -11.153393 0.68078619 29 9
-3.5941117 -6.0148468 -1.3619947 11 2
-5.8402786 -9.7700024 0.9958415 10 10
-4.1123447 -6.8739486 -1.2686837 1 3
-5.7363129 -9.5846844 1.3715178 46 11
-6.0313869 -10.069734 -1.441227 12 4
-5.6823974 -9.4795694 1.7505019 31 12
-6.8293972 -11.388526 -1.1617861 27 5
-5.600934 -9.3325844 2.1156902 36 13
-6.4715052 -10.774652 -0.65870041 1 6
-4.2836862 -7.129252 1.9201821 25 14
-6.5200834 -10.842668 -0.22084275 16 7
-4.3269424 -7.192709 2.2491376 28 15
-2.5014362 -4.1336184 -1.2946129 12 0
-6.6794596 -11.029099 0.22506624 8 8
-2.9647462 -4.8934503 -1.3209126 12 1
-6.7423258 -11.119761 0.68151885 17 9
-3.6370053 -5.9936004 -1.3627579 11 2
-6.2654071 -10.321012 1.0563276 7 10
-4.1590371 -6.8457985 -1.2686837 1 3
-5.8216505 -9.574935 1.375905 54 11
-5.7655516 -9.4789429 -1.3622556 25 4
-5.7241926 -9.4035501 1.7436188 49 12
-6.5388794 -10.737677 -1.0999055 15 5
-5.6183519 -9.2188044 2.0985174 54 13
-7.2633328 -11.908594 -0.73102868 16 6
-4.2407622 -6.9502106 1.8796909 19 14
-6.5676827 -10.75537 -0.21997014 11 7
-5.4821434 -8.9706268 2.8169866 4 15
-2.526186 -4.1094718 -1.2925425 12 0
-6.5239234 -10.608634 0.21738717 1 8
-3.0049651 -4.8825912 -1.323612 13 1
-6.7958703 -11.037893 0.67932075 13 9
-3.6787486 -5.970377 -1.3631396 9 2
-6.350904 -10.299066 1.0585936 6 10
-4.2055392 -6.8173299 -1.2686837 1 3
-5.9150596 -9.5735617 -1.3817548 18 4
-5.7891059 -9.3660488 1.7439317 47 12
-6.5895758 -10.652793 -1.0958962 1 5
-5.6794729 -9.1743498 2.0973725 69 13
-7.2937455 -11.777376 -0.72600448 18 6
-4.4226403 -7.1357679 1.9381782 6 14
-6.462368 -10.418671 -0.21400142 29 7
-4.4756122 -7.2127995 2.2745018 22 15
-2.5592141 -4.1003752 -1.2951305 10 0
-6.6115966 -10.58488 0.21784094 31 8
-3.0381303 -4.8620238 -1.323612 13 1
-7.1311512 -11.403372 0.70486069 6 9
-3.731797 -5.9628553 -1.3673373 10 2
-6.3415613 -10.128944 1.0455203 9 10
-4.2656169 -6.8078914 -1.2724382 1 3
-6.6153913 -10.549927 1.5289729 17 11
-5.8640518 -9.3480997 -1.3549435 27 4
-5.9037161 -9.4040375 1.7586365 25 12
-7.3973227 -11.778639 -1.2168685 6 5
-5.7668624 -9.1753712 2.1065314 52 13
-6.3666172 -10.121767 -0.62667084 28 6
-5.6604972 -8.9956808 2.4537661 23 14
-6.9188766 -10.986993 -0.22663696 11 7
-5.5682249 -8.8353519 2.7983515 25 15
-2.5950177 -4.0938301 -1.298754 12 0
-6.6942019 -10.55652 0.21818998 11 8
-3.0688658 -4.8357596 -1.3222623 14 1
-6.8649821 -10.813312 0.67126101 32 9
-3.7870376 -5.9605145 -1.3726799 11 2
-6.4645033 -10.166809 1.0540615 10 10
-4.3288207 -6.8053656 -1.277444 1 3
-6.6891785 -10.508004 1.5294603 19 11
-5.9665012 -9.36553 -1.3634744 30 4
-7.3208065 -11.478097 -1.1910703 66 5
-6.431066 -10.071463 -0.62625211 12 6
-7.1106911 -11.118679 -0.23037177 33 7
-5.6386476 -8.8135195 2.8035281 38 15
-2.6249139 -4.0793209 -1.2997893 12 0
-7.1639919 -11.124866 0.23096514 15 8
-3.1122644 -4.831141 -1.3267614 13 1
-6.9727726 -10.81548 0.67440122 19 9
-3.8392003 -5.950428 -1.3764962 10 2
-6.5367985 -10.127592 1.0545845 11 10
-4.410522 -6.8280783 -1.2874558 1 3
-6.7462101 -10.436042 1.5258043 6 11
-6.0646052 -9.3780432 -1.371274 25 4
-7.3184462 -11.299616 -1.1778227 25 5
-4.357698 -6.7256775 1.5577648 29 13
-7.3227029 -11.293225 -0.70538408 3 6
-6.7222228 -10.35923 2.8510296 6 14
-7.2569823 -11.179044 -0.23264058 12 7
-5.7368751 -8.8306389 2.8216453 21 15
-2.6586115 -4.0689831 -1.3023775 13 0
-7.1637831 -10.955751 0.22848691 22 8
-3.1512492 -4.8174505 -1.3290108 13 1
-7.3992567 -11.302943 0.7080009 19 9
-3.8774207 -5.9185543 -1.3753513 9 2
-6.4544463 -9.8484154 1.0301808 13 10
-4.5014186 -6.8631921 -1.2999705 1 3
-6.7840462 -10.335586 1.5180047 25 11
-6.1854963 -9.4201021 -1.3837045 25 4
-8.6394653 -13.147331 2.4916885 9 12
-7.6358042 -11.611151 -1.2158226 20 5
-4.452023 -6.7672586 1.574556 18 13
-7.7132802 -11.71559 -0.73511088 7 6
-6.7364802 -10.224176 2.826735 33 14
-6.6492362 -10.087926 -0.21089488 16 7
-4.9239998 -7.4648018 2.3961468 22 15
-2.6890898 -4.0535431 -1.3034128 14 0
-7.1261697 -10.733878 0.22489171 20 8
-3.189117 -4.8018265 -1.3308104 13 1
-7.487936 -11.265982 0.70894295 26 9
-3.9349551 -5.9158607 -1.3810756 11 2
-6.4976578 -9.7649632 1.0261717 6 10
-4.5492229 -6.8315992 -1.2999705 1 3
-6.9374995 -10.410213 1.5360414 13 11
-6.2412 -9.361825 -1.381511 7 4
-6.1985569 -9.2908306 1.7689612 7 12
-7.4646959 -11.184381 -1.1764282 16 5
-4.4926157 -6.7262168 1.5722662 39 13
-7.6517019 -11.447258 -0.72160828 5 6
-6.8817434 -10.291481 2.858228 14 14
-6.7384081 -10.069513 -0.21148828 7 7
-5.1125121 -7.6340995 2.4618869 20 15
-2.7184024 -4.036273 -1.3039304 12 0
-7.3353844 -10.887448 0.2291501 16 8
-3.229099 -4.7891397 -1.3335099 12 1
-7.681715 -11.388613 0.71993345 13 9
-3.983918 -5.901958 -1.3841285 10 2
-6.5612102 -9.712759 1.0254744 1 10
-4.5945115 -6.7988396 -1.2996577 3 3
-8.1146975 -11.998886 1.7785614 46 11
-6.1406231 -9.0730724 -1.3451939 27 4
-6.2959862 -9.2991323 1.7786602 7 12
-7.69347 -11.354668 -1.1999602 31 5
-4.5482788 -6.7076879 1.5753192 50 13
-7.5567808 -11.140366 -0.70548874 16 6
-7.4098353 -10.915532 3.0458374 13 14
-7.8850503 -11.606858 -0.24492706 3 7
-5.0926905 -7.4936676 2.4277227 28 15
-2.7501736 -4.0240555 -1.3060009 12 0
-7.4778199 -10.933357 0.23120949 30 8
-3.2583215 -4.7622237 -1.3321601 13 1
-7.7632918 -11.338002 0.72014278 9 9
-4.038341 -5.8934355 -1.388708 11 2
-8.5039091 -12.405709 1.3158773 6 10
-5.1514192 -7.5093932 -1.4423259 5 3
-6.8455572 -9.9715309 1.4851 11 11
-6.1820092 -9.0016117 -1.3408067 12 4
-8.2158318 -11.954107 2.2973969 19 12
-7.7130098 -11.218307 -1.1910703 10 5
-4.6005082 -6.6862769 1.5776089 34 13
-7.6774139 -11.149849 -0.70946628 15 6
-7.4574318 -10.826325 3.0350397 4 14
-7.8344903 -11.365226 -0.24094793 6 7
-5.2216716 -7.5692444 2.4639573 21 15
-2.7848067 -4.0142817 -1.3091067 11 0
-3.2970469 -4.7473636 -1.3344096 13 1
-8.2619314 -11.891788 0.75887144 11 9
-4.0828457 -5.8722582 -1.3902344 11 2
-8.528862 -12.257724 1.3064646 5 10
-5.1979012 -7.46767 -1.4410745 5 3
-6.8928494 -9.8953838 1.4807127 17 11
-6.5262294 -9.3620949 -1.4012538 17 4
-6.2439423 -8.9538126 1.728914 7 12
-8.1468897 -11.673953 -1.2454555 31 5
-4.6583161 -6.6700921 1.581425 34 13
-7.8640833 -11.256147 -0.71961951 1 6
-7.9354234 -11.341387 -0.24161112 11 7
-8.1932039 -11.705454 3.8284514 35 15
-2.8165133 -4.0015531 -1.3111774 12 0
-8.080411 -11.47171 0.24492706 4 8
-3.3382638 -4.7375565 -1.3380089 11 1
-8.1018858 -11.489417 0.73678571 17 9
-4.1271386 -5.848424 -1.3913792 13 2
-7.529696 -10.666122 1.1422632 11 10
-5.2556067 -7.4392657 -1.4426388 3 3
-6.9411373 -9.8178453 1.4763253 32 11
-6.7479868 -9.5411129 -1.4348897 17 4
-7.9872947 -11.285038 2.18977 3 12
-4.7104187 -6.6478419 1.5837147 36 13
-8.443861 -11.908058 -0.76504707 7 6
-5.2382803 -7.3846173 2.0902452 32 14
-7.9036298 -11.133831 -0.23833007 23 7
-7.2476554 -10.202209 3.3532596 8 15
-2.839889 -3.9755044 -1.3091067 12 0
-8.3385201 -11.668623 0.25033733 12 8
-3.3825927 -4.7299867 -1.342508 11 1
-8.4820461 -11.85634 0.76400036 4 9
-4.1794214 -5.8377557 -1.3955771 15 2
-7.601655 -10.610055 1.1419145 11 10
-5.3061209 -7.4033213 -1.4426388 3 3
-7.1177149 -9.9236155 1.4994806 37 11
-6.8549466 -9.5502148 -1.4434206 15 4
-6.1213932 -8.5250978 1.6622728 23 12
-7.2699966 -10.11727 -1.0899696 8 5
-4.794539 -6.6673946 1.5963081 45 13
-8.6366882 -12.005954 -0.77509558 28 6
-5.3170319 -7.3858237 2.1010427 4 14
-7.9811654 -11.078382 -0.23833007 15 7
-8.4193258 -11.682277 3.8584745 29 15
-2.8736851 -3.9654675 -1.3122126 12 0
-7.9936252 -11.022496 0.23766688 15 8
-3.4147103 -4.706852 -1.342508 11 1
-7.9638333 -10.969328 0.71040833 17 9
-4.2420006 -5.8386135 -1.4028277 13 2
-7.6842427 -10.572573 1.1434834 22 10
-5.3600006 -7.3692923 -1.4432646 5 3
-7.2505012 -9.9648247 1.5131298 30 11
-6.9454985 -9.5386391 -1.4487829 31 4
-6.2156582 -8.5300503 1.671659 19 12
-7.3058305 -10.022471 -1.085089 29 5
-4.8502254 -6.6488805 1.5997428 45 13
-8.6131325 -11.79857 -0.7655704 15 6
-5.9774551 -8.1851273 2.3399408 33 14
-8.067008 -11.03833 -0.23864421 12 7
-6.8123736 -9.318161 3.0928879 8 15
-2.9074762 -3.9551544 -1.3153185 12 0
-8.0708351 -10.971053 0.23773669 19 8
-3.4535999 -4.6929173 -1.3452073 11 1
-8.4173136 -11.429491 0.74390334 19 9
-4.293292 -5.825408 -1.406644 13 2
-8.822484 -11.966525 1.3007122 10 10
-5.4182472 -7.3437638 -1.4454547 7 3
-7.3158054 -9.9120474 1.5126424 16 11
-7.204864 -9.7546062 -1.4889997 17 4
-6.6727929 -9.0276451 1.7780343 28 12
-7.4781237 -10.113487 -1.1004283 17 5
-5.7817202 -7.8135476 1.8893907 32 13
-8.7574234 -11.826345 -0.77122277 18 6
-6.1223478 -8.2648268 2.3745835 30 14
-8.6564093 -11.677143 -0.25372308 5 7
-6.912466 -9.3212299 3.1094522 14 15
-2.9424136 -3.9461136 -1.318942 14 0
-8.1776152 -10.959135 0.23867911 41 8
-3.4831309 -4.6661777 -1.3443075 14 1
-8.0179939 -10.733491 0.70213926 9 9
-4.3328447 -5.7960496 -1.406644 14 2
-7.8560939 -10.505279 1.1476668 6 10
-5.4740267 -7.3146195 -1.4470189 8 3
-5.8723984 -7.8412375 1.2028506 7 11
-7.3591709 -9.8229017 -1.5070363 20 4
-5.7742763 -7.7018065 1.5246104 7 12
-7.6131158 -10.147093 -1.1098412 25 5
-5.8559837 -7.8022752 1.8962599 36 13
-8.5954266 -11.443874 -0.75007898 15 6
-6.1494551 -8.1813822 2.362886 11 14
-8.9327841 -11.88007 -0.25944749 10 7
-6.920454 -9.1971073 3.0840878 5 15
-2.9663942 -3.9208539 -1.317389 12 0
-8.1452894 -10.758291 0.23553768 24 8
-3.5250347 -4.6541748 -1.3479067 14 1
-8.6609612 -11.426954 0.75143975 16 9
-4.3732023 -5.7656608 -1.406644 17 2
-7.9906616 -10.531127 1.1565567 11 10
-5.5619912 -7.3249969 -1.4567178 7 3
-5.8933687 -7.7557926 1.1960258 41 11
-7.4612045 -9.8155355 -1.5138612 15 4
-5.8171391 -7.6471591 1.5217947 19 12
-7.6825628 -10.092111 -1.1096668 7 5
-5.9341006 -7.7924409 1.9038923 45 13
-8.8470144 -11.609163 -0.76494241 31 6
-8.8323555 -11.57735 -0.25417686 7 7
-8.0418978 -10.533599 3.5509973 44 15
-2.9913421 -3.8969841 -1.3163538 13 0
-8.3919601 -10.924767 0.24045926 11 8
-3.5693152 -4.6449041 -1.3524057 17 1
-8.7466125 -11.374126 0.75196314 13 9
-4.4133477 -5.7349892 -1.406644 14 2
-8.0384655 -10.441932 1.1528962 9 10
-5.6105819 -7.2828608 -1.4560922 2 3
-5.855257 -7.5949788 1.1775017 37 11
-7.5950093 -9.848093 -1.527023 17 4
-5.8245225 -7.5469365 1.5099056 19 12
-7.743772 -10.030124 -1.108621 18 5
-5.8995328 -7.63586 1.8756526 53 13
-9.2638016 -11.981634 -0.79372716 15 6
-6.2688255 -8.1050663 2.3655853 38 14
-9.4674244 -12.231758 -0.26998872 7 7
-8.1684742 -10.545927 3.574291 21 15
-3.026783 -3.8866756 -1.3199772 14 0
-8.6209736 -11.066155 0.24485727 12 8
-3.6016545 -4.6198735 -1.3524057 17 1
-8.7329397 -11.197781 0.74421734 29 9
-4.4546967 -5.707912 -1.4074073 13 2
-8.0976772 -10.368284 1.1509787 13 10
-5.3742256 -6.8786955 -1.382568 1 3
-5.7625418 -7.3704133 1.1487405 33 11
-7.655015 -9.7838869 -1.5253168 17 4
-5.7734876 -7.3764472 1.4836246 25 12
-7.8271213 -9.9930706 -1.1105385 17 5
-6.2445788 -7.9668717 1.9676224 26 13
-9.5842228 -12.223214 -0.81403357 20 6
-6.4010439 -8.15769 2.393929 26 14
-10.937003 -13.928438 -0.30911702 2 7
-8.0539045 -10.253089 3.4935398 36 15
-3.0579591 -3.8720465 -1.3220477 13 0
-8.4053965 -10.635446 0.23661973 2 8
-3.6257675 -4.5860777 -1.3497064 17 1
-8.8047037 -11.128712 0.74369401 19 9
-4.501749 -5.6859093 -1.4096969 13 2
-8.2113581 -10.367592 1.1570797 14 10
-5.7349072 -7.2304659 1.1331413 41 11
-7.7535114 -9.771987 -1.5316541 17 4
-5.8960867 -7.4256887 1.5017711 33 12
-9.2729511 -11.674424 -1.3043728 15 5
-5.9517236 -7.4877062 1.8592429 43 13
-9.5934801 -12.060658 -0.8076486 11 6
-6.5680547 -8.25422 2.4353201 28 14
-9.6999454 -12.181407 -0.27180377 2 7
-7.399323 -9.2855778 3.1814039 5 15
-3.0982022 -3.8671887 -1.3277417 12 0
-10.966225 -13.683191 0.30608028 3 8
-3.6698871 -4.5758567 -1.3542054 18 1
-8.8415041 -11.020228 0.74044919 11 9
-4.5526385 -5.6704435 -1.4135132 13 2
-8.6454277 -10.760435 1.2076299 7 10
-5.4883561 -6.8285799 -1.387574 133 3
-5.7914538 -7.2005448 1.1346037 35 11
-7.8887591 -9.8011236 -1.5448159 15 4
-5.9056134 -7.3346086 1.4914464 36 12
-9.3317289 -11.581473 -1.3012352 21 5
-6.1122947 -7.5804663 1.8928252 45 13
-9.8747272 -12.242255 -0.82429141 16 6
-5.8017673 -7.1876426 2.1325359 14 14
-10.764859 -13.326755 -0.29902953 3 7
-7.5279207 -9.3161402 3.2093563 15 15
-3.119581 -3.8400123 -1.3256712 12 0
-9.2462854 -11.373494 0.25585228 12 8
-3.7120144 -4.5643768 -1.3582544 17 1
-8.9283104 -10.970627 0.74128658 3 9
-4.5896349 -5.6354771 -1.4127499 13 2
-8.9349222 -10.967018 1.2376115 2 10
-5.5683503 -6.8299036 -1.3957086 100 3
-5.877974 -7.2045417 1.141672 35 11
-7.9151249 -9.6979856 -1.5370163 7 4
-5.9679189 -7.3069725 1.4942621 31 12
-9.4948063 -11.621061 -1.3129141 21 5
-10.001687 -12.224031 -0.82774556 33 6
-5.928318 -7.2429891 2.1608799 14 14
-9.6883125 -11.828384 -0.26688221 9 7
-7.7446318 -9.4486256 3.2735434 11 15
-3.1487694 -3.8211224 -1.3267065 12 0
-9.1225176 -11.066498 0.25033733 30 8
-3.7586708 -4.5563903 -1.3636533 18 1
-9.0091352 -10.917302 0.7418099 3 9
-4.6353889 -5.6131887 -1.4150395 13 2
-9.6268263 -11.649252 1.3221526 10 10
-5.8218527 -7.0374155 1.1214418 33 11
-8.0206108 -9.6883669 -1.5443285 15 4
-5.9822392 -7.2235818 1.4855019 45 12
-9.5846024 -11.565232 -1.3141342 21 5
-7.8392191 -9.4524536 2.3870206 30 13
-10.082112 -12.152595 -0.82753623 35 6
-6.4131708 -7.7247033 2.3178957 31 14
-9.9150572 -11.934263 -0.27082643 10 7
-8.1878433 -9.8518076 3.4324584 28 15
-3.174706 -3.7996011 -1.3267065 12 0
-9.7511139 -11.662205 0.26534638 8 8
-3.789598 -4.5307002 -1.3636533 18 1
-9.1056414 -10.878647 0.74348468 43 9
-4.6845474 -5.5927324 -1.4180925 12 2
-9.0456142 -10.795444 1.2322079 2 10
-5.7229104 -6.8251357 -1.4107262 3 3
-5.8364515 -6.9580803 1.1151046 22 11
-8.1042404 -9.6548347 -1.5477408 15 4
-5.9855137 -7.1256771 1.4739258 35 12
-9.7284708 -11.577516 -1.3230242 21 5
-7.8957973 -9.3898582 2.3847308 38 13
-9.5648832 -11.366716 -0.77854973 24 6
-6.5559602 -7.7882128 2.3502886 11 14
-9.7654505 -11.592739 -0.26457849 27 7
-8.4352179 -10.010052 3.5075159 12 15
-3.2129829 -3.7926438 -1.331883 11 0
-6.3582535 -7.5000486 0.17162697 29 8
-3.8266511 -4.5122328 -1.3659029 18 1
-9.2544346 -10.904737 0.74955565 30 9
-4.7326746 -5.5726876 -1.4211454 13 2
-9.1562958 -10.777656 1.237263 22 10
-5.8280911 -6.8552547 -1.4251182 1 3
-5.9479804 -6.9938006 1.1272914 48 11
-8.2083654 -9.6447992 -1.5550529 12 4
-6.0671782 -7.1238704 1.4820602 27 12
-9.3716097 -10.999935 -1.2642812 23 5
-7.9608035 -9.3373909 2.3851125 14 13
-9.352953 -10.962519 -0.7552079 11 6
-8.2053623 -9.6140385 2.9180651 17 14
-9.3753033 -10.97707 -0.25197786 25 7
-3.2462771 -3.7794788 -1.3349887 11 0
-6.4287071 -7.4793444 0.17215054 27 8
-3.8585465 -4.4875584 -1.3663527 17 1
-9.2893639 -10.796076 0.7464155 35 9
-4.7772145 -5.5501046 -1.4234352 13 2
-9.2073383 -10.689421 1.2342997 18 10
-5.8952537 -6.8393645 -1.430124 1 3
-6.1808224 -7.1681337 1.1621461 35 11
-8.2608576 -9.5736742 -1.5526155 10 4
-6.1710858 -7.1492701 1.4958265 38 12
-9.4019871 -10.884625 -1.2583545 25 5
-9.3658171 -10.835104 2.7839034 15 13
-9.4058561 -10.877587 -0.75363785 28 6
-7.8115568 -9.0274582 2.7561004 16 14
-9.3955469 -10.854175 -0.25058165 22 7
-5.608397 -6.4745135 2.2952073 25 15
-3.2706592 -3.7558372 -1.334471 10 0
-6.4952469 -7.4561448 0.17260429 29 8
-3.8954058 -4.4685345 -1.3686022 17 1
-9.41327 -10.794439 0.75060236 11 9
-4.8174634 -5.5204163 -1.4241984 14 2
-8.9588051 -10.258827 1.1915933 10 10
-5.9768734 -6.8417706 -1.4388845 1 3
-6.1785159 -7.0676112 1.1526403 32 11
-8.2836609 -9.472352 -1.5450597 27 4
-9.5178623 -10.86834 -1.2639326 17 5
-7.6560602 -8.7392912 2.2584155 25 13
-9.4967957 -10.832835 -0.75499856 30 6
-6.9268608 -7.8985729 2.4254222 19 14
-9.4322815 -10.747883 -0.24960433 14 7
-5.6714602 -6.4579625 2.3029721 20 15
-3.2967744 -3.7355123 -1.3349887 12 0
-6.5286398 -7.3922749 0.17215054 19 8
-3.9301169 -4.4484439 -1.3704019 17 1
-5.6196861 -6.3563704 0.44464633 53 9
-4.8708777 -5.5074635 -1.4291594 15 2
-9.3884525 -10.607986 1.2393546 12 10
-6.2420249 -7.0478849 -1.4911336 6 3
-6.2568464 -7.0621405 1.1584901 33 11
-8.4401293 -9.5197229 -1.5621214 13 4
-6.2980599 -7.1011643 1.5033354 39 12
-8.5078974 -9.5860443 -1.1213458 10 5
-7.7075472 -8.6781683 2.2561257 42 13
-8.2352467 -9.269062 -0.64980328 35 6
-9.503355 -10.685091 -0.24960433 7 7
-8.2148361 -9.2298574 3.3108134 11 15
-3.3247004 -3.7158651 -1.3360239 12 0
-6.4988389 -7.2609015 0.17009115 33 8
-3.9616041 -4.4230413 -1.3708518 18 1
-5.6643848 -6.3219337 0.44485566 45 9
-4.9213581 -5.4887996 -1.4329756 15 2
-9.858285 -10.98724 1.2914737 1 10
-6.3005056 -7.0195613 -1.4939493 9 3
-6.6483307 -7.4018865 1.2216184 35 11
-8.5680914 -9.5358896 -1.5740645 16 4
-6.3462505 -7.0581303 1.5033354 40 12
-8.2051363 -9.1191292 -1.0732358 21 5
-7.7347226 -8.5932989 2.2473485 32 13
-8.5173626 -9.4561739 -0.66696948 22 6
-7.6885295 -8.5329838 2.6517229 12 14
-8.481823 -9.4068079 -0.22108708 12 7
-7.5825057 -8.403511 3.0328417 21 15
-3.3674335 -3.7085569 -1.3422357 11 0
-6.5760078 -7.2370849 0.17068455 31 8
-3.9768815 -4.3751354 -1.365003 17 1
-5.7734909 -6.347209 0.44967055 56 9
-4.9822369 -5.4734874 -1.4387 14 2
-10.035144 -11.020749 1.3040242 1 10
-6.3729653 -6.9939828 -1.4986424 9 3
-6.3853617 -7.0026765 1.1636086 7 11
-8.5805511 -9.4067907 -1.5633401 11 4
-6.4443216 -7.0599079 1.5139729 33 12
-8.2397518 -9.0205164 -1.0688781 7 5
-11.397209 -12.472794 3.2842045 8 13
-10.66503 -11.663335 -0.82826895 1 6
-7.8656497 -8.5958939 2.6899645 20 14
-8.5589342 -9.3502607 -0.22126161 10 7
-7.9507022 -8.6797142 3.153969 24 15
-3.4024031 -3.6949043 -1.3458591 10 0
-6.5301628 -7.0865889 0.16820629 21 8
-4.0086493 -4.3486977 -1.3654529 17 1
-5.806829 -6.2950034 0.4488332 48 9
-5.0256529 -5.4443431 -1.4402263 13 2
-8.4506359 -9.151454 1.0897954 12 10
-6.4095697 -6.9362655 -1.4958265 1 3
-8.3990946 -9.0829086 1.5189797 19 11
-8.6675816 -9.3699741 -1.5672399 15 4
-6.8410034 -7.3901992 1.595006 38 12
-8.723608 -9.4173431 -1.1230888 27 5
-6.2544212 -6.749434 1.7886436 7 13
-11.417068 -12.312061 -0.87997687 26 6
-6.4130177 -6.9108963 2.1766264 12 14
-10.530015 -11.343554 -0.27016324 12 7
-5.9218812 -6.3749332 2.3314421 25 15
-3.4294331 -3.6724739 -1.3463767 12 0
-6.6286268 -7.0934258 0.16946286 14 8
-4.0402417 -4.322031 -1.3659029 20 1
-5.8779211 -6.283483 0.45092663 60 9
-5.0689073 -5.4148564 -1.4417528 13 2
-10.992894 -11.739051 1.4070423 8 10
-6.4443326 -6.8769341 -1.4926978 1 3
-8.4580078 -9.0226326 1.5184922 15 11
-8.9093428 -9.4974461 -1.5989259 8 4
-8.3904324 -8.9380283 1.9416648 12 12
-10.792418 -11.492758 -1.3793268 12 5
-6.3995323 -6.8100448 1.8165017 9 13
-11.530105 -12.261157 -0.88207024 16 6
-8.1396446 -8.6526985 2.7426033 23 14
-11.042086 -11.729872 -0.2811932 33 7
-10.939613 -11.616959 4.2756906 5 15
-3.4463828 -3.6406274 -1.3432709 10 0
-11.171019 -11.792391 0.28353179 11 8
-4.0722475 -4.2972584 -1.3668026 17 1
-5.8861976 -6.2070966 0.44830981 41 9
-5.1137543 -5.3887734 -1.4440426 12 2
-6.8106022 -7.1743708 0.86545652 10 10
-6.51548 -6.8586888 -1.4983294 1 3
-6.9070005 -7.2682929 1.2311242 28 11
-8.6769342 -9.1244287 -1.5460347 15 4
-8.8378162 -9.2871094 2.0305195 16 12
-8.7836847 -9.227006 -1.1145476 17 5
-6.4714675 -6.7933354 1.8237525 19 13
-11.18884 -11.737133 -0.84983134 6 6
-7.9952769 -8.38414 2.6746681 28 14
-8.4052238 -8.8047905 3.2616377 17 15
-3.4817841 -3.6282363 -1.347412 11 0
-11.443555 -11.916564 0.28838354 15 8
-4.1014028 -4.2694411 -1.3668026 19 1
-5.868794 -6.1049733 0.44380894 56 9
-5.1612053 -5.36516 -1.4470955 12 2
-6.310813 -6.5579057 0.79625487 34 10
-6.5784578 -6.8312554 -1.5020839 2 3
-6.9630847 -7.2256136 1.2320992 31 11
-9.2568617 -9.6025181 -1.6376804 11 4
-7.1906071 -7.4538956 1.6403719 22 12
-10.936801 -11.333305 -1.3779322 20 5
-6.2025232 -6.4228992 1.7355988 59 13
-11.121358 -11.508459 -0.83873612 2 6
-6.2832594 -6.4996901 2.087096 28 14
-11.898701 -12.299966 -0.29871538 8 7
-8.4234896 -8.7014818 3.2450736 33 15
-3.5137665 -3.6107616 -1.3500001 10 0
-7.8963485 -8.1114941 0.19759615 15 8
-4.1311102 -4.2407026 -1.3668026 19 1
-5.9283323 -6.0834808 0.44516969 45 9
-5.2167945 -5.3495817 -1.4524381 12 2
-6.0948372 -6.2456117 0.7634843 20 10
-6.6537819 -6.8160028 -1.5086541 3 3
-7.0412369 -7.20787 1.2372177 33 11
-9.5151691 -9.7335539 -1.6713163 11 4
-7.2273641 -7.3906565 1.6372433 7 12
-9.0800762 -9.2787504 -1.1358136 16 5
-6.2897921 -6.422925 1.7474288 37 13
-12.085551 -12.337047 -0.90509808 18 6
-6.3448505 -6.4723668 2.0924947 30 14
-11.882052 -12.112393 -0.29616734 36 7
-7.4717646 -7.6139507 2.8583977 15 15
-3.5450456 -3.5936382 -1.3525884 10 0
-7.9289026 -8.0319757 0.19700275 16 8
-4.1639867 -4.2166452 -1.3681523 21 1
-5.8555422 -5.9254518 0.43658656 53 9
-5.2567739 -5.3158245 -1.4532013 13 2
-6.0461307 -6.1119118 0.75215399 24 10
-6.7526226 -6.8213291 -1.5202303 7 3
-7.143075 -7.2107186 1.2462361 30 11
-8.9230804 -9.0044374 -1.5565153 16 4
-7.2217569 -7.2825127 1.6244158 22 12
-9.2021732 -9.2731133 -1.1429603 17 5
-6.3928404 -6.4398756 1.7638384 46 13
-10.894703 -10.9672 -0.8101607 16 6
-6.4146118 -6.4527912 2.1005929 29 14
-10.89682 -10.957851 -0.2697444 19 7
-7.5506287 -7.5876198 2.8682327 15 15
-3.5741465 -3.5728991 -1.3541414 11 0
-10.916122 -10.904696 0.26932555 20 8
-4.2015967 -4.1957345 -1.3708518 21 1
-5.9731088 -5.9606128 0.4422389 67 9
-5.3020983 -5.2873135 -1.4554911 12 2
-6.077363 -6.0583019 0.75075954 12 10
-6.8280706 -6.8019013 -1.5264877 7 3
-7.1848001 -7.1522717 1.2447736 29 11
-8.9674349 -8.9237175 -1.5533468 26 4
-7.2149925 -7.174808 1.611588 36 12
-6.5365353 -6.4933252 1.7909334 39 13
-12.426713 -12.335958 -0.91765875 14 6
-6.3004041 -6.2500224 2.0488544 37 14
-10.974473 -10.882921 -0.26977929 25 7
-7.7255425 -7.655745 2.9143026 21 15
-3.5879962 -3.5370097 -1.3500001 10 0
-12.396608 -12.211924 0.30374169 10 8
-4.2432828 -4.178606 -1.3749009 20 1
-5.8992658 -5.8052959 0.43376043 58 9
-5.3556795 -5.2666879 -1.4600705 13 2
-5.9617968 -5.8606906 0.73141098 28 10
-6.9007545 -6.7789865 -1.5321194 7 3
-7.2814755 -7.1504889 1.2530607 8 11
-7.3213215 -7.1795888 1.6241028 35 12
-10.999494 -10.782791 -1.3476021 10 5
-6.6910973 -6.5546966 1.8206996 48 13
-12.522525 -12.258679 -0.91839141 20 6
-6.3441916 -6.2083564 2.0493042 31 14
-12.019525 -11.753961 -0.29344478 8 7
-7.664196 -7.4922471 2.8718562 17 15
-3.6078339 -3.5084646 -1.3484472 13 0
-8.3478336 -8.1122484 0.20318091 8 8
-4.273025 -4.1509838 -1.3753507 21 1
-5.9830704 -5.8081331 0.43700528 45 9
-5.4083133 -5.2465158 -1.4646499 13 2
-5.958642 -5.7783632 0.72618169 25 10
-6.9495745 -6.7346063 -1.532745 7 3
-7.4083953 -7.1767273 1.2664663 23 11
-10.012416 -9.6925468 -1.7110457 13 4
-7.4481091 -7.2051272 1.6413106 9 12
-11.029668 -10.666119 -1.3423727 24 5
-8.0866232 -7.8146191 2.1859078 28 13
-10.976448 -10.599835 -0.79969347 11 6
-6.4521995 -6.228642 2.0704496 19 14
-12.585696 -12.141139 -0.3052426 22 7
-7.3687587 -7.1059942 2.7429643 28 15
-3.6455722 -3.4971998 -1.3536236 13 0
-8.3407869 -7.9957342 0.20168002 18 8
-4.2997732 -4.1204548 -1.3749009 20 1
-5.9936156 -5.739645 0.43491185 53 9
-5.4467363 -5.212296 -1.4654131 13 2
-6.0395889 -5.7776093 0.73123664 20 10
-7.0152435 -6.7062569 -1.5371252 7 3
-8.9295444 -8.5332565 1.5165422 4 11
-10.154246 -9.6968327 -1.7239639 12 4
-12.191523 -11.634198 2.669085 8 12
-12.213511 -11.651115 -1.4767668 15 5
-6.8194971 -6.5009313 1.8313849 45 13
-11.033883 -10.511099 -0.79864681 16 6
-7.130909 -6.7906733 2.2733555 11 14
-10.897851 -10.370633 -0.26258892 29 7
-6.5561471 -6.236793 2.4246168 12 15
-3.6749053 -3.4776158 -1.3556943 12 0
-8.4051867 -7.9483943 0.20192434 25 8
-4.3348012 -4.097785 -1.3771503 20 1
-6.2938819 -5.9455919 0.45375276 38 9
-5.4963655 -5.1885767 -1.4692293 13 2
-6.2367234 -5.8854146 0.75023663 18 10
-7.0736642 -6.6705484 -1.5399411 9 3
-14.940037 -14.083698 2.5209894 7 11
-10.287927 -9.6914654 -1.7354196 10 4
-17.846853 -16.800396 3.8820782 9 12
-12.175008 -11.457113 -1.4626477 15 5
-6.8607278 -6.4516735 1.8306217 23 13
-13.046762 -12.260297 -0.93827915 16 6
-7.1741233 -6.7393103 2.2724555 4 14
-12.331376 -11.575883 -0.29522491 7 7
-6.6505694 -6.2409363 2.4437695 26 15
-3.6900187 -3.4446115 -1.3525884 12 0
-8.4722557 -7.9032741 0.20223849 16 8
-4.3725705 -4.077487 -1.3802997 20 1
-6.0039816 -5.5948863 0.43009692 67 9
-5.5329914 -5.1523833 -1.4696109 12 2
-6.3174715 -5.8808389 0.75511736 28 10
-7.1420465 -6.6437716 -1.5449469 9 3
-15.051076 -13.99122 2.5231831 21 11
-10.394373 -9.659049 -1.7422442 10 4
-8.861702 -8.2290401 1.9153838 17 12
-12.727883 -11.810933 -1.5191245 19 5
-7.2542424 -6.7292719 1.9233549 21 13
-12.775443 -11.842624 -0.91294849 16 6
-9.0995178 -8.4291954 2.863627 27 14
-13.395865 -12.404712 -0.31868094 37 7
-6.7322626 -6.2297792 2.4577458 36 15
-3.7139759 -3.418767 -1.3525884 11 0
-8.5699043 -7.8831944 0.20325074 17 8
-4.4095354 -4.0547771 -1.3829991 18 1
-6.5046787 -5.977169 0.46296394 36 9
-5.5818434 -5.1255798 -1.4730455 12 2
-6.4214869 -5.8945251 0.7626127 21 10
-7.1926217 -6.597755 -1.5458857 9 3
-14.28502 -13.094401 2.3793771 10 11
-10.458626 -9.5835648 -1.7417568 7 4
-6.416039 -5.8750982 1.377875 21 12
-13.134874 -12.019037 -1.5576475 12 5
-6.8809443 -6.2941866 1.8126855 43 13
-12.788521 -11.689811 -0.9080289 18 6
-6.6373143 -6.0628266 2.0753984 32 14
-12.57841 -11.485668 -0.2973192 8 7
-6.7827244 -6.1891398 2.4603341 27 15
-3.7391837 -3.3940527 -1.353106 10 0
-8.6780529 -7.8715386 0.20450729 18 8
-4.437737 -4.0238924 -1.3829991 20 1
-6.6084089 -5.9879389 0.46736014 22 9
-5.627676 -5.0957117 -1.4757168 12 2
-10.639829 -9.6307049 1.2555656 10 10
-7.2487612 -6.5566578 -1.5480757 9 3
-7.2543144 -6.5570755 1.2006569 12 11
-10.484034 -9.4730549 -1.7349322 11 4
-6.4656963 -5.8381062 1.3797522 27 12
-12.457648 -11.244512 -1.4682256 7 5
-6.4159336 -5.7870789 1.6795008 21 13
-13.047846 -11.760711 -0.92058951 2 6
-9.2221088 -8.3094559 2.8658764 11 14
-13.527635 -12.180337 -0.31773853 7 7
-6.8386931 -6.153264 2.4649925 12 15
-3.7815001 -3.3846157 -1.3598353 11 0
-8.8014717 -7.8749576 0.20614782 15 8
-4.4715309 -3.9980102 -1.3847986 19 1
-7.0034299 -6.2595906 0.49227205 72 9
-5.6710172 -5.0651345 -1.4780066 11 2
-6.6027527 -5.8931832 0.77429163 8 10
-7.3109102 -6.5229459 -1.5518301 9 3
-10.639977 -9.4865408 1.7502877 35 11
-10.561771 -9.4101934 -1.7368821 9 4
-12.553709 -11.17316 -1.4703174 13 5
-6.922677 -6.1570544 1.8008554 42 13
-13.854504 -12.31791 -0.97156477 20 6
-9.5960226 -8.5257435 2.9635053 27 14
-12.906526 -11.458949 -0.30126345 3 7
-6.9714446 -6.1873627 2.4976039 24 15
-3.8044508 -3.3587973 -1.3598353 12 0
-8.8547363 -7.811995 0.20611292 10 8
-4.5117946 -3.9790814 -1.3888478 18 1
-7.1098924 -6.2660079 0.49666828 52 9
-5.7106586 -5.0293136 -1.4791514 13 2
-5.9607954 -5.2477574 0.69480556 14 10
-7.3547878 -6.4704428 -1.5515171 9 3
-10.494361 -9.2227688 -1.715433 9 4
-10.591659 -9.3017263 2.2326329 15 12
-11.832922 -10.388161 -1.3775836 21 5
-11.893139 -10.426333 -0.82889694 7 6
-9.3636484 -8.2059174 2.8744247 16 14
-13.054928 -11.432755 -0.30290398 2 7
-7.1336799 -6.2428646 2.54005 9 15
-3.8292632 -3.3334246 -1.3603529 11 0
-13.321585 -11.592526 0.30824441 18 8
-4.5438747 -3.9513237 -1.3901975 18 1
-7.0785189 -6.1532612 0.49153933 34 9
-5.7447615 -4.9903245 -1.4791514 12 2
-6.0710106 -5.2700143 0.70334685 30 10
-7.4120879 -6.4318824 -1.5543331 9 3
-7.449297 -6.4596167 1.2106501 8 11
-10.6095 -9.1934786 -1.7237202 10 4
-6.5472221 -5.6713843 1.3719305 20 12
-11.757528 -10.177509 -1.3605011 18 5
-7.1197581 -6.1586337 1.8298583 30 13
-11.966854 -10.347751 -0.82910633 16 6
-7.6763496 -6.6330652 2.3421905 6 14
-11.997766 -10.359845 -0.27669045 20 7
-7.1979432 -6.2130995 2.5478148 1 15
-3.8518646 -3.3072824 -1.3603529 10 0
-12.086403 -10.370284 0.27798194 6 8
-4.5898943 -3.9367957 -1.3960463 20 1
-7.348772 -6.2986608 0.50724012 30 9
-5.7898965 -4.9590378 -1.4818227 14 2
-6.1112819 -5.2324553 0.70386976 27 10
-7.4718184 -6.3928232 -1.5574617 9 3
-13.336292 -11.40235 2.1544065 16 11
-10.7171 -9.1597433 -1.7310323 9 4
-9.9453278 -8.4941111 2.0715053 11 12
-11.829559 -10.099833 -1.3608497 17 5
-8.7446642 -7.4607334 2.2343736 54 13
-11.844262 -10.098093 -0.81570828 7 6
-13.279827 -11.310015 -0.30447468 8 7
-9.4655657 -8.055829 3.3304837 34 15
-3.885181 -3.2890482 -1.3639765 12 0
-12.146027 -10.278731 0.27773759 16 8
-4.6247067 -3.9109483 -1.3982958 18 1
-6.8759327 -5.8126717 0.47186103 28 9
-5.8310165 -4.9258475 -1.4837308 12 2
-6.2466211 -5.2732015 0.71520001 35 10
-7.51969 -6.3456378 -1.5584004 7 3
-10.540877 -8.8888292 1.693009 17 11
-10.805075 -9.1051683 -1.7349322 9 4
-9.8850727 -8.326952 2.0471017 1 12
-14.06726 -11.841536 -1.6087207 14 5
-8.6147442 -7.2465854 2.1881976 46 13
-11.888265 -9.9966717 -0.81403357 18 6
-7.0494475 -5.9235826 2.1257875 28 14
-11.91894 -10.008269 -0.27166417 11 7
-9.6370726 -8.0893354 3.3713772 32 15
-3.9134107 -3.2674794 -1.366047 10 0
-13.478086 -11.245466 0.30639446 3 8
-4.6527171 -3.8806267 -1.3987457 18 1
-6.8749213 -5.7300014 0.46903491 15 9
-5.8743134 -4.8925591 -1.4860206 12 2
-6.4002705 -5.328721 0.72862202 18 10
-7.575954 -6.3030949 -1.5609033 7 3
-12.693588 -10.557147 2.0271747 11 11
-10.854589 -9.0212555 -1.7329822 11 4
-6.4630022 -5.3675942 1.3306317 19 12
-14.202724 -11.791325 -1.6149958 11 5
-8.6351624 -7.1639614 2.1809468 48 13
-15.051375 -12.478155 -1.0246334 18 6
-7.1976366 -5.9649925 2.1581805 9 14
-11.952902 -9.8988504 -0.27089626 32 7
-6.9478788 -5.7518735 2.4168522 15 15
-3.9400342 -3.2444508 -1.3676 10 0
-7.4797354 -6.1548619 0.16907892 28 8
-4.6820326 -3.8513434 -1.3996454 17 1
-13.930904 -11.451118 0.94508278 19 9
-5.9120307 -4.8561983 -1.4871653 12 2
-6.4656501 -5.3090544 0.73193395 18 10
-7.6461697 -6.2739353 -1.566535 7 3
-7.5221863 -6.1700029 1.1945634 37 11
-10.986364 -9.0050507 -1.7441941 10 4
-6.6827712 -5.4736814 1.368176 30 12
-14.224073 -11.646417 -1.608372 26 5
-9.6485853 -7.8944645 2.4232745 38 13
-15.287492 -12.499307 -1.0348912 20 6
-15.170203 -12.390163 -0.34189263 8 7
-9.3198195 -7.6091857 3.22385 9 15
-3.9695251 -3.2236454 -1.370188 11 0
-15.038252 -12.203835 0.33805311 13 8
-4.7278137 -3.8353448 -1.4054942 19 1
-9.5076132 -7.7073607 0.64142954 19 9
-5.9434237 -4.8146086 -1.4867837 13 2
