# .PCD v0.7 - Point Cloud Data file format
VERSION 0.7
FIELDS x y z intensity ring
SIZE 4 4 4 4 2
TYPE F F F F U
COUNT 1 1 1 1 1
WIDTH 194
HEIGHT 1
VIEWPOINT 0 0 0 1 0 0 0
POINTS 194
DATA ascii
3.0226977 0.56895953 -0.16119476 1 6
3.0421534 0.52875382 -0.1618228 45 6
3.0619037 0.53053522 -0.054242078 45 7
2.9732304 0.49701568 -0.2637333 47 5
3.0477407 0.50783098 -0.16192746 11 6
3.0694785 0.50980002 -0.05431189 81 7
2.9884319 0.47813365 -0.26477915 69 5
3.0512121 0.48653987 -0.16192746 10 6
3.0868728 0.49001828 -0.054556224 13 7
2.9824629 0.45744702 -0.37048283 39 4
3.0035141 0.45906642 -0.265825 92 5
3.0348701 0.46168965 -0.16088074 11 6
3.0882416 0.46815476 -0.054521319 12 7
2.9797673 0.43523264 -0.36975163 15 4
3.0146086 0.43870971 -0.26652226 103 5
3.0915122 0.44604531 -0.054521319 9 7
2.9463975 0.41094342 -0.47118065 1 3
2.9748685 0.41332656 -0.36877668 12 4
3.0116773 0.41683361 -0.26599932 89 5
3.0569222 0.42092112 -0.16171812 88 6
3.082664 0.42282119 -0.05431189 10 7
2.9256952 0.38725317 -0.46742624 74 3
2.9855537 0.39358583 -0.36975163 12 4
3.0106318 0.39475381 -0.26565069 91 5
3.0558255 0.39905229 -0.16150878 85 6
3.0895069 0.40180564 -0.054381698 16 7
2.9588633 0.37221864 -0.57967776 1 2
2.9283273 0.36681995 -0.46742624 99 3
2.9882286 0.37273455 -0.36975163 13 4
3.0565546 0.37746409 -0.1614041 89 6
2.9262974 0.34738693 -0.57280862 97 2
2.9327786 0.34659928 -0.46773914 92 3
2.9927294 0.35209563 -0.36999539 12 4
3.0257444 0.35383859 -0.26652226 12 5
3.045228 0.35450095 -0.1606714 93 6
3.1067343 0.36001244 -0.05459113 105 7
2.9306028 0.32716548 -0.57319027 33 2
2.9429803 0.32698733 -0.46899059 78 3
2.9793301 0.32944703 -0.36804545 67 4
3.0221996 0.33205348 -0.26599932 12 5
3.0952559 0.33680037 -0.054346792 108 7
2.8740973 0.30258748 -0.6672048 49 1
2.9171944 0.3050659 -0.57013732 104 2
2.9510856 0.30704817 -0.46992919 20 3
2.9953792 0.31007156 -0.36975163 17 4
3.0204802 0.31053746 -0.26565069 52 5
3.0558417 0.31255624 -0.16098543 14 6
3.0875847 0.31416959 -0.05417227 114 7
3.1483119 0.30980462 0.055219412 18 8
2.8645034 0.28137213 -0.66450542 30 1
2.9036212 0.28316814 -0.56708437 96 2
2.9570894 0.28681964 -0.47055492 47 3
2.9856153 0.28800866 -0.36828917 13 4
3.004725 0.2877337 -0.2640819 87 5
3.0916939 0.29279509 -0.054207176 57 7
2.8394966 0.26041478 -0.76403385 50 0
3.1165445 0.28472483 0.054626033 54 8
2.8780417 0.26243037 -0.6672048 14 1
2.9153035 0.26377469 -0.56899244 93 2
2.9354107 0.26404458 -0.46680051 100 3
3.0014405 0.26787198 -0.36999539 12 4
3.0284908 0.26868796 -0.26599932 12 5
3.061897 0.27003613 -0.16109009 88 6
3.0996859 0.2711868 -0.05431189 108 7
2.8412876 0.24008915 -0.76403385 116 0
3.1423676 0.26497662 0.055044889 22 8
2.8546011 0.23970899 -0.66135609 17 1
2.9288127 0.24439657 -0.57128215 91 2
2.9391935 0.24319538 -0.46711335 99 3
2.9973023 0.24642347 -0.36926416 12 4
3.0203638 0.2467275 -0.26512775 14 5
3.0537972 0.24731268 -0.16056673 89 6
3.1015036 0.24954177 -0.05431189 108 7
3.1322207 0.24156101 0.054835461 61 8
2.8659201 0.22052045 -0.66360557 18 1
2.9486988 0.22326802 -0.46836486 89 3
2.9850929 0.22445188 -0.36755794 74 4
3.0240388 0.22525597 -0.26530206 11 5
3.0931985 0.22715086 -0.054137368 114 7
3.1557734 0.22122785 0.055219412 87 8
2.8732221 0.20091498 -0.66495532 16 1
2.9221821 0.20229019 -0.56937408 13 2
2.9541268 0.20294754 -0.46899059 84 3
2.9846067 0.2034701 -0.36731425 104 4
3.0255377 0.2041387 -0.26530206 12 5
3.0728951 0.20571785 -0.1614041 12 6
3.0887229 0.20515312 -0.05403265 92 7
3.1512542 0.19881327 0.055114701 90 8
2.8823342 0.18134205 -0.66675496 43 1
2.931361 0.1823708 -0.57090056 13 2
2.9475853 0.18183099 -0.46773914 81 3
2.989949 0.18235065 -0.3678017 89 4
3.0129681 0.18217123 -0.2640819 14 5
3.0642879 0.18366398 -0.16088074 10 6
3.0980966 0.18351845 -0.05417227 32 7
3.1405854 0.17613667 0.054905269 93 8
2.8738296 0.16016832 -0.66450542 107 1
2.9345233 0.16200984 -0.57128215 14 2
3.0070071 0.16232705 -0.36975163 91 4
3.0201352 0.16144994 -0.26460484 80 5
3.0655239 0.16173173 -0.16088074 14 6
3.113281 0.16261683 -0.054416601 12 7
3.1457603 0.15385403 0.054975081 96 8
2.863199 0.13953353 -0.66180599 98 1
2.9414902 0.14128929 -0.57242703 16 2
2.9577537 0.14051837 -0.46899059 11 3
3.00016 0.14043541 -0.36877668 91 4
3.0072811 0.13918939 -0.26338464 87 5
3.062588 0.14014237 -0.1606714 10 6
3.1063743 0.13997447 -0.054276984 10 7
2.8758066 0.11952694 -0.66450542 96 1
2.9404433 0.12067127 -0.57204539 94 2
2.9586837 0.11934957 -0.46899059 11 3
3.0129683 0.11995932 -0.37023908 20 4
3.0320697 0.11912987 -0.26547641 103 5
3.0932882 0.11775202 -0.05403265 9 7
3.155596 0.11019616 0.055114701 11 8
2.8726583 0.09981516 -0.66360557 96 1
2.9255171 0.099605732 -0.56899244 91 2
2.9752216 0.099738538 -0.47149354 54 3
2.9919078 0.098206997 -0.36755794 56 4
3.0388017 0.098153532 -0.26599932 78 5
3.0562611 0.097115673 -0.16025271 88 6
3.0940349 0.096152447 -0.05403265 11 7
3.158287 0.088219099 0.055149604 12 8
2.886935 0.079631098 -0.66675496 81 1
2.9516542 0.079869717 -0.57395351 20 2
2.9600616 0.078029349 -0.46899059 93 3
2.9984739 0.077470951 -0.36828917 97 4
3.0254705 0.076583385 -0.26477915 17 5
3.1308479 0.065035246 0.054660939 27 8
2.8854723 0.059435785 -0.66630501 47 1
3.1909661 0.064612664 0.16726573 3 9
2.9403727 0.058511756 -0.57166374 14 2
3.0187893 0.056909934 -0.37072656 91 4
3.013989 0.054714687 -0.2637333 75 5
3.0653164 0.05404105 -0.1606714 12 6
3.0910771 0.052876331 -0.053962842 14 7
3.1312253 0.043176223 0.054660939 64 8
2.9485624 0.038085494 -0.57319027 16 2
2.9667883 0.036767349 -0.46992919 12 3
2.9992633 0.035599265 -0.36828917 89 4
3.0262508 0.03380527 -0.26477915 92 5
3.0596275 0.032575998 -0.16035739 11 6
3.1113667 0.031497687 -0.05431189 11 7
3.1554463 0.021479936 0.055079795 52 8
2.9448299 0.017475013 -0.57242703 97 2
2.963022 0.016031576 -0.46930346 12 3
3.0133343 0.014726069 -0.36999539 41 4
3.0403597 0.012737104 -0.26599932 103 5
3.1055119 0.0097581157 -0.054207176 10 7
2.9252474 -0.003063313 -0.56861085 100 2
2.9591105 -0.0046481634 -0.4686777 12 3
3.0193188 -0.0063236551 -0.37072656 12 4
3.0423672 -0.0084959129 -0.26617363 101 5
3.0657759 -0.010166535 -0.1606714 88 6
3.0935061 -0.011878269 -0.053997744 12 7
2.9251547 -0.02348515 -0.56861085 91 2
2.9609814 -0.025323264 -0.46899059 15 3
3.0072911 -0.027294056 -0.36926416 13 4
3.0262952 -0.029579477 -0.26477915 91 5
3.0696244 -0.031610399 -0.16088074 89 6
2.9308085 -0.043994244 -0.56975567 100 2
2.9429567 -0.045717888 -0.46617478 74 3
3.0189362 -0.048479311 -0.37072656 9 4
3.067332 -0.053004961 -0.16077606 83 6
2.9382813 -0.064626597 -0.57128215 100 2
2.9484901 -0.06639573 -0.46711335 106 3
3.0125706 -0.069416925 -0.36999539 11 4
3.03953 -0.072161287 -0.26599932 12 5
3.0589004 -0.07422372 -0.16035739 85 6
2.949533 -0.085479163 -0.57357186 98 2
2.9598017 -0.08732783 -0.46899059 81 3
3.0040755 -0.090208434 -0.3690204 56 4
3.0409436 -0.093440473 -0.26617363 11 5
3.0623002 -0.095701665 -0.16056673 49 6
2.9331686 -0.10550398 -0.57051897 19 2
2.9670162 -0.10827701 -0.47024205 74 3
3.0073206 -0.11185022 -0.36950788 90 4
3.0382261 -0.11459272 -0.26599932 39 5
2.9402063 -0.12631567 -0.57204539 90 2
2.9740596 -0.12985024 -0.47149354 18 3
3.0134673 -0.13473268 -0.26390758 87 5
2.9274623 -0.14676213 -0.56975567 60 2
2.9434879 -0.14911066 -0.46680051 74 3
3.0173609 -0.15443689 -0.37097031 11 4
3.0283437 -0.15711881 -0.26530206 27 5
2.9581521 -0.17056596 -0.46930346 99 3
3.0102639 -0.17515218 -0.37023908 13 4
2.9588602 -0.19134089 -0.46961632 89 3
3.0010445 -0.19564679 -0.36926416 29 4
2.9692743 -0.21284023 -0.47149354 89 3
2.9637775 -0.23325436 -0.47086781 95 3
2.9462876 -0.25310394 -0.46836486 87 3
