# .PCD v0.7 - Point Cloud Data file format
VERSION 0.7
FIELDS x y z intensity ring
SIZE 4 4 4 4 2
TYPE F F F F U
COUNT 1 1 1 1 1
WIDTH 169
HEIGHT 1
VIEWPOINT 0 0 0 1 0 0 0
POINTS 169
DATA ascii
2.9670258 -1.5669832 -0.17584883 100 6
2.943697 -1.5810434 -0.17511612 109 6
2.9343405 -1.6025128 -0.17522079 118 6
2.9195342 -1.5964119 -0.058081608 9 7
2.9213352 -1.6219897 -0.17511612 81 6
2.8863471 -1.6270366 -0.28988001 78 5
2.8847735 -1.6301329 -0.057837274 18 7
2.8852904 -1.6530901 -0.29092586 86 5
2.8620224 -1.6417502 -0.17291802 56 6
2.8923974 -1.6611876 -0.058221228 18 7
2.8900607 -1.6800302 -0.410456 63 4
2.8736794 -1.6731929 -0.29092586 86 5
2.8815498 -1.6797962 -0.17480211 98 6
2.8841841 -1.6833558 -0.058291037 44 7
2.8865097 -1.7057172 -0.41167468 14 4
2.8602138 -1.6921995 -0.29075155 89 5
2.8697524 -1.6998721 -0.17480211 118 6
2.8548665 -1.6937479 -0.057941992 104 7
2.8609159 -1.7176528 -0.40972477 12 4
2.8483303 -1.7121263 -0.29075155 66 5
2.8540931 -1.7183037 -0.17459276 113 6
2.8481104 -1.7167343 -0.058046706 123 7
2.8442516 -1.7327335 -0.52749711 3 3
2.8556337 -1.7417183 -0.41069973 12 4
2.8380084 -1.7330078 -0.29092586 15 5
2.836916 -1.7350606 -0.17427875 109 6
2.8241181 -1.729266 -0.057802372 122 7
2.8101609 -1.7328818 0.057627846 48 8
2.8139122 -1.7406223 -0.52405554 77 3
2.8332801 -1.7553389 -0.4092373 13 4
2.8190682 -1.7485777 -0.29022861 18 5
2.8119767 -1.7489399 -0.057802372 110 7
2.8149424 -1.7630725 0.057976898 46 8
2.8217635 -1.7728351 -0.52780992 11 3
2.8212662 -1.7745838 -0.4092373 101 4
2.8270211 -1.7809594 -0.29232034 110 5
2.7890732 -1.7590935 -0.17281334 70 6
2.7932439 -1.763769 -0.057662752 77 7
2.7975032 -1.7794617 0.05787218 15 8
2.807653 -1.791429 -0.52749711 11 3
2.8054626 -1.7920991 -0.40874982 13 4
2.7843096 -1.7813251 -0.28918275 82 5
2.7952249 -1.7903717 -0.17396474 98 6
2.7859125 -1.7864646 -0.057767466 123 7
2.7614958 -1.7837582 0.057383511 54 8
2.7887566 -1.8048179 -0.64569765 75 2
2.7851312 -1.8045415 -0.52561986 11 3
2.782891 -1.8051593 -0.40728739 13 4
2.7684646 -1.7985487 -0.28883412 45 5
2.7809832 -1.8087534 -0.17386007 105 6
2.7549393 -1.7938676 -0.057383511 116 7
2.7556643 -1.8073803 0.057523135 93 8
2.7793701 -1.8263992 -0.64646095 100 2
2.7625635 -1.8174272 -0.52374262 11 3
2.786799 -1.8354625 -0.40972477 12 4
2.747525 -1.8123472 -0.28796256 13 5
2.7566218 -1.8204195 -0.17312735 89 6
2.7490215 -1.8174682 -0.057523135 122 7
2.7562947 -1.8354411 0.057802372 105 8
2.7714512 -1.8490272 -0.64760572 93 2
2.7481658 -1.8355718 -0.52342981 77 3
2.7607157 -1.8460455 -0.40777487 14 4
2.7546709 -1.8447875 -0.29005429 14 5
2.7239389 -1.8262734 -0.1718713 19 6
2.7395868 -1.8388445 -0.057592943 113 7
2.7318172 -1.846799 0.057558037 117 8
2.755224 -1.8661286 -0.64684254 91 2
2.7352841 -1.8547128 -0.52342981 99 3
2.7329791 -1.8552394 -0.40558121 20 4
2.7384293 -1.8617336 -0.28970569 15 5
2.7226806 -1.8531116 -0.17260399 18 6
2.7233777 -1.8556734 -0.057523135 36 7
2.7287505 -1.8726145 0.057767466 110 8
2.7199495 -1.8672731 -0.7616843 66 1
2.7259514 -1.8741949 -0.64302635 91 2
2.7238963 -1.8748832 -0.52374262 78 3
2.7330372 -1.8832849 -0.40753111 104 4
2.7204461 -1.8774108 -0.28918275 15 5
2.7113204 -1.8732097 -0.17270868 17 6
2.7021329 -1.8689532 -0.057348609 19 7
2.7024839 -1.8824755 0.057488225 51 8
2.7164404 -1.8929011 -0.76438367 46 1
2.7256806 -1.9021683 -0.6460793 18 2
2.7107408 -1.8938538 -0.52374262 39 3
2.7068095 -1.8932168 -0.40558121 47 4
2.7007458 -1.891785 -0.2884855 47 5
2.6965415 -1.8909457 -0.17260399 62 6
2.6857462 -1.885474 -0.057278797 70 7
2.6843774 -1.8978329 0.057383511 98 8
2.7107325 -1.9200157 -0.64569765 100 2
2.7038989 -1.9173026 -0.52499413 9 3
2.7142332 -1.9274795 -0.40874982 15 4
2.6890969 -1.9117481 -0.28865981 19 5
2.6881564 -1.9131992 -0.17291802 103 6
2.6721854 -1.9046441 -0.057278797 107 7
2.6808112 -1.9235218 0.057592943 105 8
2.6908858 -1.9343096 -0.64417118 100 2
2.6692688 -1.9215986 -0.52092683 74 3
2.6894379 -1.9382569 -0.40704364 16 4
2.6740692 -1.929309 -0.2884855 16 5
2.6750259 -1.9349732 -0.057627846 123 7
2.6588967 -1.936769 0.057418417 107 8
2.6585379 -1.937218 -0.75943476 7 1
2.6722176 -1.9500438 -0.64302635 98 2
2.6589787 -1.9425169 -0.52155256 99 3
2.6614201 -1.946439 -0.40485001 20 4
2.6666241 -1.9531037 -0.28918275 15 5
2.6479559 -1.9415617 -0.17208064 12 6
2.6469438 -1.9429513 -0.057313703 41 7
2.6549592 -1.9624158 0.057627846 107 8
2.6522276 -1.9639785 -0.64149988 93 2
2.6501136 -1.9645619 -0.52249116 84 3
2.6605196 -1.9744354 -0.40679988 101 4
2.6497259 -1.9692955 -0.28883412 16 5
2.6471562 -1.9695382 -0.17291802 21 6
2.6285038 -1.9577996 -0.057208989 19 7
2.6315958 -1.9737043 0.057418417 101 8
2.6447306 -1.9871637 -0.64302635 91 2
2.6394908 -1.9853901 -0.52311689 78 3
2.6371558 -1.9857966 -0.40533748 104 4
2.6298962 -1.9824888 -0.2881369 80 5
2.6189954 -1.9771402 -0.17197597 20 6
2.6147721 -1.9761021 -0.057208989 20 7
2.6196339 -1.9985179 -0.52186543 76 3
2.6295378 -2.0089796 -0.40631241 83 4
2.6001661 -1.9886963 -0.28639376 72 5
2.621335 -2.0070632 -0.17302269 26 6
2.6088471 -2.0003922 -0.057383511 25 7
2.6217399 -2.0270419 -0.64417118 42 2
2.6071799 -2.0179665 -0.52217829 19 3
2.6095257 -2.0219681 -0.40533748 83 4
2.6019602 -2.0190144 -0.2881369 86 5
2.5851769 -2.0081611 -0.17155728 76 6
2.5967493 -2.0193312 -0.057418417 47 7
2.601346 -2.0404491 -0.64264476 56 2
2.5914748 -2.0348988 -0.52186543 93 3
2.6000283 -2.0438168 -0.40606871 18 4
2.5831046 -2.033433 -0.28761396 16 5
2.580507 -2.0335774 -0.17218532 17 6
2.5802956 -2.0554028 -0.52249116 93 3
2.5903525 -2.0656314 -0.40679988 108 4
2.5704026 -2.05266 -0.28778824 19 5
2.5615671 -2.0478017 -0.1718713 14 6
2.5628104 -2.070883 -0.52186543 74 3
2.5635219 -2.0736773 -0.40485001 97 4
2.537432 -2.055505 -0.28569651 60 5
2.5534134 -2.0706668 -0.17228998 17 6
2.539124 -2.0812109 -0.51998824 78 3
2.5489824 -2.0915234 -0.40485001 91 4
2.5341592 -2.0815814 -0.2869167 87 5
2.5358105 -2.0859046 -0.17208064 17 6
2.5340142 -2.1060214 -0.52186543 25 3
2.534687 -2.1088252 -0.40485001 86 4
2.5229936 -2.1013331 -0.28726533 107 5
2.516952 -2.0992789 -0.17176662 46 6
2.524152 -2.1270397 -0.52280408 10 3
2.507766 -2.1162274 -0.4029001 86 4
2.509784 -2.1201811 -0.28743961 106 5
2.5043626 -2.1411965 -0.52186543 13 3
2.4985902 -2.1392825 -0.40387502 16 4
2.4915228 -2.135493 -0.28709102 113 5
2.4874842 -2.157768 -0.52155256 74 3
2.4880908 -2.160578 -0.40460625 78 4
2.4701641 -2.1480379 -0.28639376 101 5
2.4797752 -2.1816051 -0.52311689 14 3
2.471457 -2.1765835 -0.4043625 97 4
2.4562013 -2.1937845 -0.4043625 89 4
2.4290559 -2.200217 -0.40241259 91 4
2.4267938 -2.2292075 -0.40460625 44 4
