# .PCD v0.7 - Point Cloud Data file format
VERSION 0.7
FIELDS x y z intensity ring
SIZE 4 4 4 4 2
TYPE F F F F U
COUNT 1 1 1 1 1
WIDTH 271
HEIGHT 1
VIEWPOINT 0 0 0 1 0 0 0
POINTS 271
DATA ascii
5.8825884 4.2943764 -0.89427733 6 4
5.9034972 4.2452183 -0.89281487 7 4
5.9232707 4.1970172 -0.89135242 6 4
5.9328952 4.1419268 -0.88842762 6 4
5.9616666 4.1004062 -0.88842762 6 4
5.9967213 4.0631399 -0.88940257 7 4
5.9985232 4.0035443 -0.8855027 7 4
2.7106702 -0.29112267 -0.14287716 10 6
2.6944456 -0.32749531 -0.14224915 92 6
2.6817579 -0.34354109 -0.23654069 39 5
2.6801476 -0.34523678 -0.14162111 93 6
2.6831796 -0.36325699 -0.2368893 12 5
2.6796513 -0.36420816 -0.14172579 101 6
2.6667712 -0.38001257 -0.23566914 14 5
2.6711118 -0.38205823 -0.14141177 97 6
2.6761007 -0.39899093 -0.33221585 1 4
2.667994 -0.39921042 -0.23601775 14 5
2.6604791 -0.39951029 -0.14099309 83 6
2.6634436 -0.41613168 -0.33099717 78 4
2.6671102 -0.4181352 -0.23619205 14 5
2.6506984 -0.41888091 -0.046842258 5 7
2.6506779 -0.43311509 -0.32977846 76 4
2.6561856 -0.43591917 -0.23549481 10 5
2.6525948 -0.43675628 -0.14088841 13 6
2.6573739 -0.45327857 -0.33099717 79 4
2.6412947 -0.45243374 -0.23444894 14 5
2.6514494 -0.45560235 -0.14099309 11 6
2.6307971 -0.45347187 -0.046597924 83 7
2.6472352 -0.4691613 -0.42581466 64 3
2.6560993 -0.47216681 -0.33124092 89 4
2.6243422 -0.46841177 -0.23322876 53 5
2.6383741 -0.47234178 -0.14046971 24 6
2.6216621 -0.47076675 -0.04649321 105 7
2.6341825 -0.48583949 -0.42425033 11 3
2.6488342 -0.48997608 -0.33075345 91 4
2.6268849 -0.48781279 -0.2337517 77 5
2.6222436 -0.48979217 -0.046563022 105 7
2.6423669 -0.50644863 -0.42612755 12 3
2.6297536 -0.50545877 -0.32880351 91 4
2.6351531 -0.50840449 -0.23479758 73 5
2.613874 -0.50571877 -0.13952768 97 6
2.616797 -0.50770593 -0.046528116 105 7
2.638252 -0.52334505 -0.52281672 2 2
2.6252046 -0.52218568 -0.42393744 12 3
2.6222675 -0.52302885 -0.32831606 91 4
2.6256788 -0.52561557 -0.23427464 12 5
2.5994663 -0.52320015 -0.046283782 112 7
2.6290619 -0.53823447 0.046842258 7 8
2.6345341 -0.54175061 -0.52281672 100 2
2.62343 -0.5408991 -0.42425033 12 3
2.6281772 -0.54379094 -0.32953474 58 4
2.6141419 -0.54231441 -0.23357739 13 5
2.6202459 -0.545012 -0.14026037 14 6
2.593698 -0.54137933 -0.046248876 105 7
2.6037221 -0.55201346 0.046458308 72 8
2.6210866 -0.55808544 -0.52090853 91 2
2.6117654 -0.55800706 -0.42299888 12 3
2.6281989 -0.56295729 -0.33002222 82 4
2.5986042 -0.55804133 -0.23253153 12 5
2.6065166 -0.56164438 -0.13973701 12 6
2.5918102 -0.55989569 -0.046283782 15 7
2.5957987 -0.56977361 0.046388499 31 8
2.6189432 -0.57724971 -0.52129018 95 2
2.6039481 -0.57537442 -0.42237309 74 3
2.6106379 -0.57828647 -0.32831606 91 4
2.5945444 -0.57662213 -0.23253153 53 5
2.5908356 -0.57722151 -0.13910899 12 6
2.5975964 -0.58015555 -0.046458308 18 7
2.6034589 -0.59053564 0.046597924 14 8
2.5959301 -0.58930445 -0.61456627 43 1
2.611021 -0.59464729 -0.52052695 93 2
2.5979421 -0.59309965 -0.42206025 16 3
2.5949268 -0.5938409 -0.3268536 97 4
2.5885139 -0.59427541 -0.2323572 77 5
2.5906353 -0.59619063 -0.13931833 12 6
2.5954311 -0.59872532 -0.04649321 25 7
2.5836964 -0.60504907 0.046318687 67 8
2.5917528 -0.60741287 -0.61456627 48 1
2.5934281 -0.60971588 -0.51785564 14 2
2.6014292 -0.61303443 -0.42331171 11 3
2.5945816 -0.61285496 -0.32734108 89 4
2.5939956 -0.61462885 -0.23322876 86 5
2.5747507 -0.61149293 -0.13869029 26 6
2.5658987 -0.61081004 -0.046039447 102 7
2.5755217 -0.62213272 0.046248876 93 8
2.595026 -0.62732351 -0.61636591 48 1
2.59674 -0.62965691 -0.51938212 12 2
2.5836492 -0.6279152 -0.42112163 12 3
2.5863826 -0.63001382 -0.3268536 83 4
2.5799642 -0.6303587 -0.2323572 111 5
2.5742989 -0.6304031 -0.13889964 70 6
2.5596299 -0.6282317 -0.046004545 102 7
2.559473 -0.6371994 0.046039447 96 8
2.5735648 -0.64118463 -0.61231679 82 1
2.5941858 -0.64824611 -0.51976377 19 2
2.5677056 -0.64305764 -0.41924441 12 3
2.5716364 -0.64738208 -0.23200859 101 5
2.5717719 -0.6488483 -0.13900432 21 6
2.5629363 -0.64804667 -0.046144161 116 7
2.5714328 -0.65831852 -0.71123475 55 0
2.5549619 -0.65505224 0.046039447 99 8
2.5652506 -0.65816718 -0.611417 79 1
2.5592439 -0.65757829 0.13848096 31 9
2.5669792 -0.6619544 -0.41987014 12 3
2.5773339 -0.66606402 -0.3268536 12 4
2.5766976 -0.6678189 -0.23288015 60 5
2.5594471 -0.66477829 -0.13858563 13 6
2.5622206 -0.66693085 -0.046213973 76 7
2.5723786 -0.67773086 -0.71278769 18 0
2.5425928 -0.67083257 0.045899831 96 8
2.5605934 -0.67605984 -0.611417 81 1
2.5410748 -0.67185539 0.13774826 95 9
2.5791886 -0.68289596 -0.51861888 100 2
2.5603862 -0.6793524 -0.4195573 14 3
2.5687845 -0.68302059 -0.32636613 12 4
2.5584967 -0.68219799 -0.23165996 56 5
2.548955 -0.68108344 -0.13827161 15 6
2.5713136 -0.69668323 -0.71382296 9 0
2.549427 -0.69170845 0.046109259 99 8
2.5520499 -0.69289827 -0.6105172 84 1
2.5478861 -0.69272286 0.13837628 22 9
2.5592034 -0.69675928 -0.51556593 100 2
2.5632038 -0.69929022 -0.42080876 71 3
2.5505495 -0.6972729 -0.32465994 49 4
2.5440643 -0.69740915 -0.23078841 103 5
2.5479896 -0.69991988 -0.13848096 18 6
2.5256667 -0.69521022 -0.045725305 14 7
2.5514987 -0.71047145 -0.70968187 9 0
2.534905 -0.70680445 0.045934737 87 8
2.5527813 -0.71226907 -0.61186683 71 1
2.5449116 -0.71103084 0.13848096 24 9
2.5542767 -0.71460873 -0.51556593 100 2
2.5468471 -0.71396834 -0.41893157 86 3
2.5397615 -0.71389478 -0.32392874 81 4
2.5410511 -0.71569306 -0.23096271 109 5
2.539197 -0.71660602 -0.13827161 19 6
2.5321722 -0.71653253 -0.045934737 19 7
2.5500641 -0.72977436 -0.71071708 9 0
2.5241416 -0.72283244 0.045830019 93 8
2.5339994 -0.72757 0.13816693 21 9
2.5492258 -0.73242337 -0.51556593 100 2
2.5473676 -0.73381513 -0.41987014 50 3
2.5480664 -0.73546159 -0.32563493 88 4
2.5321648 -0.73230833 -0.2306141 85 5
2.525188 -0.73363483 -0.045899831 13 7
2.5430536 -0.74701476 -0.71019953 9 0
2.5150673 -0.73974758 0.045760211 99 8
2.529371 -0.74443436 -0.60871756 10 1
2.5346055 -0.7469365 0.13848096 24 9
2.5476854 -0.75175774 -0.51632917 95 2
2.5346053 -0.74934089 -0.41861868 13 3
2.5332222 -0.75085562 -0.32441622 16 4
2.5268598 -0.75040925 -0.2306141 111 5
2.5211554 -0.75015193 -0.13785292 113 6
2.5141246 -0.74997085 -0.045795113 33 7
2.5431921 -0.76686633 -0.71175241 9 0
2.5136707 -0.75844318 0.045830019 99 8
2.5258448 -0.76307845 -0.60916746 12 1
2.5139019 -0.76042819 0.13764358 56 9
2.5423751 -0.76952541 -0.51632917 100 2
2.5348492 -0.76917958 -0.4195573 15 3
2.5165229 -0.76505786 -0.32295379 13 4
2.5215595 -0.76803166 -0.2306141 106 5
2.5099924 -0.7664237 -0.1375389 105 6
2.5069156 -0.76691949 -0.045760211 81 7
2.5248566 -0.780608 -0.70812893 60 0
2.51582 -0.77877641 0.045969639 96 8
2.5204558 -0.78069341 -0.60916746 26 1
2.508532 -0.77795988 0.13764358 48 9
2.5255539 -0.78420532 -0.51403946 100 2
2.5331898 -0.78803074 -0.42018303 13 3
2.5187013 -0.7849704 -0.32392874 13 4
2.5159991 -0.7860558 -0.2306141 103 5
2.4950502 -0.78094494 -0.13701554 79 6
2.4843276 -0.77901727 -0.045446068 17 7
2.5101373 -0.79529822 -0.70554072 93 0
2.4950733 -0.79148388 0.045690399 99 8
2.5223739 -0.8006286 -0.61096704 84 1
2.5237594 -0.80300826 -0.51480269 103 2
2.5332727 -0.80749625 -0.42112163 22 3
2.5282879 -0.80736578 -0.32587865 13 4
2.5047524 -0.80322361 -0.13785292 18 6
2.4902518 -0.80001181 -0.045655496 19 7
2.5026865 -0.81220651 -0.70502311 72 0
2.4875851 -0.80826545 0.045655496 102 8
2.5111632 -0.8164109 -0.60961735 76 1
2.5218248 -0.82182425 -0.51556593 100 2
2.5031619 -0.81719238 -0.41705433 89 3
2.515043 -0.8225286 -0.3249037 14 4
2.4782729 -0.81241888 -0.22817372 38 5
2.5028787 -0.82193667 -0.13806225 19 6
2.4998026 -0.82237673 -0.045934737 22 7
2.502455 -0.83148587 -0.70657599 22 0
2.4818819 -0.82561219 0.045655496 98 8
2.5197506 -0.84065235 -0.51632917 100 2
2.4973958 -0.83464766 -0.41705433 86 3
2.5092392 -0.84006673 -0.3249037 12 4
2.4782076 -0.8316021 -0.22869666 86 5
2.4667892 -0.82920784 -0.13638751 56 6
2.4958954 -0.84044647 -0.045969639 23 7
2.4995196 -0.85139269 -0.60961735 12 1
2.5101047 -0.8569544 -0.51556593 100 2
2.4989846 -0.85461903 -0.41830578 89 3
2.4901681 -0.85306066 -0.32319754 63 4
2.4798794 -0.85147095 -0.22939391 103 5
2.4760497 -0.85160559 -0.1372249 82 6
2.4748421 -0.85263962 -0.045690399 21 7
2.4935148 -0.86882174 -0.60961735 11 1
2.4966865 -0.87334883 -0.41893157 92 3
2.4860249 -0.8710807 -0.32344127 15 4
2.475754 -0.86942303 -0.22956821 113 5
2.4681602 -0.86820799 -0.13712022 109 6
2.455627 -0.86524445 -0.045446068 21 7
2.4910603 -0.8875165 -0.6105172 11 1
2.4904995 -0.88927668 -0.51403946 13 2
2.4942486 -0.89208812 -0.4195573 67 3
2.4854894 -0.89042348 -0.32417247 10 4
2.4658737 -0.8853392 -0.2292196 85 5
2.4714355 -0.88879716 -0.13764358 118 6
2.4438825 -0.88033366 -0.04534135 102 7
2.4848034 -0.90488571 -0.6105172 11 1
2.4860747 -0.90731484 -0.51442105 14 2
2.4768281 -0.90541011 -0.41768005 13 3
2.4848051 -0.90980119 -0.3249037 12 4
2.4614213 -0.90465128 -0.13743424 121 6
2.4729464 -0.92017186 -0.60916746 12 1
2.4870379 -0.92739248 -0.51594758 79 2
2.4537921 -0.91645914 -0.41486427 74 3
2.472815 -0.92503959 -0.32417247 15 4
2.4607344 -0.92247927 -0.22991684 14 5
2.4307384 -0.91268623 -0.1360735 112 6
2.4591756 -0.9346444 -0.60736781 81 1
2.4658253 -0.93914247 -0.51289463 85 2
2.4602537 -0.93849564 -0.41705433 93 3
2.4533165 -0.93732101 -0.32246631 13 4
2.444931 -0.9360739 -0.22904527 11 5
2.4205778 -0.92820346 -0.13586415 92 6
2.4544077 -0.9524948 -0.60781777 67 1
2.4537196 -0.95419937 -0.51174974 100 2
2.4573233 -0.95708227 -0.41768005 95 3
2.4522612 -0.9565897 -0.32319754 23 4
2.4310796 -0.94979411 -0.22834805 14 5
2.4270573 -0.95017612 -0.13659686 77 6
2.4471679 -0.97087908 -0.51174974 83 2
2.443409 -0.97086877 -0.4164286 95 3
2.4344573 -0.96928042 -0.32173508 74 4
2.4299419 -0.96895701 -0.22887097 39 5
2.4329102 -0.98641872 -0.41580287 95 3
2.4331486 -0.98849386 -0.32246631 104 4
2.4101999 -0.98064131 -0.22765081 86 5
2.4478905 -1.0109475 -0.51480269 12 2
2.4257891 -1.0038029 -0.41580287 92 3
2.4335237 -1.0084962 -0.32344127 72 4
2.4106557 -1.0004984 -0.22834805 83 5
2.4387846 -1.0276759 -0.51442105 14 2
2.4150822 -1.0191774 -0.41517711 24 3
2.4300809 -1.0270063 -0.32392874 16 4
2.4225314 -1.0408016 -0.51251298 12 2
2.4314973 -1.046162 -0.41924441 47 3
2.4082675 -1.037662 -0.32197884 14 4
2.4170046 -1.0584762 -0.51289463 13 2
2.4006169 -1.0527978 -0.41517711 93 3
2.4064174 -1.0568442 -0.32271007 17 4
2.4043653 -1.0725042 -0.51174974 60 2
2.3897879 -1.0675025 -0.41455138 98 3
2.3989804 -1.0736183 -0.32271007 67 4
2.4021809 -1.0917003 -0.51289463 57 2
2.3822773 -1.0841602 -0.41455138 98 3
2.3780422 -1.1028416 -0.41517711 92 3
2.37743 -1.1227908 -0.4164286 98 3
2.3661716 -1.137236 -0.41580287 41 3
