# .PCD v0.7 - Point Cloud Data file format
VERSION 0.7
FIELDS x y z intensity ring
SIZE 4 4 4 4 2
TYPE F F F F U
COUNT 1 1 1 1 1
WIDTH 1307
HEIGHT 1
VIEWPOINT 0 0 0 1 0 0 0
POINTS 1307
DATA ascii
-14.896291 8.3867769 4.5805793 47 15
-4.3955531 2.4899232 -1.3536236 6 0
-14.671674 8.3177385 0.29438719 35 8
-5.3191967 3.0168142 -1.4117929 6 1
-14.705027 8.3468294 0.88615251 50 9
-6.6506271 3.7780814 -1.4867837 6 2
-14.727173 8.3695974 1.4819963 28 10
-8.9665346 5.0999112 -1.6338017 3 3
-14.782994 8.414979 2.0885971 40 11
-9.6048012 5.4695964 -1.3571371 17 4
-14.793784 8.4313803 2.6969306 41 12
-9.5956907 5.471067 -0.96638286 35 5
-14.840137 8.4680948 3.3212214 52 13
-14.518359 8.2912045 -0.87620866 20 6
-10.443413 5.9664812 2.7767959 2 14
-14.634144 8.3674908 -0.29424757 56 7
-14.894385 8.5231915 4.5981793 48 15
-4.3881087 2.5263317 -1.3567295 5 0
-14.675364 8.4523487 0.29560888 39 8
-5.2844996 3.0460889 -1.4081936 7 1
-14.724 8.4906301 0.89075804 53 9
-6.6247573 3.8232617 -1.4867837 6 2
-14.740844 8.51406 1.4893173 28 10
-8.9128008 5.1499534 -1.6303602 4 3
-14.788956 8.5521784 2.0976152 36 11
-9.4804764 5.4867992 -1.3449502 11 4
-14.81469 8.5774136 2.7113225 44 12
-9.5796738 5.5509081 -0.96864891 30 5
-14.843495 8.6079369 3.3353415 45 13
-14.530692 8.4299221 -0.88039553 40 6
-10.401503 6.039247 2.7767959 8 14
-14.639345 8.5066223 -0.29553905 50 7
-14.904502 8.6641846 4.6194029 45 15
-4.382484 2.5629687 -1.3603529 6 0
-14.686758 8.5960064 0.29703996 37 8
-5.2636433 3.0819886 -1.4081936 7 1
-14.729849 8.6315832 0.89473557 50 9
-6.5945163 3.8674335 -1.4860206 6 2
-14.747854 8.6525106 1.4959412 26 10
-8.8817387 5.215054 -1.6312988 6 3
-14.78708 8.6894102 2.1059024 38 11
-9.2752028 5.4526143 -1.3210638 14 4
-14.827657 8.7237024 2.7247758 40 12
-9.5948963 5.6473155 -0.97405255 27 5
-14.852225 8.7486286 3.3506062 45 13
-14.531705 8.5666609 -0.88405901 24 6
-14.887267 8.7797709 3.9901819 22 14
-14.658598 8.6518116 -0.29710975 55 7
-14.913513 8.8092871 4.6411433 36 15
-4.3595028 2.5905416 -1.3588001 5 0
-14.691505 8.7335844 0.29833141 34 8
-5.2453485 3.1206536 -1.4090934 7 1
-14.734256 8.7694407 0.89860845 43 9
-6.5747871 3.9162486 -1.487547 6 2
-14.769233 8.8042278 1.504308 26 10
-8.8205872 5.2602105 -1.6266057 9 3
-14.795774 8.8305559 2.1156518 39 11
-9.3289404 5.5722022 -1.3342258 14 4
-14.834064 8.863946 2.7369776 35 12
-9.4902611 5.675303 -0.96742868 22 5
-14.861538 8.8944464 3.3666341 42 13
-14.52618 8.6971779 -0.88730389 16 6
-14.892474 8.9235554 4.0081778 27 14
-14.664725 8.7940454 -0.29847106 43 7
-14.939349 8.9622755 4.6680608 45 15
-4.3417683 2.6201556 -1.3588001 6 0
-14.70892 8.8834896 0.29993707 33 8
-5.2306571 3.1603165 -1.410893 7 1
-14.737622 8.9113588 0.90258598 47 9
-6.5170517 3.9437578 -1.4806778 6 2
-14.775434 8.9448004 1.5111063 25 10
-8.7616863 5.3083549 -1.6225384 13 3
-14.811849 8.9809752 2.126864 37 11
-9.2093258 5.5861559 -1.3225262 13 4
-14.839367 9.0082903 2.7494924 34 12
-9.4810562 5.7600417 -0.97056633 29 5
-14.879506 9.0433216 3.3845701 43 13
-14.562371 8.857543 -0.89327019 12 6
-14.918038 9.0810118 4.032023 33 14
-14.666012 8.9311047 -0.29972765 38 7
-14.942401 9.1065674 4.688766 50 15
-4.3200765 2.6483824 -1.3577647 6 0
-14.713014 9.0267477 0.30129832 30 8
-5.2051454 3.1947162 -1.4099932 7 1
-14.74993 9.06003 0.90719157 43 9
-6.4960513 3.9932721 -1.4822044 6 2
-14.770331 9.0832148 1.5170327 23 10
-8.6857204 5.3455801 -1.6153424 18 3
-14.826538 9.1320515 2.1380758 34 11
-9.100812 5.6076183 -1.3125329 13 4
-14.843371 9.153142 2.7620072 33 12
-9.3422747 5.7654014 -0.96045625 28 5
-14.882828 9.1882362 3.3998349 45 13
-14.590234 9.0146275 -0.89881784 4 6
-14.93218 9.2331038 4.0531683 35 14
-14.678132 9.0795584 -0.30126345 38 7
-14.942525 9.2503176 4.7089539 49 15
-4.3014822 2.6784778 -1.3577647 5 0
-14.71413 9.1694298 0.30262473 34 8
-5.1744456 3.2258236 -1.4077437 7 1
-14.757492 9.2071819 0.91158777 42 9
-6.4713449 4.0406055 -1.4829676 6 2
-14.784292 9.2346601 1.5250512 23 10
-8.6130133 5.3840985 -1.6087722 13 3
-14.819643 9.2711325 2.146363 34 11
-8.8494196 5.5383248 -1.2818218 15 4
-14.856117 9.3047781 2.7763994 35 12
-9.3855438 5.8806939 -0.9689976 31 5
-14.881527 9.3315439 3.4143364 42 13
-10.842341 6.8040242 -0.67084235 11 6
-14.943256 9.381156 4.0734138 35 14
-14.68889 9.2286167 -0.30279925 38 7
-14.951176 9.4006834 4.7322474 45 15
-4.2794123 2.7063773 -1.3567295 6 0
-14.72911 9.318553 0.30423036 34 8
-5.1452141 3.2576985 -1.4059441 7 1
-14.765344 9.3523045 0.91598397 47 9
-6.4304266 4.0761504 -1.4799147 6 2
-14.79517 9.3856802 1.5328952 25 10
-8.5528164 5.4277806 -1.6043921 13 3
-14.826572 9.4164915 2.1566 37 11
-8.8189163 5.6052952 -1.2830406 19 4
-14.86745 9.4533815 2.7904785 31 12
-9.5745459 6.0926132 -0.9928782 14 5
-14.897162 9.4868784 3.4330356 42 13
-9.9114294 6.3142762 -0.61588961 5 6
-14.954633 9.5344858 4.0945592 34 14
-14.689848 9.3728886 -0.30416057 35 7
-14.963377 9.5510845 4.7565765 54 15
-4.2934051 2.7563171 -1.3670822 6 0
-14.73772 9.4687138 0.30576617 39 8
-5.1229205 3.2926452 -1.4059441 7 1
-14.750086 9.4875727 0.91912413 42 9
-6.4084172 4.1251931 -1.4814411 6 2
-14.761094 9.5055828 1.5360328 18 10
-8.4914694 5.4723773 -1.6000119 13 3
-14.765477 9.522995 2.1573315 31 11
-8.7405243 5.6393642 -1.2771908 15 4
-14.754628 9.5269403 2.781718 28 12
-9.5546103 6.1716981 -0.99514425 26 5
-14.758048 9.5401001 3.4158628 33 13
-9.9207697 6.4180307 -0.61923909 14 6
-14.882842 9.6318226 4.0927591 39 14
-14.615641 9.466136 -0.30395111 27 7
-4.2611117 2.7777827 -1.3629411 6 0
-14.532228 9.4770565 0.30283415 24 8
-5.0998092 3.3283284 -1.4059441 7 1
-14.532978 9.4883928 0.90959901 30 9
-6.3670416 4.1601272 -1.4783882 6 2
-14.544294 9.5102692 1.5203447 18 10
-8.4358387 5.5181556 -1.5965704 18 3
-14.55748 9.5297756 2.1363697 30 11
-8.6312027 5.6545568 -1.2669538 25 4
-14.540744 9.5296993 2.7535598 28 12
-9.4063339 6.1694088 -0.98416263 42 5
-14.551578 9.5513277 3.3834252 38 13
-14.386214 9.4463797 -0.90195799 18 6
-14.393813 9.4657612 -0.30070499 28 7
-14.957764 9.8403702 4.7974701 3 15
-4.2340493 2.801393 -1.3603529 6 0
-14.327326 9.4866438 0.29993707 24 8
-5.0802851 3.3651171 -1.4068439 7 1
-14.329879 9.4991293 0.90101594 34 9
-6.3509297 4.21316 -1.4814411 6 2
-14.318196 9.5021811 1.5034364 21 10
-8.3888817 5.5714498 -1.595006 13 3
-14.341804 9.53228 2.1144333 31 11
-8.5908594 5.7120767 -1.26671 24 4
-14.319269 9.5281153 2.7241502 30 12
-9.3873415 6.2487488 -0.98660302 34 5
-14.337542 9.5511074 3.3486981 40 13
-14.183645 9.4557428 -0.89337492 20 6
-15.008027 10.009108 4.1647434 0 14
-14.187672 9.4691601 -0.29773808 26 7
-15.052564 10.053999 4.8502693 3 15
-4.2127852 2.8298068 -1.3598353 6 0
-14.111381 9.4824533 0.29676074 24 8
-5.0469656 3.3939772 -1.4041444 7 1
-14.125684 9.5028038 0.89222342 35 9
-6.30582 4.2453265 -1.4776249 6 2
-14.104449 9.5028315 1.4879228 22 10
-8.3180037 5.6063385 -1.5887486 13 3
-14.128472 9.5297756 2.0924966 30 11
-8.5458384 5.768579 -1.2659788 19 4
-14.113293 9.5302925 2.6972432 28 12
-9.4970131 6.4178786 -1.0028139 31 5
-14.120897 9.5497828 3.3135893 42 13
-10.631813 7.1928668 -0.67272645 15 6
-14.163221 9.589221 3.9487908 4 14
-13.987127 9.4771175 -0.29491076 27 7
-15.066934 10.212588 4.8771863 3 15
-4.2030034 2.8649452 -1.3629411 6 0
-13.904425 9.4849501 0.29379383 24 8
-5.0237465 3.4282525 -1.4041444 6 1
-13.918805 9.5054464 0.88332635 34 9
-6.2792702 4.2914615 -1.4783882 6 2
-13.902927 9.5052814 1.473455 17 10
-8.2721405 5.659811 -1.5874972 13 3
-13.914188 9.5272417 2.0705605 28 11
-8.5112867 5.8299809 -1.26671 21 4
-13.912812 9.5370016 2.6715882 26 12
-9.5751982 6.5685534 -1.0158873 34 5
-13.919593 9.5523663 3.281533 39 13
-13.770391 9.4570522 -0.87547594 22 6
-13.933724 9.5763836 3.9033508 4 14
-13.788821 9.4803381 -0.29208347 28 7
-15.08121 10.376658 4.905139 3 15
-4.1844893 2.8953161 -1.3634588 6 0
-13.70141 9.4873066 0.29089671 20 8
-4.9900799 3.4565823 -1.4014452 6 1
-13.709299 9.5033932 0.87421989 32 9
-6.249157 4.3351946 -1.4783882 6 2
-13.705282 9.5112362 1.45951 17 10
-8.2226915 5.7106628 -1.5856199 13 3
-13.713674 9.5312452 2.0505736 28 11
-8.4149637 5.8507299 -1.258423 22 4
-13.706441 9.5368748 2.6446812 26 12
-9.3590631 6.5168362 -0.99775898 26 5
-13.7108 9.5505657 3.247951 39 13
-13.576235 9.4638662 -0.86731154 14 6
-13.730679 9.5786505 3.865109 14 14
-13.586195 9.4813833 -0.28918639 28 7
-15.09868 10.544738 4.9346437 3 15
-4.1594305 2.921129 -1.3619058 6 0
-13.515414 9.4987888 0.28834867 24 8
-4.9690142 3.493578 -1.4023448 7 1
-13.515212 9.509223 0.86605549 29 9
-6.2123199 4.3741932 -1.4768617 6 2
-13.516385 9.5206308 1.4464366 18 10
-8.1729364 5.7610979 -1.5837427 13 3
-13.526761 9.542079 2.0325372 29 11
-8.4079742 5.9333682 -1.2635415 23 4
-13.497536 9.5320511 2.6171491 28 12
-9.2624149 6.5436001 -0.992181 21 5
-13.525165 9.5621805 3.2197111 33 13
-13.374509 9.4626713 -0.85862374 22 6
-13.523594 9.5716934 3.825068 18 14
-13.390758 9.4846916 -0.2864289 30 7
-13.609382 9.6466837 4.4698048 9 15
-4.1279244 2.942246 -1.3582823 6 0
-13.326702 9.5023336 0.28569591 24 8
-4.9508491 3.5327094 -1.4041444 7 1
-13.321749 9.5093279 0.85778642 35 9
-6.1760111 4.4118133 -1.4753352 6 2
-13.310198 9.5151157 1.431446 18 10
-8.1110382 5.8005099 -1.5793626 13 3
-13.337197 9.5449715 2.0137691 31 11
-8.3566628 5.9849896 -1.2620791 24 4
-13.310302 9.5362701 2.5933709 28 12
-9.2003126 6.5964971 -0.99043781 20 5
-13.32728 9.5625153 3.1884186 34 13
-13.192964 9.469635 -0.85108739 22 6
-13.236442 9.507844 3.7625315 15 14
-13.195941 9.4857378 -0.28367144 27 7
-13.315984 9.5755539 4.3947477 26 15
-4.1093678 2.9714084 -1.3588001 6 0
-13.122335 9.4954958 0.282729 23 8
-4.9235311 3.5640416 -1.4032447 7 1
-13.133729 9.5142212 0.84993607 32 9
-6.1450605 4.4548225 -1.4753352 6 2
-13.122541 9.5165977 1.4181982 15 10
-8.0623503 5.8511944 -1.5777982 21 3
-13.140137 9.5433617 1.9940264 30 11
-8.2964592 6.0277319 -1.2591542 25 4
-13.128367 9.5453176 2.5708442 28 12
-9.029521 6.5675583 -0.97684151 30 5
-13.134898 9.5605831 3.1578891 39 13
-13.0103 9.4768391 -0.84355098 22 6
-13.097392 9.5437813 3.7413857 17 14
-13.011506 9.4881487 -0.28108847 28 7
-13.122407 9.5760422 4.352819 21 15
-4.0900812 3.0011661 -1.3593177 6 0
-12.933271 9.4934845 0.28004134 22 8
-4.8859653 3.5890968 -1.3996454 7 1
-12.954392 9.5194292 0.84250432 34 9
-6.1051054 4.4895692 -1.4730455 6 2
-12.940248 9.5229492 1.4056478 16 10
-8.0175648 5.9024224 -1.5768597 24 3
-12.948615 9.5395622 1.974771 31 11
-8.2302084 6.0678325 -1.2554981 25 4
-12.945448 9.5476933 2.5476921 28 12
-8.9273453 6.5890236 -0.97074062 27 5
-12.946233 9.5622339 3.1285043 39 13
-12.834653 9.4832821 -0.83632863 8 6
-12.934865 9.5643082 3.7139418 19 14
-12.84207 9.5026321 -0.27885455 31 7
-12.982391 9.6099672 4.3279719 20 15
-4.0881548 3.0427783 -1.3655293 6 0
-12.756024 9.5011196 0.27763289 24 8
-4.8551707 3.6176155 -1.3978459 6 1
-12.756328 9.511734 0.83392119 34 9
-6.0767612 4.5344281 -1.4738088 6 2
-12.766558 9.5297661 1.3937947 20 10
-7.9793277 5.9606161 -1.5774853 19 3
-12.767224 9.5441551 1.9572219 32 11
-8.1442032 6.0904255 -1.2486733 25 4
-12.758281 9.5478859 2.5239139 29 12
-8.7822542 6.5771394 -0.95993334 25 5
-12.569744 9.4170628 3.0529439 31 13
-12.633901 9.4720144 -0.82753623 20 6
-12.253618 9.1935883 3.5366805 18 14
-12.655542 9.4985933 -0.27620178 29 7
-12.243053 9.1956835 4.1027999 26 15
-4.0575624 3.0642598 -1.3624235 6 0
-12.081555 9.130579 0.26433414 19 8
-4.8391247 3.658473 -1.4005452 7 1
-12.084356 9.1426449 0.79414588 27 9
-6.0293045 4.5648909 -1.4699926 6 2
-12.081881 9.1507225 1.3259875 15 10
-7.9469671 6.023335 -1.5793626 13 3
-12.099275 9.1771908 1.8646011 29 11
-8.2026949 6.2239285 -1.2642727 14 4
-12.071459 9.1660528 2.4006436 25 12
-8.6790133 6.5948954 -0.9536581 24 5
-12.097326 9.1956844 2.9537234 29 13
-11.969772 9.1053238 -0.78817958 15 6
-12.091449 9.204546 3.5083365 22 14
-11.976418 9.1202812 -0.26276344 25 7
-12.078683 9.2048206 4.0691533 30 15
-4.0253382 3.0842865 -1.3588001 6 0
-11.912783 9.1343946 0.26203042 22 8
-4.8103738 3.6897938 -1.3996454 6 1
-11.918839 9.1489515 0.78744686 34 9
-5.9910612 4.602088 -1.4684662 6 2
-11.908698 9.1510801 1.31396 18 10
-7.898459 6.0738506 -1.5781111 13 3
-11.935798 9.1851683 1.8492455 27 11
-8.1370239 6.2640877 -1.2608603 13 4
-11.91954 9.1825972 2.3831229 24 12
-8.7033615 6.7073293 -0.96132785 25 5
-11.927116 9.1983891 2.9277735 30 13
-9.4124727 7.2642913 -0.62311196 10 6
-11.937507 9.2163744 3.4817924 21 14
-11.812762 9.126647 -0.26056442 29 7
-11.908674 9.2073841 4.0334363 28 15
-4.0021811 3.1111281 -1.3582823 6 0
-11.74457 9.1330223 0.2596918 24 8
-4.790648 3.7280753 -1.4014452 7 1
-11.768032 9.1611633 0.78158528 29 9
-5.9564991 4.6403484 -1.4677029 6 2
-11.747099 9.1580448 1.3031527 14 10
-7.8444715 6.1177554 -1.5756081 13 3
-11.772847 9.1880322 1.8336463 27 11
-8.1415939 6.3586211 -1.2684163 18 4
-11.760252 9.1881132 2.3637249 20 12
-8.5103512 6.6537986 -0.94511688 35 5
-11.759016 9.2003746 2.902205 32 13
-9.3958368 7.3540435 -0.62531006 14 6
-11.770087 9.218977 3.451649 21 14
-11.660624 9.1398115 -0.25860977 28 7
-11.74691 9.2107506 3.9997897 27 15
-3.9869807 3.1430814 -1.3603529 6 0
-11.587895 9.1417179 0.25763243 24 8
-4.7575126 3.7545617 -1.3991956 6 1
-11.60191 9.1626329 0.77478158 32 9
-5.9147177 4.6745138 -1.4654131 6 2
-11.601655 9.1723032 1.2939141 15 10
-7.8077683 6.1772718 -1.5768597 13 3
-11.605697 9.1886721 1.8175595 32 11
-8.1183548 6.4299126 -1.2715849 13 4
-11.610675 9.202507 2.3465173 24 12
-8.5027161 6.7440028 -0.94947463 21 5
-11.643827 9.2387142 2.88923 42 13
-11.491852 9.1246681 -0.76902461 11 6
-11.677974 9.2791033 3.4435506 30 14
-11.501086 9.1418219 -0.25644565 32 7
-11.691389 9.2997532 4.0028954 32 15
-3.9664497 3.1720459 -1.3608706 6 0
-11.506617 9.2086487 0.25724846 31 8
-4.7281427 3.7852468 -1.3982958 7 1
-11.522072 9.2309179 0.77373481 37 9
-5.8788748 4.7132382 -1.4646499 6 2
-11.568425 9.2780018 1.2974004 22 10
-7.778316 6.2427592 -1.5796754 12 3
-11.57996 9.3005438 1.823653 31 11
-8.1181421 6.52249 -1.2786533 25 4
-11.618505 9.3415136 2.361222 25 12
-8.3048544 6.6820459 -0.93256646 30 5
-11.646338 9.3739405 2.9060211 40 13
-11.444982 9.2184525 -0.77017599 24 6
-11.678153 9.4129887 3.4628966 30 14
-11.477458 9.2545271 -0.25735319 34 7
-11.708872 9.4478674 4.0313659 37 15
-3.930706 3.188705 -1.3562119 6 0
-11.521227 9.353034 0.25902861 34 8
-4.7106781 3.8255341 -1.4009951 7 1
-11.536396 9.3753729 0.77907312 39 9
-5.836689 4.7467318 -1.4623603 6 2
-11.568282 9.4113483 1.3047214 23 10
-7.739141 6.3006501 -1.580614 13 3
-11.599393 9.4501219 1.8370585 33 11
-8.0677938 6.575242 -1.277922 22 4
-11.62036 9.4773321 2.3749883 30 12
-8.1607561 6.6604967 -0.92158478 18 5
-11.659692 9.5195837 2.9258652 36 13
-9.2041893 7.5201387 -0.62290263 14 6
-11.687588 9.5559607 3.4853916 27 14
-11.472938 9.3838043 -0.25871447 36 7
-11.714388 9.58811 4.0562124 37 15
-3.9083483 3.2160697 -1.3562119 4 0
-11.517396 9.4840851 0.26042482 34 8
-4.6883678 3.8620446 -1.4023448 8 1
-11.544636 9.5166645 0.78409737 39 9
-5.7973518 4.7823653 -1.4608337 6 2
-11.576059 9.5527506 1.3130884 24 10
-7.7056289 6.3633285 -1.5828041 12 3
-11.608116 9.5928335 1.8490019 33 11
-7.9115357 6.5403404 -1.2603729 14 4
-11.626971 9.6186657 2.3900061 30 12
-8.1324778 6.7325521 -0.92367655 26 5
-11.665528 9.6608543 2.9441829 37 13
-11.453559 9.492053 -0.77959651 22 6
-11.704589 9.7069902 3.5105863 30 14
-11.477943 9.5224018 -0.2603201 31 7
-11.708103 9.7202549 4.0774355 41 15
-3.8783855 3.2370863 -1.3536236 6 0
-11.521505 9.6232252 0.26203042 38 8
-4.6597977 3.8934312 -1.4018949 7 1
-11.554529 9.6610832 0.78933096 39 9
-5.7608109 4.8202038 -1.4600705 6 2
-11.573257 9.6870413 1.3204094 22 10
-7.6595011 6.4157023 -1.5824912 13 3
-11.613886 9.734848 1.8607013 33 11
-7.8945832 6.619647 -1.2650038 15 4
-11.638226 9.7656298 2.4062753 32 12
-8.0696745 6.7736611 -0.92175907 20 5
-11.656428 9.7913074 2.9590659 36 13
-11.45734 9.6308985 -0.78441137 20 6
-11.720279 9.8554125 3.5353308 31 14
-11.489215 9.6679668 -0.26210025 37 7
-11.72419 9.8726816 4.1069407 39 15
-3.8645387 3.2715731 -1.3567295 6 0
-11.521354 9.7569962 0.26353133 30 8
-4.6250691 3.9195678 -1.3996454 8 1
-11.561627 9.8015022 0.79435521 35 9
-5.7188859 4.8516827 -1.4577808 6 2
-11.584325 9.8346567 1.3294736 24 10
-7.6292057 6.479197 -1.5853071 12 3
-11.616934 9.8728104 1.8719133 31 11
-7.9056416 6.7234683 -1.2742659 19 4
-11.648214 9.9099035 2.4222317 33 12
-8.1041126 6.8995767 -0.93117195 23 5
-11.67297 9.9450178 2.9808183 37 13
-8.7860937 7.4881339 -0.60500371 7 6
-11.717912 9.9939013 3.5555763 28 14
-11.499016 9.8141451 -0.2638804 29 7
-11.731647 10.016231 4.1333404 36 15
-3.84218 3.2978022 -1.3567295 5 0
-11.533357 9.9062462 0.26538128 34 8
-4.5938482 3.9471493 -1.3982958 7 1
-11.562581 9.9418774 0.79917014 39 9
-5.6878519 4.8940506 -1.458544 6 2
-11.592619 9.9782667 1.3381892 23 10
-7.5987535 6.5451922 -1.5884358 14 3
-11.62291 10.018472 1.8841002 30 11
-7.9288478 6.8367543 -1.2854779 19 4
-11.655024 10.056794 2.4381878 32 12
-8.0358458 6.9363527 -0.92873156 21 5
-11.674836 10.084558 2.9987543 37 13
-8.8318176 7.6341867 -0.61180741 14 6
-11.717424 10.132062 3.5762718 28 14
-11.499993 9.9510717 -0.2654511 30 7
-11.746138 10.171235 4.1633635 39 15
-3.8219786 3.3270814 -1.3577647 6 0
-11.548603 10.05675 0.26730105 30 8
-4.5676498 3.9804034 -1.3987457 8 1
-11.56239 10.079411 0.80388033 37 9
-5.6425729 4.922327 -1.4554911 6 2
-11.603726 10.129709 1.3476021 24 10
-7.5793219 6.6188512 -1.5937545 13 3
-11.620214 10.154829 1.8948246 31 11
-7.8450632 6.86058 -1.2796283 25 4
-11.660637 10.200927 2.4538314 30 12
-7.924262 6.9371657 -0.9214105 23 5
-11.68832 10.239562 3.0205066 38 13
-8.9719162 7.8626175 -0.6252054 19 6
-11.728448 10.285574 3.6014662 29 14
-11.497879 10.090467 -0.26702183 28 7
-11.753578 10.318504 4.1907983 45 15
-3.7934499 3.3479066 -1.3556943 6 0
-11.553053 10.203315 0.26904631 35 8
-4.5448318 4.0152736 -1.4000953 7 1
-11.583018 10.24058 0.81026536 39 9
-5.6124806 4.9655037 -1.456636 7 2
-11.597172 10.263915 1.3549231 22 10
-7.5373631 6.6755342 -1.5946931 11 3
-11.653033 10.32787 1.9118865 35 11
-7.7669897 6.8861651 -1.2745097 14 4
-11.667452 10.351566 2.4704134 28 12
-8.0824976 7.1734543 -0.94546551 29 5
-11.694684 10.386675 3.0403507 38 13
-11.49944 10.220451 -0.80628783 11 6
-11.742638 10.440268 3.6275609 27 14
-11.514085 10.244263 -0.26901138 37 7
-11.751956 10.463251 4.2161627 39 15
-3.7699845 3.3743081 -1.3556943 6 0
-11.551865 10.343079 0.27065191 31 8
-4.5137863 4.0443034 -1.3991956 7 1
-11.593359 10.391171 0.81591767 35 9
-5.5639367 4.9904833 -1.4528197 25 2
-11.614197 10.424479 1.3653818 23 10
-7.4652925 6.70293 -1.5890616 6 3
-11.659244 10.475944 1.9245608 32 11
-7.8353424 7.0450721 -1.2937651 23 4
-11.681904 10.507363 2.4885597 28 12
-8.0440693 7.2403674 -0.94685996 35 5
-11.6992 10.537704 3.0605764 40 13
-8.9353628 8.0510817 -0.63033432 16 6
-11.754853 10.598986 3.6541049 27 14
-11.518003 10.392716 -0.27079153 29 7
-11.762204 10.616784 4.2456679 42 15
-3.7454979 3.3985934 -1.3551766 6 0
-11.560802 10.497405 0.27257168 34 8
-4.4746132 4.0644522 -1.3955964 6 1
-11.595909 10.540366 0.82125586 37 9
-5.5129867 5.0146723 -1.448622 31 2
-11.619601 10.573017 1.374446 23 10
-7.4343829 6.7695117 -1.5925031 3 3
-11.656256 10.621259 1.9362602 32 11
-7.7916079 7.1022544 -1.2944963 27 4
-11.692912 10.665871 2.506706 31 12
-8.0122604 7.3110695 -0.94895172 27 5
-11.709841 10.69255 3.0823288 39 13
-8.7506618 7.9960556 -0.62122786 17 6
-11.755795 10.745804 3.6770499 27 14
-11.534051 10.550508 -0.27285093 34 7
-11.774723 10.778208 4.2772436 38 15
-3.7273674 3.4298906 -1.3572472 6 0
-11.57147 10.651696 0.27452636 33 8
-4.4446964 4.0942698 -1.3951464 8 1
-11.594396 10.684018 0.82628018 32 9
-5.4946012 5.0667224 -1.4528197 23 2
-11.630427 10.732249 1.3845561 23 10
-7.3895836 6.8213 -1.5928159 3 3
-11.666805 10.777132 1.9501534 32 11
-7.709765 7.1268325 -1.289134 36 4
-11.70271 10.821661 2.5245397 35 12
-8.1145706 7.5089135 -0.9672544 26 5
-11.719897 10.852741 3.1048443 35 13
-8.6681938 8.029644 -0.61923909 19 6
-11.75909 10.90048 3.7017946 25 14
-11.539282 10.704208 -0.27473578 32 7
-11.790298 10.940893 4.309855 37 15
-3.7039344 3.4551828 -1.3572472 6 0
-11.584529 10.814096 0.27662063 34 8
-4.4224219 4.1297498 -1.3969461 8 1
-11.599781 10.839705 0.83203709 35 9
-5.4361515 5.0835028 -1.4467138 20 2
-11.644406 10.892833 1.3950148 25 10
-7.3215923 6.8538227 -1.5884358 3 3
-11.669516 10.931601 1.9633152 35 11
-7.7030821 7.2185106 -1.2962024 22 4
-11.698925 10.970655 2.5401831 28 12
-7.9834967 7.4917588 -0.95784163 26 5
-11.733067 11.014229 3.1281228 39 13
-8.9642057 8.4208918 -0.64456969 11 6
-11.767899 11.062391 3.7287886 27 14
-11.536078 10.848262 -0.27641121 29 7
-11.799451 11.103694 4.3414307 38 15
-3.6656895 3.46768 -1.3520708 6 0
-11.582816 10.964817 0.27840078 35 8
-4.3934817 4.1605244 -1.3969461 8 1
-11.612258 11.004222 0.83842206 34 9
-5.3891344 5.1105218 -1.443661 21 2
-11.640354 11.042418 1.4037304 21 10
-7.269269 6.9006877 -1.5874972 3 3
-11.679266 11.094838 1.9779397 35 11
-7.7086215 7.3254409 -1.3057083 14 4
-11.709368 11.135102 2.5592682 30 12
-8.0103817 7.6228528 -0.96742868 29 5
-11.739784 11.175738 3.1506383 35 13
-11.524118 10.978105 -0.83413053 22 6
-11.777837 11.22764 3.7566826 25 14
-11.543997 11.008575 -0.27843568 34 7
-11.804103 11.264488 4.3719711 37 15
-3.6497545 3.5012119 -1.3551766 6 0
-11.586769 11.122963 0.28035545 31 8
-4.3615184 4.1883945 -1.3960463 9 1
-11.621558 11.168057 0.84470242 34 9
-5.3575702 5.1521034 -1.4448059 9 2
-11.647694 11.204909 1.4140148 23 10
-7.2180691 6.9485288 -1.5868714 4 3
-11.683015 11.254602 1.9918326 34 11
-7.625844 7.3487759 -1.3003459 28 4
-11.712398 11.294735 2.5771017 28 12
-7.9727416 7.6938076 -0.96934617 31 5
-11.740578 11.333781 3.1720088 36 13
-11.523329 11.131837 -0.83967817 26 6
-11.800041 11.407114 3.7890754 24 14
-11.555985 11.175087 -0.2805998 32 7
-11.807081 11.425884 4.4025121 34 15
-3.6266084 3.5279529 -1.3556943 6 0
-11.593373 11.285881 0.28241485 33 8
-4.3224001 4.2092237 -1.392897 7 1
-11.630561 11.333947 0.85108739 35 9
-5.3158484 5.1838975 -1.4432793 6 2
-11.657609 11.372212 1.4248221 22 10
-7.1693835 6.9987512 -1.5868714 2 3
-11.68652 11.416348 2.0059695 32 11
-7.6325655 7.4587178 -1.3103393 18 4
-11.732118 11.472907 2.5990024 29 12
-8.0313292 7.8593664 -0.98311675 25 5
-11.750953 11.503368 3.1964324 36 13
-11.52666 11.291677 -0.84564447 24 6
-11.795268 11.562881 3.8133705 26 14
-11.563353 11.339498 -0.28269407 33 7
-11.824926 11.604102 4.4392643 34 15
-3.6046395 3.5558994 -1.3567295 5 0
-11.606805 11.457854 0.28468364 31 8
-4.2901344 4.2365594 -1.3919971 7 1
-11.622186 11.485058 0.85632104 9 9
-5.2906976 5.2319255 -1.4463322 6 2
-7.0824461 7.0111079 -1.5784239 6 3
-11.686918 11.577288 2.0198627 30 11
-7.6127405 7.5439568 -1.3159453 22 4
-11.734495 11.636597 2.6174617 32 12
-7.9083819 7.8478804 -0.97474986 30 5
-11.767891 11.68194 3.2231457 31 13
-11.521229 11.445068 -0.85108739 16 6
-11.798559 11.728754 3.8408144 24 14
-11.835371 11.777675 4.4739461 31 15
-3.5715332 3.5727797 -1.3536236 6 0
-7.779984 7.7881341 0.192151 7 8
-4.2604542 4.2664061 -1.3919971 7 1
-7.8143983 7.8307796 0.57977778 21 9
-5.226316 5.240932 -1.4387 6 2
-7.8207946 7.8454003 0.96917188 2 10
-7.0277495 7.0547867 -1.5771725 25 3
-11.709447 11.762699 2.0378993 8 11
-7.6607032 7.6982322 -1.3334944 10 4
-11.740726 11.806478 2.6371727 25 12
-11.77045 11.848774 3.2464242 34 13
-7.7010021 7.7576609 -0.57286942 61 6
-11.805599 11.900762 3.8700578 22 14
-7.7246332 7.789619 -0.1914878 12 7
-11.845328 11.953321 4.5091457 31 15
-3.5465043 3.5976257 -1.3536236 6 0
-11.623919 11.799714 0.28911656 24 8
-4.2332997 4.2988229 -1.392897 7 1
-11.655419 11.844088 0.87087041 35 9
-5.1978612 5.2856884 -1.4409896 6 2
-11.671097 11.872446 1.4565467 17 10
-6.9644847 7.0895844 -1.5740438 27 3
-7.7096415 7.8536105 1.3512874 35 11
-7.6331921 7.7784452 -1.3381255 13 4
-11.743763 11.975601 2.6565704 29 12
-11.780867 12.026026 3.2723746 34 13
-11.554512 11.8032 -0.86563683 22 6
-11.822454 12.081126 3.902451 24 14
-11.586187 11.84796 -0.28925619 33 7
-11.849355 12.125531 4.5427918 33 15
-3.5199544 3.620913 -1.353106 6 0
-11.618592 11.956003 0.29100144 26 8
-4.2031856 4.3282723 -1.392897 7 1
-11.667739 12.019161 0.87788337 34 9
-5.1535592 5.3124919 -1.4387 6 2
-11.685001 12.053774 1.4687486 20 10
-6.9188156 7.1396627 -1.5746696 28 3
-7.7084832 7.9600945 1.3605494 5 11
-7.3799148 7.6261296 -1.3030272 18 4
-11.763615 12.160322 2.6797228 30 12
-7.7312274 7.9975371 -0.97318101 26 5
-11.779832 12.194108 3.2956533 32 13
-11.558536 11.969215 -0.87202179 22 6
-11.836612 12.265731 3.9352939 23 14
-11.586478 12.014919 -0.29135045 28 7
-11.853696 12.296311 4.5764384 29 15
-3.5045865 3.6545482 -1.3567295 5 0
-11.63722 12.143666 0.29358438 24 8
-4.1682353 4.3511524 -1.3910973 6 1
-11.669172 12.189778 0.88437307 35 9
-5.1082039 5.339828 -1.4364102 6 2
-11.693566 12.228069 1.4802531 16 10
-6.8851805 7.2049265 -1.5784239 11 3
-11.725858 12.278987 2.0846972 25 11
-7.5046577 7.8614125 -1.3344694 28 4
-11.776605 12.345061 2.7022493 26 12
-7.7604871 8.1379299 -0.98381394 37 5
-11.799489 12.382025 3.3246562 35 13
-11.553204 12.132056 -0.8779881 26 6
-11.846903 12.444818 3.9667869 20 14
-11.600907 12.194927 -0.29379383 31 7
-11.871382 12.487979 4.6168146 31 15
-3.4736786 3.6733112 -1.354659 5 0
-11.647707 12.321409 0.29595789 26 8
-4.1457858 4.3886452 -1.3937967 7 1
-11.677809 12.366215 0.89138615 35 9
-5.052875 5.3544846 -1.4310676 7 2
-11.700867 12.407974 1.4921063 16 10
-6.8563027 7.2731886 -1.583117 20 3
-11.745458 12.46833 2.1032214 29 11
-7.5298715 7.9988923 -1.34885 25 4
-11.784359 12.522758 2.7235246 29 12
-7.6625381 8.1483669 -0.97858465 36 5
-11.810903 12.568539 3.3525143 33 13
-11.570182 12.316682 -0.88562912 22 6
-11.849094 12.622416 3.9969306 22 14
-11.608517 12.374797 -0.29616734 28 7
-11.893142 12.682638 4.6587429 37 15
-3.4446421 3.6926322 -1.353106 6 0
-11.655488 12.503353 0.29836634 24 8
-4.1211329 4.4224653 -1.3955964 7 1
-11.679664 12.542447 0.89818978 34 9
-5.0060081 5.3795691 -1.4283962 26 2
-11.717913 12.596741 1.5051796 17 10
-6.8080502 7.3237696 -1.5837427 2 3
-11.754047 12.653292 2.1205268 28 11
-7.5306334 8.1095991 -1.3588433 23 4
-11.782638 12.697395 2.7435479 27 12
-7.8858962 8.5040731 -1.0146672 20 5
-11.826511 12.758066 3.3815172 31 13
-11.364471 12.268218 -0.87641799 16 6
-11.863945 12.816375 4.032023 23 14
-11.609582 12.545988 -0.29836634 28 7
-11.889566 12.857551 4.6923895 32 15
-3.4148538 3.7123253 -1.3515531 6 0
-11.662646 12.68747 0.30080968 23 8
-4.1046605 4.4669132 -1.4005452 8 1
-11.694482 12.735486 0.90614486 29 9
-4.9670024 5.41294 -1.4280145 37 2
-11.719922 12.776612 1.5168586 15 10
-6.7634287 7.3784008 -1.5853071 2 3
-11.765991 12.844823 2.1388073 30 11
-7.5569515 8.2527456 -1.373955 25 4
-11.793725 12.888643 2.7670133 24 12
-7.8814597 8.6192055 -1.021814 22 5
-11.832529 12.944652 3.4089937 31 13
-11.543912 12.637762 -0.8970384 18 6
-11.875338 13.009715 4.0666652 22 14
-11.622802 12.737519 -0.3009842 31 7
-11.899738 13.050162 4.7322474 30 15
-3.3953445 3.7432292 -1.3541414 6 0
-11.670478 12.875261 0.30332282 27 8
-4.0707598 4.4925709 -1.3996454 8 1
-11.70717 12.929338 0.91409993 26 9
-4.9251404 5.4431171 -1.4268698 52 2
-11.725332 12.963033 1.5292346 15 10
-6.7117534 7.4254384 -1.5853071 2 3
-11.769176 13.029768 2.1558688 30 11
-7.5789738 8.3937035 -1.3885795 36 4
-11.798737 13.076259 2.7895398 20 12
-7.6731486 8.5069523 -1.0022911 42 5
-11.837826 13.133398 3.4368517 30 13
-10.816465 12.008683 -0.84700519 8 6
-11.890824 13.206101 4.1026573 21 14
-11.631237 12.926865 -0.30353224 28 7
-11.911677 13.247841 4.7736583 30 15
-3.3678401 3.7654026 -1.3536236 6 0
-11.675872 13.05875 0.30576617 27 8
-4.0405936 4.5223355 -1.4000953 7 1
-11.714687 13.115976 0.92163628 24 9
-4.8971272 5.4867687 -1.4295411 38 2
-11.74197 13.165009 1.5433538 15 10
-6.6755147 7.4871707 -1.5887486 1 3
-11.779252 13.220737 2.1741493 28 11
-7.5096312 8.4345474 -1.3866295 28 4
-11.825027 13.286119 2.8170722 23 12
-7.7552524 8.7196083 -1.0209423 42 5
-11.843665 13.32578 3.4654732 33 13
-11.017034 12.400056 -0.86930031 12 6
-11.896673 13.399544 4.1368499 22 14
-11.646879 13.127419 -0.30632463 28 7
-11.925056 13.445684 4.8155875 31 15
-3.3421328 3.7882388 -1.3536236 6 0
-11.688893 13.258446 0.30852365 24 8
-4.0110068 4.5511947 -1.4005452 8 1
-11.708636 13.294866 0.92843997 24 9
-4.8600011 5.5222955 -1.4299227 7 2
-11.757369 13.364301 1.5572987 15 10
-6.6126494 7.5217223 -1.5862457 4 3
-11.79148 13.421957 2.1936483 26 11
-7.5843458 8.636116 -1.4112471 16 4
-11.829711 13.4797 2.8405373 24 12
-7.8216138 8.9188414 -1.0378506 34 5
-11.857517 13.525663 3.4963844 30 13
-10.623543 12.126632 -0.84491175 6 6
-11.897827 13.590772 4.1701427 23 14
-11.64812 13.310227 -0.30873308 25 7
-11.941537 13.655126 4.8606219 28 15
-3.328284 3.8260548 -1.3588001 6 0
-11.69575 13.454422 0.31117639 24 8
-3.9919181 4.5937958 -1.4050443 8 1
-11.722917 13.499942 0.93702304 24 9
-4.809751 5.5427437 -1.4264882 6 2
-11.765615 13.56345 1.5708951 16 10
-6.5910301 7.6035275 -1.5937545 1 3
-11.804068 13.626987 2.213635 26 11
-7.5485587 8.7173672 -1.4158782 16 4
-11.832259 13.673991 2.8640025 22 12
-7.6158085 8.8074465 -1.0186763 38 5
-11.878349 13.741789 3.53073 30 13
-11.61834 13.450478 -0.9314754 18 6
-11.912161 13.800372 4.2088342 21 14
-11.647665 13.498713 -0.31121132 26 7
-11.951884 13.861058 4.9041033 30 15
-3.2826266 3.8272007 -1.3510355 6 0
-11.713457 13.66632 0.31417823 24 8
-3.9648228 4.627471 -1.4068439 8 1
-11.7388 13.710409 0.94592017 29 9
-4.7696614 5.5746951 -1.4261066 7 2
-11.767768 13.758818 1.5839685 15 10
-6.5069861 7.6133151 -1.5862457 1 3
-11.816936 13.835859 2.2341089 30 11
-7.5790339 8.8770409 -1.4331836 17 4
-11.840358 13.877989 2.8893449 24 12
-7.7819405 9.1243668 -1.0491807 19 5
-11.881454 13.940933 3.5604961 32 13
-10.252468 12.038096 -0.82868761 35 6
-11.929117 14.011713 4.248426 21 14
-11.656804 13.701546 -0.31400371 16 7
-11.954938 14.061903 4.9455147 27 15
-3.2458489 3.8382239 -1.3468944 6 0
-11.711821 13.85416 0.31665647 25 8
-3.9387085 4.6624813 -1.4090934 7 1
-11.757313 13.922752 0.95502663 32 9
-4.7151451 5.5875268 -1.4211454 6 2
-11.776748 13.965532 1.5982621 15 10
-6.4575596 7.6604505 -1.5868714 2 3
-11.824804 14.037427 2.253608 24 11
-7.6089187 9.0390787 -1.4507327 17 4
-11.853733 14.086731 2.9159389 22 12
-7.7488217 9.2150745 -1.0533643 35 5
-11.888673 14.148289 3.5921702 33 13
-9.9853048 11.887382 -0.81361485 35 6
-11.945025 14.230472 4.2893667 20 14
-10.021302 11.947162 -0.27218774 39 7
-11.97438 14.280621 4.9936547 25 15
-3.2258341 3.8676462 -1.3494825 6 0
-11.718519 14.060012 0.31948376 19 8
-3.8981485 4.6787028 -1.4059441 9 1
-11.762062 14.127287 0.96340036 32 9
-4.6810451 5.6263456 -1.4226719 6 2
-11.792253 14.178638 1.613427 15 10
-6.4039221 7.7053466 -1.5868714 2 3
-11.82671 14.240278 2.2728636 22 11
-7.5903282 9.1425915 -1.4590199 23 4
-11.87366 14.31205 2.9453485 22 12
-7.7644153 9.3655758 -1.064346 23 5
-11.89983 14.358884 3.6249895 35 13
-9.8918858 11.944491 -0.81277746 18 6
-11.952229 14.442637 4.3280582 20 14
-9.8976898 11.964246 -0.27103588 34 7
-11.990087 14.503835 5.0423126 28 15
-3.1889381 3.8781354 -1.3453414 5 0
-10.075048 12.261201 0.2770046 33 8
-3.8752856 4.7178497 -1.4095433 8 1
-11.767056 14.335648 0.97198343 26 9
-4.6316905 5.6467447 -1.4196191 6 2
-11.811728 14.405444 1.6298124 15 10
-6.3324451 7.7284756 -1.5824912 3 3
-11.836416 14.456122 2.2940688 20 11
-7.6784515 9.3812323 -1.4885123 11 4
-11.88601 14.532209 2.9735067 24 12
-7.966145 9.7465992 -1.1013 19 5
-11.913573 14.581481 3.6600983 30 13
-9.6971016 11.877113 -0.8035664 35 6
-11.957062 14.655577 4.3667498 22 14
-9.7658958 11.974167 -0.2697095 39 7
-12.003269 14.727948 5.0909705 29 15
-3.1630025 3.9018044 -1.3458591 6 0
-9.9275274 12.255102 0.27529427 35 8
-3.841028 4.7432752 -1.4090934 9 1
-11.77348 14.549419 0.98088056 22 9
-4.5822806 5.6667299 -1.416566 6 2
-11.817334 14.619259 1.6446289 15 10
-6.2795768 7.7740321 -1.5828041 4 3
-11.847421 14.677425 2.3160052 20 11
-7.6713595 9.5072184 -1.4999681 21 4
-11.89338 14.750156 3.001039 23 12
-8.3934994 10.413328 -1.170153 7 5
-11.927247 14.80802 3.6959705 33 13
-9.5788822 11.900958 -0.80063552 22 6
-11.973082 14.880867 4.4094906 20 14
-9.6018705 11.942314 -0.26747561 34 7
-12.016315 14.955964 5.1406641 29 15
-3.1272438 3.9132276 -1.3422357 5 0
-9.7328033 12.183338 0.27218774 46 8
-3.8138988 4.7775898 -1.4113429 8 1
-11.790037 14.774401 0.99061513 26 9
-4.5411544 5.6947193 -1.4158028 6 2
-11.821768 14.835408 1.6596197 15 10
-6.1932845 7.7748785 -1.5743566 3 3
-11.865924 14.906828 2.3394041 20 11
-7.6443434 9.6102571 -1.5077677 17 4
-11.903352 14.969926 3.0291972 23 12
-8.1235199 10.223646 -1.1424375 3 5
-11.938334 15.035456 3.7318425 27 13
-9.450469 11.906438 -0.79665804 26 6
-11.997266 15.125931 4.45718 20 14
-9.4785156 11.958908 -0.26635864 32 7
-12.021008 15.172173 5.1867337 28 15
-3.0933621 3.9253178 -1.3391298 5 0
-9.5918303 12.180296 0.27061701 37 8
-3.790936 4.8156877 -1.4149421 8 1
-11.803907 15.005484 1.0005589 21 9
-4.4903674 5.7123923 -1.4123683 12 2
-11.836227 15.062792 1.676005 15 10
-6.1107955 7.7821932 -1.5671607 2 3
-11.868183 15.125167 2.3606093 21 11
-7.5579238 9.6355152 -1.5036241 17 4
-11.915546 15.20191 3.059233 24 12
-7.9529767 10.150104 -1.1281439 15 5
-11.948275 15.260129 3.767333 30 13
-9.3425026 11.940665 -0.7945646 16 6
-12.008084 15.353068 4.4999208 23 14
-9.387042 12.010544 -0.2660794 37 7
-12.037271 15.412546 5.2400503 26 15
-3.0753634 3.9590228 -1.3432709 5 0
-9.4130421 12.122104 0.26789445 41 8
-3.7476664 4.8297191 -1.4113429 8 1
-11.817795 15.235403 1.0105027 19 9
-4.4585967 5.7521353 -1.414658 7 2
-11.849133 15.297842 1.6929132 15 10
-6.048007 7.8111119 -1.5646578 2 3
-11.882786 15.357892 2.3842521 21 11
-7.4929051 9.6911831 -1.5041116 17 4
-11.933802 15.440523 3.0908327 22 12
-7.8673091 10.186458 -1.1260523 7 5
-11.966195 15.504808 3.8070214 29 13
-9.2317266 11.966028 -0.79205245 26 6
-12.026727 15.600121 4.5476108 22 14
-9.282218 12.048856 -0.265486 40 7
-12.057023 15.656365 5.29492 25 15
-3.0488241 3.9819305 -1.3437886 6 0
-9.3783073 12.257442 0.26939535 15 8
-3.7197769 4.8635049 -1.4135925 9 1
-9.6709499 12.653648 0.83465391 16 9
-4.416132 5.7823305 -1.4142764 6 2
-11.864157 15.540137 1.7105186 12 10
-5.9907622 7.8526173 -1.5643448 3 3
-11.890526 15.59724 2.4081383 20 11
-7.5742631 9.9390364 -1.5343351 16 4
-11.946274 15.687394 3.1230581 20 12
-8.1260109 10.678512 -1.1739877 5 5
-11.977716 15.745781 3.8455648 30 13
-9.1096048 11.984081 -0.78891224 18 6
-12.022054 15.826999 4.5885515 20 14
-9.1797361 12.089476 -0.26496243 43 7
-12.066125 15.902295 5.3487544 25 15
-3.0162959 3.9969499 -1.341718 4 0
-9.2852821 12.313037 0.26918593 34 8
-3.6869054 4.8909111 -1.4140424 9 1
-9.6568804 12.819764 0.84114355 40 9
-4.3614879 5.7941976 -1.4096969 6 2
-11.870379 15.77542 1.7272525 12 10
-5.9298596 7.8863549 -1.5627805 2 3
-11.905354 15.844929 2.4334872 19 11
-7.5952954 10.112303 -1.5528593 16 4
-11.941992 15.911029 3.1509032 23 12
-7.787077 10.382725 -1.135465 27 5
-11.992325 15.995529 3.8860161 30 13
-9.0269222 12.048982 -0.78901696 20 6
-12.039742 16.082136 4.6380405 19 14
-9.0939188 12.151661 -0.26492754 47 7
-2.9871655 4.0163603 -1.3412004 5 0
-9.2110224 12.393611 0.26953498 30 8
-3.6596434 4.9259167 -1.4167417 8 1
-11.851785 15.964259 1.042009 14 9
-4.3279486 5.8339658 -1.4119867 6 2
-11.875076 16.013142 1.7441607 13 10
-5.8617201 7.9101028 -1.5593389 3 3
-11.910224 16.083994 2.4573736 5 11
-7.5717564 10.228903 -1.5626088 10 4
-12.535461 16.946882 3.3386247 25 12
-7.7150393 10.433887 -1.1352907 7 5
-12.581551 17.02783 4.1153684 36 13
-8.9247885 12.087605 -0.78744686 26 6
-12.554907 17.010397 4.8809881 13 14
-9.0171719 12.226118 -0.26517189 41 7
-13.421132 18.21064 6.0615425 3 15
-2.9624794 4.0417914 -1.3427533 6 0
-9.1477222 12.485055 0.27016324 38 8
-3.6067455 4.9261885 -1.4095433 8 1
-12.447061 17.00675 1.104498 43 9
-4.2881379 5.8632903 -1.4119867 6 2
-12.461296 17.051163 1.8477017 15 10
-5.7844372 7.9179182 -1.5530815 2 3
-12.503906 17.128286 2.6038606 23 11
-7.4638939 10.231799 -1.5550529 2 4
-12.558319 17.221748 3.3758564 28 12
-9.7821932 13.424572 -1.4532349 2 5
-12.584865 17.283484 4.1558199 32 13
-8.8352518 12.138386 -0.7868188 26 6
-12.669683 17.419127 4.9727678 21 14
-9.0209484 12.411708 -0.26782462 28 7
-13.234411 18.215612 6.0330725 3 15
-2.9348989 4.0618625 -1.3427533 6 0
-9.1411076 12.660482 0.27257168 37 8
-3.5571637 4.9285026 -1.4032447 9 1
-4.2562828 5.9058261 -1.4150395 6 2
-12.483533 17.327963 1.8684448 15 10
-5.7024736 7.9212356 -1.5458857 2 3
-12.50922 17.3892 2.6301844 21 11
-7.4439096 10.351668 -1.5655338 8 4
-12.573804 17.498297 3.4127748 23 12
-7.6243858 10.618272 -1.1436577 11 5
-12.598579 17.55216 4.1997061 25 13
-8.7479658 12.196526 -0.78660947 31 6
-12.679453 17.690889 5.0249567 13 14
-8.9106331 12.437063 -0.26705673 32 7
-12.957358 18.09864 5.9642262 3 15
-2.9064724 4.0822515 -1.3427533 6 0
-9.110466 12.805456 0.27431691 31 8
-3.5215402 4.9516282 -1.4027947 7 1
-4.2047181 5.9209895 -1.411605 10 2
-12.499499 17.608023 1.8891878 15 10
-5.6253195 7.9302406 -1.5399411 2 3
-12.53675 17.686644 2.6618705 22 11
-7.444911 10.507047 -1.581133 8 4
-12.586033 17.775888 3.4496934 23 12
-7.6743512 10.846899 -1.1624832 14 5
-12.623109 17.848063 4.2493162 24 13
-7.9629121 11.267258 -0.72307366 9 6
-12.714143 18.003422 5.0883927 11 14
-8.8708725 12.565947 -0.26848781 40 7
-12.751626 18.076578 5.927474 43 15
-2.8712454 4.0929542 -1.3396474 4 0
-9.12644 13.019398 0.27752817 9 8
-3.4824121 4.9697084 -1.4009951 7 1
-12.577328 17.96229 1.149193 1 9
-4.1520271 5.9341125 -1.4077889 10 2
-12.512157 17.889145 1.9099309 16 10
-5.5743484 7.9757929 -1.5411925 4 3
-12.549361 17.969032 2.691119 22 11
-7.4509196 10.672703 -1.5981947 8 4
-12.592729 18.051254 3.485986 31 12
-7.7222838 11.073752 -1.1811346 18 5
-12.613809 18.101662 4.2886233 47 13
-8.8484497 12.707573 -0.81152141 18 6
-12.605777 18.110342 5.0942416 31 14
-8.8240356 12.68667 -0.2697444 42 7
-12.598658 18.127089 5.915051 35 15
-2.8382075 4.1065421 -1.3375769 6 0
-12.436232 18.000454 0.38189358 20 8
-3.4398847 4.9826717 -1.3978459 8 1
-12.38217 17.942284 1.1424941 12 9
-4.1015077 5.9476905 -1.4043542 16 2
-12.429932 18.038399 1.9165548 16 10
-5.48071 7.956614 -1.5302421 2 3
-12.45153 18.090006 2.6964815 25 11
-7.4549742 10.83895 -1.6152564 10 4
-12.425928 18.073065 3.4737842 33 12
-7.8433509 11.416417 -1.2118134 20 5
-12.43268 18.10997 4.2699237 40 13
-8.7301035 12.721397 -0.80859059 15 6
-12.431645 18.128798 5.0748959 30 14
-8.9240179 13.023445 -0.27557349 39 7
-12.416026 18.12636 5.8870978 34 15
-2.8145394 4.132153 -1.3396474 6 0
-12.259638 18.01244 0.38032284 30 8
-3.4036965 5.002749 -1.3969461 8 1
-12.275704 18.056362 1.1442734 38 9
-4.0565758 5.9713082 -1.4032094 19 2
-12.25537 18.046768 1.9085364 17 10
-5.4250283 7.9946828 -1.5302421 2 3
-12.26031 18.081205 2.6823444 27 11
-7.4634485 11.011036 -1.633293 10 4
-12.252917 18.090687 3.4606438 35 12
-8.1733017 12.076447 -1.2757857 14 5
-12.248617 18.104746 4.2489352 34 13
-8.6477966 12.79196 -0.80921865 31 6
-12.256781 18.144091 5.0551 24 14
-8.8989506 13.178349 -0.27756307 27 7
-12.237311 18.135733 5.8622518 35 15
-2.7866998 4.1533065 -1.3401651 6 0
-12.077909 18.014542 0.37857762 30 8
-3.3578384 5.010201 -1.392447 8 1
-12.086001 18.047031 1.1383072 31 9
-4.0115137 5.9945879 -1.4020646 21 2
-12.086986 18.068958 1.9019126 19 10
-5.3460307 7.9978747 -1.5236719 2 3
-12.080866 18.087118 2.670645 26 11
-7.4657583 11.181739 -1.6508422 7 4
-12.085767 18.114983 3.4490674 30 12
-7.9506402 11.925996 -1.2539967 14 5
-12.108867 18.170206 4.2443557 27 13
-8.6291237 12.958419 -0.81591767 18 6
-12.1622 18.277891 5.0685973 18 14
-11.984109 18.017067 -0.37770498 34 7
-12.206643 18.365524 5.9088392 22 15
-2.7587011 4.1742711 -1.3406827 6 0
-11.924299 18.056705 0.37770498 24 8
-3.3141901 5.0205102 -1.3888478 8 1
-11.963014 18.135971 1.1386211 17 9
-3.9663241 6.0175295 -1.4009198 15 2
-12.00001 18.212795 1.9081877 14 10
-5.309617 8.0647001 -1.5293034 3 3
-12.04158 18.303686 2.6901441 19 11
-7.4442315 11.319834 -1.6635166 21 4
-12.094607 18.40527 3.4881761 19 12
-7.8977251 12.023131 -1.2585289 5 5
-12.123915 18.470953 4.2947292 23 13
-9.2274437 14.068828 -0.88175631 16 6
-12.178543 18.575373 5.1279845 20 14
-11.864618 18.110323 -0.37791443 18 7
-12.227329 18.678188 5.9818263 24 15
-2.7189534 4.177238 -1.3355063 6 0
-11.931986 18.338591 0.38189358 16 8
-3.262064 5.0173845 -1.3816494 8 1
-11.969893 18.417938 1.1511818 19 9
-3.9124413 6.0246301 -1.3963403 23 2
-12.012474 18.511728 1.930674 14 10
-5.2459989 8.0873957 -1.5268005 3 3
-12.052755 18.595116 2.720855 21 11
-7.4502735 11.503156 -1.682772 11 4
-12.095726 18.682837 3.5250945 16 12
-7.8092661 12.071283 -1.2578317 9 5
-12.142824 18.784315 4.347774 25 13
-9.141222 14.146408 -0.88269836 12 6
-12.193396 18.884224 5.189621 16 14
-11.869077 18.39603 -0.38213789 15 7
-12.253826 18.999638 6.057919 30 15
-2.6821141 4.1826386 -1.3313652 6 0
-11.946075 18.643694 0.38650101 22 8
-3.2246833 5.0345497 -1.3802997 8 1
-11.989598 18.733202 1.1656265 18 9
-3.8713436 6.0534511 -1.3967218 13 2
-12.023554 18.807938 1.9529859 14 10
-5.1745234 8.1005173 -1.5224204 3 3
-12.06683 18.904701 2.7537599 15 11
-7.4209185 11.63058 -1.693984 12 4
-12.114736 19.00168 3.5692093 15 12
-8.4441853 13.254712 -1.374969 31 5
-12.154941 19.086779 4.3985295 21 13
-11.856882 18.633093 -1.1574621 12 6
-12.217059 19.213915 5.2566566 16 14
-11.886249 18.700851 -0.38678023 16 7
-12.255527 19.296719 6.1252117 21 15
-2.6445975 4.1881943 -1.3272241 4 0
-11.954345 18.946493 0.3910386 20 8
-3.1749024 5.0338635 -1.374001 8 1
-12.003345 19.046247 1.1798619 20 9
-3.8153906 6.058732 -1.3917608 19 2
-12.034184 19.117361 1.9763435 14 10
-5.1136384 8.1297569 -1.5211689 3 3
-12.088781 19.233862 2.7893457 18 11
-7.3659425 11.724128 -1.7000775 6 4
-12.138277 19.335073 3.6158266 18 12
-7.9342961 12.64835 -1.3062903 9 5
-12.168453 19.405697 4.4523373 21 13
-11.87073 18.945593 -1.1716975 6 6
-12.240842 19.551451 5.3254914 15 14
-11.90286 19.018995 -0.39163199 15 7
-12.276205 19.630777 6.2038927 18 15
-2.6336555 4.2360845 -1.3365415 7 0
-11.962138 19.255398 0.39568096 18 8
-3.1314602 5.0426607 -1.3704019 8 1
-12.012259 19.358683 1.1939926 18 9
-3.7657552 6.0735426 -1.3890896 12 2
-12.05053 19.443075 2.0012703 14 10
-5.0442762 8.1451054 -1.5174146 3 3
-12.094184 19.543985 2.8220069 15 11
-7.2578053 11.73306 -1.693984 4 4
-12.158786 19.671391 3.6627572 15 12
-7.8897715 12.774629 -1.3136113 55 5
-12.184286 19.735744 4.5084352 18 13
-11.646948 18.880117 -1.162591 4 6
-12.249253 19.871996 5.3893776 16 14
-11.917704 19.341677 -0.39655361 15 7
-12.295846 19.970985 6.2841268 18 15
-2.6080525 4.2609582 -1.3386122 7 0
-11.984963 19.596037 0.40095159 18 8
-3.0900805 5.0544238 -1.3677025 8 1
-12.027781 19.689219 1.2091701 20 9
-3.7140594 6.0846014 -1.385655 11 2
-12.077417 19.793758 2.0286369 15 10
-4.9811239 8.170001 -1.5155373 3 3
-12.110297 19.878845 2.8580801 16 11
-7.1468129 11.735967 -1.6871593 6 4
-12.163888 19.990362 3.7062459 13 12
-7.8749218 12.951972 -1.3261617 16 5
-12.210373 20.090435 4.5698757 17 13
-9.2226667 15.186529 -0.93116146 8 6
-12.264897 20.211926 5.4582124 15 14
-11.927574 19.663771 -0.40144026 16 7
-12.322344 20.330587 6.3700547 19 15
-2.5692687 4.2641702 -1.3339534 7 0
-11.995357 19.924213 0.40594298 16 8
-3.0476849 5.0641851 -1.3645531 7 1
-12.041342 20.024311 1.2245568 18 9
-3.6644089 6.0986037 -1.3829837 8 2
-12.085643 20.12183 2.0535636 14 10
-4.9310765 8.2164354 -1.5177274 4 3
-12.129473 20.226778 2.8958595 15 11
-7.0555143 11.770254 -1.6849656 6 4
-12.1773 20.330685 3.753489 15 12
-7.9828105 13.338293 -1.3599782 26 5
-12.230076 20.443071 4.6305532 16 13
-11.102447 18.572882 -1.1340156 4 6
-12.277386 20.554703 5.5274973 15 14
-11.939683 19.997229 -0.40653634 16 7
-12.335504 20.676588 6.4513235 17 15
-2.5167718 4.2437859 -1.3220477 4 0
-12.008883 20.26552 0.41117871 18 8
-3.0082831 5.0786319 -1.3627534 30 1
-12.053845 20.365702 1.2402576 18 9
-3.6217465 6.1240358 -1.3829837 8 2
-12.094931 20.459549 2.0793617 15 10
-4.8695798 8.2438545 -1.5164758 2 3
-12.150416 20.586201 2.9351015 15 11
-6.9630899 11.802124 -1.6825283 3 4
-12.193581 20.684067 3.8029222 16 12
-7.8854451 13.386835 -1.3592809 21 5
-12.243461 20.793554 4.6904669 19 13
-7.4702964 12.697248 -0.7720601 7 6
-12.299514 20.922142 5.6030807 15 14
-11.946678 20.330091 -0.41159755 14 7
-12.348337 21.030413 6.5346637 14 15
-2.4831879 4.2545786 -1.3199772 6 0
-15.506826 26.589989 0.5372898 17 8
-2.9639218 5.0843582 -1.3587044 11 1
-15.570531 26.731377 1.6212634 18 9
-3.5729787 6.1389904 -1.380694 6 2
-12.113109 20.820753 2.1074257 3 10
-4.8029742 8.2622795 -1.5136601 2 3
-12.159946 20.934872 2.9726374 15 11
-6.8805251 11.850448 -1.6825283 3 4
-12.214423 21.054033 3.8551714 16 12
-7.8011446 13.45226 -1.3605011 23 5
-12.254499 21.148615 4.7511444 16 13
-10.252607 17.708027 -1.0723639 4 6
-12.323735 21.293793 5.6800141 15 14
-15.440305 26.700308 -0.53837186 19 7
-12.370356 21.408831 6.6252503 17 15
-2.4534249 4.271811 -1.3199772 6 0
-15.520616 27.034834 0.54413116 18 8
-2.9225359 5.0947843 -1.356005 12 1
-15.477631 26.99268 1.6306839 24 9
-3.5408692 6.1802039 -1.3845102 6 2
-12.054565 21.056974 2.1227653 11 10
-4.7623205 8.3222132 -1.5186659 1 3
-12.178761 21.299776 3.0126104 16 11
-6.7927022 11.889576 -1.6813096 2 4
-12.235406 21.424868 3.9077334 14 12
-7.8363953 13.733088 -1.3833359 26 5
-12.271867 21.52359 4.8160195 16 13
-9.8865747 17.347067 -1.0464052 16 6
-12.339677 21.66888 5.7569475 13 14
-15.32175 26.927382 -0.54078031 90 7
-12.396273 21.794794 6.7184253 19 15
-2.426192 4.2917757 -1.3210124 6 0
-15.549831 27.52906 0.55188 18 8
-2.8695846 5.0823174 -1.3474568 12 1
-15.593036 27.639332 1.6631322 3 9
-3.4841399 6.180829 -1.3791674 6 2
-12.08603 21.449245 2.1539669 12 10
-4.6876297 8.3259964 -1.5133473 3 3
-12.197167 21.681862 3.0545335 15 11
-6.6950746 11.906122 -1.6771661 2 4
-12.255835 21.812864 3.9627984 14 12
-7.7832451 13.863905 -1.3910056 23 5
-12.301859 21.921648 4.8862371 16 13
-8.4377356 15.048167 -0.90415609 14 6
-12.355739 22.053719 5.8361301 15 14
-12.423052 22.201118 6.8167763 15 15
-2.3886592 4.2951021 -1.3168714 6 0
-2.8321409 5.0988193 -1.3465569 38 1
-26.084211 46.999115 2.8170354 10 9
-3.4294794 6.1843996 -1.3745881 6 2
-12.135939 21.893814 2.1900494 6 10
-4.6226892 8.3464222 -1.5111572 2 3
-12.206982 22.058279 3.0954816 12 11
-6.6021819 11.935202 -1.6747286 3 4
-12.267611 22.195261 4.0166116 14 12
-7.6824141 13.910927 -1.3903084 19 5
-12.332584 22.340435 4.9602709 18 13
-8.3729877 15.180159 -0.90855229 2 6
-12.380187 22.463715 5.9216118 14 14
-8.4987488 15.427256 -0.30744159 7 7
-12.440095 22.600403 6.9125395 15 15
-2.3558364 4.3065882 -1.3153185 6 0
-12.513062 22.893513 0.45540312 24 8
-2.7927403 5.1116252 -1.3447573 50 1
-12.506895 22.910725 1.3679574 33 9
-3.3786998 6.1944027 -1.3715351 6 2
-12.183081 22.345356 2.2266548 8 10
-4.5482426 8.3490009 -1.5058383 2 3
-12.233014 22.47423 3.1417918 13 11
-6.5186977 11.981003 -1.6747286 3 4
-12.290677 22.608374 4.0757442 15 12
-7.7163467 14.205829 -1.4143634 32 5
-12.343067 22.733099 5.0281987 18 13
-7.6325088 14.06904 -0.83884072 4 6
-12.399505 22.875113 6.007093 14 14
-8.3956032 15.495005 -0.30761611 12 7
-12.45768 23.011185 7.0114083 15 15
-2.3229654 4.3178267 -1.3137655 6 0
-12.312228 22.904566 0.45390218 27 8
-2.7440708 5.1069665 -1.3384588 43 1
-12.313589 22.935886 1.3642938 38 9
-3.3363035 6.2195683 -1.3719168 7 2
-12.197208 22.747679 2.2582054 12 10
-4.4833188 8.3683596 -1.5036483 4 3
-12.25193 22.888113 3.1876149 13 11
-6.4274035 12.012218 -1.6727787 2 4
-12.313221 23.031586 4.1364408 15 12
-7.6751862 14.368312 -1.4251707 26 5
-12.359755 23.147766 5.1007061 18 13
-8.2993593 15.556386 -0.92404372 2 6
-12.427424 23.313654 6.0993233 13 14
-10.636194 19.961725 -0.39480835 36 7
-12.483742 23.448874 7.1180415 15 15
-2.29638 4.3407688 -1.3158361 7 0
-10.83814 20.504276 0.40482602 22 8
-12.168085 23.049551 1.3659686 19 9
-3.271735 6.2027688 -1.3631396 21 2
-12.2193 23.175949 2.292196 14 10
