# .PCD v0.7 - Point Cloud Data file format
VERSION 0.7
FIELDS x y z intensity ring
SIZE 4 4 4 4 2
TYPE F F F F U
COUNT 1 1 1 1 1
WIDTH 1296
HEIGHT 1
VIEWPOINT 0 0 0 1 0 0 0
POINTS 1296
DATA ascii
2.2028668 -1.4497663 -0.41768005 92 3
12.514899 -8.2426567 1.8399835 33 11
2.1944518 -1.4464248 -0.32271007 102 4
2.1801395 -1.4386294 -0.22852236 81 5
47.024723 -31.054216 10.953963 8 13
7.9872823 -5.276649 -0.50169253 11 6
47.262402 -31.246721 13.080454 19 14
9.1357174 -6.0445061 -0.19120856 11 7
51.614635 -34.162983 16.585125 15 15
3.1616166 -2.1045523 -1.0176765 9 0
9.8872242 -6.586482 0.20736951 27 8
3.6259866 -2.4164042 -1.0059811 23 1
10.20738 -6.8074765 0.64299959 35 9
2.2028594 -1.4702358 -0.51480269 12 2
10.24853 -6.8426752 1.0781165 24 10
12.491703 -8.3529968 1.845102 33 11
2.201055 -1.4723655 -0.32514745 43 4
12.99089 -8.6966429 2.4760451 11 12
7.591013 -5.085578 -0.79939252 13 5
51.770077 -34.696316 12.114082 10 13
7.9120998 -5.3066936 -0.4992851 6 6
47.382896 -31.803986 13.174933 19 14
9.1275644 -6.1288457 -0.19190666 23 7
46.795399 -31.445202 15.10675 11 15
3.1596522 -2.1352265 -1.0218177 9 0
10.041432 -6.7908955 0.21159297 28 8
3.5993445 -2.4351072 -1.0032817 20 1
10.071953 -6.8192244 0.63745201 32 9
2.1957922 -1.487781 -0.51556593 13 2
10.126294 -6.8637528 1.0702726 28 10
2.1824102 -1.4803818 -0.41768005 13 3
14.497601 -9.841466 2.1514816 16 11
2.1923647 -1.488811 -0.32539117 14 4
14.542416 -9.8830156 2.7848465 18 12
7.5174313 -5.1126781 -0.79538327 26 5
51.494129 -35.034801 12.106449 10 13
7.6602407 -5.2156725 -0.48567775 1 6
47.182255 -32.149364 13.181232 19 14
8.9903727 -6.1282187 -0.1899171 17 7
46.381626 -31.639399 15.044117 34 15
3.1510406 -2.1616042 -1.0238881 9 0
9.6310883 -6.6118407 0.20391393 15 8
3.5726185 -2.453557 -1.0005823 16 1
9.862793 -6.7785101 0.62719417 10 9
2.1950576 -1.5097499 -0.51785564 13 2
9.9927778 -6.8755517 1.0612082 25 10
2.1622601 -1.4888601 -0.41580287 71 3
12.435974 -8.569397 1.854364 43 11
2.183552 -1.5052067 -0.32563493 21 4
14.401523 -9.9349442 2.7710805 26 12
7.447124 -5.141264 -0.79172277 17 5
53.496979 -36.946453 12.637662 11 13
8.3531456 -5.7732134 -0.53215206 1 6
46.797989 -32.368225 13.136692 29 14
8.9325705 -6.180593 -0.18960294 12 7
47.228512 -32.702576 15.392488 24 15
3.1390443 -2.1857574 -1.0249234 9 0
9.5174274 -6.6320424 0.20248282 22 8
3.5649941 -2.4851246 -1.0032817 17 1
9.6547003 -6.7352123 0.61693627 19 9
2.1796348 -1.5216657 -0.51671082 30 2
9.7256508 -6.7922812 1.0378506 9 10
2.1647661 -1.512972 -0.41830578 86 3
12.344939 -8.6343889 1.849733 13 11
2.1567256 -1.5090339 -0.32319754 63 4
14.352849 -10.049973 2.7751479 27 12
7.3637304 -5.1599717 -0.7866677 22 5
60.426998 -42.358608 14.344257 15 13
8.3911209 -5.8864455 -0.53717631 1 6
8.9448442 -6.281878 -0.1907897 26 7
47.258266 -33.213665 15.47738 12 15
3.1268635 -2.2098484 -1.0259588 9 0
9.480691 -6.7052536 0.20269224 13 8
3.5523303 -2.5133288 -1.0046314 18 1
9.5161638 -6.7378192 0.61107469 19 9
2.1593471 -1.5300349 -0.51442105 67 2
9.533329 -6.7574697 1.0223368 9 10
2.1605959 -1.5326195 -0.4195573 90 3
11.538136 -8.1906366 1.7373695 9 11
6.003036 -4.2629828 -0.90402687 15 4
12.068335 -8.5765171 2.3449528 6 12
7.2609587 -5.1639099 -0.77952093 24 5
51.033871 -36.308117 12.174378 21 13
8.2684708 -5.8869629 -0.53194273 1 6
47.28899 -33.693565 13.405283 10 14
8.8274946 -6.2919421 -0.189219 17 7
60.057053 -42.83828 19.766529 25 15
3.0972314 -2.2214906 -1.0213 10 0
9.321557 -6.6908188 0.20028383 18 8
3.545778 -2.5460236 -1.0077807 20 1
9.345624 -6.7155128 0.60311961 40 9
4.1410213 -2.977818 -0.99144357 12 2
9.3710861 -6.7412515 1.0099607 9 10
2.1498435 -1.547666 -0.4195573 95 3
11.814076 -8.5111809 1.7878234 8 11
5.9956751 -4.3210363 -0.90743923 21 4
11.993745 -8.6501617 2.3421371 32 12
7.1843429 -5.1853242 -0.77516311 21 5
50.304821 -36.321033 12.060656 10 13
7.4096336 -5.3538322 -0.47908339 7 6
47.122101 -34.073124 13.425079 20 14
8.7525682 -6.3311486 -0.18855581 18 7
47.83839 -34.629219 15.824197 13 15
3.0863328 -2.2464697 -1.0228529 9 0
9.1857195 -6.6909771 0.19836405 13 8
3.5168927 -2.5626822 -1.0046314 22 1
9.2323503 -6.7323451 0.59882808 16 9
4.120131 -3.006655 -0.99144357 15 2
9.2755194 -6.7712674 1.0047314 3 10
2.1326063 -1.5579755 -0.41830578 92 3
11.281631 -8.247838 1.7159206 2 11
5.9797831 -4.3733354 -0.90963286 20 4
11.93147 -8.7325153 2.3418241 25 12
7.1070838 -5.2035036 -0.77063102 22 5
47.403725 -34.732414 11.422972 17 13
7.3672452 -5.4018879 -0.47876939 5 6
46.887508 -34.391926 13.424628 30 14
9.0708609 -6.6583357 -0.19640939 17 7
46.46825 -34.134323 15.449427 12 15
3.0752363 -2.271405 -1.0244058 10 0
9.0418568 -6.6808581 0.19623485 27 8
3.503617 -2.5906479 -1.0059811 22 1
9.0963917 -6.7285185 0.59296644 82 9
4.0995708 -3.0346296 -0.99144357 15 2
9.1479721 -6.7765589 0.99601579 3 10
14.112856 -10.465852 2.1573315 30 11
5.9522948 -4.4173408 -0.91012037 18 4
11.890786 -8.8276567 2.3455787 18 12
7.0641866 -5.2482414 -0.76993382 21 5
47.344433 -35.199558 11.467621 18 13
7.2934456 -5.4244947 -0.4763619 15 6
48.939579 -36.425316 14.084636 22 14
8.7691641 -6.5315733 -0.19085953 36 7
47.551579 -35.430943 15.88942 13 15
3.0597041 -2.2922847 -1.0244058 10 0
8.9613962 -6.7186289 0.19550186 10 8
3.4859021 -2.6144364 -1.0059811 22 1
8.9629364 -6.7271171 0.58731413 21 9
4.086134 -3.0690715 -0.9933517 13 2
9.3453436 -7.0217838 1.0226854 27 10
4.8675952 -3.6600106 -0.96457505 12 3
11.672837 -8.7833433 1.7936732 13 11
5.9220891 -4.4577541 -0.91012037 18 4
11.738934 -8.8427086 2.3277452 9 12
6.9812365 -5.2626495 -0.76487875 18 5
47.773067 -36.025742 11.630572 18 13
7.9329505 -5.9865947 -0.5208475 2 6
51.585915 -38.957535 14.924152 12 14
8.6415329 -6.5284305 -0.18904448 28 7
16.171434 -12.225924 5.4320941 3 15
3.0451648 -2.3147583 -1.0249234 9 0
8.8967676 -6.7677088 0.19511791 22 8
3.4768698 -2.6457891 -1.0086806 21 1
8.8426609 -6.7338643 0.58249921 22 9
4.0552392 -3.0903831 -0.99106199 15 2
9.2707434 -7.0675292 1.0198965 14 10
4.848207 -3.6986957 -0.96582651 12 3
11.185221 -8.539381 1.7278637 26 11
5.9097552 -4.5134482 -0.91304523 19 4
11.600009 -8.8656683 2.3124144 24 12
6.8287983 -5.2228994 -0.75215399 19 5
47.445557 -36.301113 11.612254 28 13
7.8655906 -6.0224037 -0.51917273 4 6
50.588757 -38.762032 14.713599 23 14
8.5322628 -6.5399399 -0.18764828 36 7
51.163342 -39.244823 17.277725 17 15
3.0319901 -2.3383205 -1.0259588 9 0
8.8176413 -6.8052197 0.1944198 31 8
3.4629414 -2.6735702 -1.0100303 20 1
8.7337971 -6.7478108 0.57841706 19 9
4.0335655 -3.1186185 -0.99106199 15 2
9.1266174 -7.0589399 1.0094378 28 10
4.8316402 -3.7397065 -0.9677037 12 3
11.05471 -8.5625572 1.7168955 19 11
5.8937936 -4.5667543 -0.91548258 19 4
10.94775 -8.4888868 2.1941502 19 12
7.063869 -5.4792981 -0.78213561 5 5
49.627365 -38.522682 12.211776 10 13
7.7476444 -6.0183573 -0.51414847 6 6
46.38604 -36.045578 13.5623 21 14
8.5053406 -6.6140771 -0.18806714 41 7
50.202049 -39.067158 17.044788 33 15
3.0125487 -2.3570499 -1.0249234 9 0
8.6530132 -6.7726436 0.19180195 38 8
3.4441924 -2.6976807 -1.0100303 19 1
8.6184893 -6.752902 0.57381147 31 9
4.0276942 -3.1581156 -0.99487817 13 2
8.9971743 -7.0597577 1.0005479 23 10
4.8029652 -3.7700682 -0.96707797 13 3
10.971194 -8.6179857 1.7129956 37 11
5.8742533 -4.6176028 -0.91743249 18 4
10.89282 -8.565649 2.1947758 24 12
6.7717953 -5.3288779 -0.75389719 11 5
49.616352 -39.072266 12.275888 21 13
7.6390376 -6.0178089 -0.50964761 4 6
51.289108 -40.433071 15.078018 12 14
8.5013475 -6.7067356 -0.18900958 34 7
50.047188 -39.496529 17.083094 17 15
3.0100551 -2.3883076 -1.0295821 13 0
8.6446724 -6.8639741 0.19267458 35 8
3.4211721 -2.7174258 -1.0086806 22 1
8.5758257 -6.8166327 0.57412547 22 9
4.0163035 -3.1947124 -0.99754947 15 2
8.9520292 -7.1233168 1.0008965 26 10
4.7827091 -3.8084292 -0.96832943 13 3
10.406211 -8.2923107 1.6337806 17 11
5.8504477 -4.6636672 -0.91865122 17 4
10.760178 -8.5835886 2.1800709 30 12
7.0577302 -5.6320949 -0.78997964 51 5
10.905986 -8.7092514 2.7129223 21 13
7.6140018 -6.0847068 -0.51079899 2 6
49.501225 -39.572922 14.631266 23 14
8.4914131 -6.7931776 -0.18981238 41 7
50.557453 -40.475193 17.3533 17 15
2.9948137 -2.4104745 -1.0300999 23 0
8.5884056 -6.9151325 0.19246514 23 8
3.4006002 -2.740021 -1.0082307 18 1
8.5665483 -6.9049306 0.57663763 32 9
3.9883525 -3.2170458 -0.996023 15 2
8.8834772 -7.1706228 0.99880481 21 10
4.7566757 -3.8408957 -0.96832943 13 3
10.562599 -8.5351248 1.6674166 26 11
5.8192906 -4.7056456 -0.91889495 18 4
10.497241 -8.4913998 2.1384594 27 12
7.0012045 -5.6674399 -0.78806221 10 5
10.875429 -8.8098917 2.7205548 45 13
7.5367184 -6.1074719 -0.50839156 4 6
49.718704 -40.31892 14.778385 11 14
7.5742493 -6.1466494 -0.17026567 14 7
49.530861 -40.209595 17.094481 17 15
2.977488 -2.431843 -1.0300999 16 0
8.6613503 -7.0791411 0.19525753 27 8
3.3929753 -2.7741528 -1.0118299 19 1
8.5636225 -7.0067482 0.57988244 14 9
3.9616253 -3.2437074 -0.99525976 15 2
8.7517881 -7.1683588 0.98974061 20 10
4.7467256 -3.890687 -0.97208387 12 3
10.489006 -8.6035099 1.6657103 19 11
5.7992802 -4.7584991 -0.92108858 17 4
10.344641 -8.4941597 2.1200001 32 12
6.8347831 -5.6161523 -0.77394295 10 5
10.199388 -8.3838358 2.5663812 8 13
7.5750399 -6.2310691 -0.51404381 23 6
49.187099 -40.489079 14.7082 23 14
8.2509699 -6.7943211 -0.18656623 14 7
2.9544873 -2.4476407 -1.0280293 23 0
8.6609802 -7.1802764 0.19637449 26 8
3.3795257 -2.8027482 -1.0136294 15 1
8.5728998 -7.114831 0.58385998 14 9
3.9449251 -3.2763031 -0.9967863 15 2
8.7291155 -7.2522001 0.9928782 23 10
4.7164106 -3.9212048 -0.9714582 12 3
10.465312 -8.7069979 1.67156 9 11
5.7750731 -4.8064885 -0.92255098 17 4
10.101426 -8.4132042 2.0821428 33 12
6.8061223 -5.6726594 -0.77516311 28 5
10.170767 -8.4799795 2.5740135 38 13
7.2537775 -6.0522041 -0.49509817 1 6
52.017658 -43.431847 15.644897 12 14
8.3491392 -6.9735384 -0.18988217 18 7
2.9432437 -2.4731784 -1.0300999 18 0
8.6534967 -7.2766013 0.19735181 40 8
3.3628595 -2.8287823 -1.0145292 16 1
8.5719156 -7.2156663 0.58720946 14 9
3.9309652 -3.3113527 -0.99907589 15 2
8.7285519 -7.3553314 0.99863046 25 10
4.688921 -3.954036 -0.9714582 12 3
10.191876 -8.6006136 1.6374366 37 11
5.7626133 -4.8646159 -0.92596334 15 4
10.074134 -8.5102892 2.0887132 32 12
6.8540936 -5.7921581 -0.78509891 26 5
9.9973879 -8.4544306 2.5450106 45 13
7.4141216 -6.2742958 -0.50901955 11 6
64.622025 -54.706585 19.547346 21 14
8.2468491 -6.9864163 -0.18866052 10 7
2.9244359 -2.4924126 -1.0295821 13 0
8.6448517 -7.3703651 0.19829424 33 8
3.3341339 -2.8446012 -1.0118299 19 1
8.574254 -7.3179297 0.59076834 8 9
3.9143062 -3.3431332 -1.0006025 15 2
8.7330284 -7.463985 1.00508 22 10
4.6679039 -3.9909949 -0.97270966 13 3
10.130082 -8.6672068 1.6369492 31 11
5.7390671 -4.913765 -0.92766953 18 4
10.151 -8.694314 2.1168714 36 12
6.8573604 -5.8774681 -0.79015392 11 5
9.8993769 -8.4907875 2.5350883 33 13
7.7335138 -6.6354499 -0.53403616 1 6
51.168461 -43.934181 15.570212 12 14
8.1402378 -6.994297 -0.18733412 30 7
51.244263 -44.045906 18.105946 20 15
2.9220204 -2.5248911 -1.0347586 19 0
8.6204147 -7.4540796 0.19892253 33 8
3.3205893 -2.8723297 -1.0136294 15 1
8.5682602 -7.4168253 0.59390849 11 9
3.8849359 -3.3652368 -0.99907589 16 2
8.7317104 -7.5663123 1.0108323 18 10
4.6429124 -4.0260739 -0.97333533 12 3
10.288225 -8.9276667 1.6725351 13 11
5.7054873 -4.9527154 -0.92766953 17 4
10.061721 -8.7403564 2.1109269 11 12
6.819169 -5.9278131 -0.79050261 31 5
9.943574 -8.6468639 2.5614202 42 13
7.5257888 -6.5489893 -0.52283627 9 6
50.729694 -44.176437 15.53017 25 14
7.7652459 -6.764514 -0.17975979 24 7
51.072407 -44.521912 18.154604 20 15
2.8999634 -2.5414093 -1.0332056 16 0
8.6027451 -7.5444045 0.19972533 21 8
3.3092456 -2.9031522 -1.0163288 16 1
8.5597992 -7.5146747 0.59694397 9 9
3.8613477 -3.3922765 -0.99907589 16 2
8.7340488 -7.6757503 1.0172819 24 10
4.6235924 -4.066216 -0.97521257 12 3
10.905172 -9.5973024 1.7836798 30 11
5.6812015 -5.0016088 -0.92937571 15 4
6.8045206 -5.998991 -0.7936402 22 5
9.3779211 -8.2706585 2.4305251 39 13
7.2882075 -6.4322052 -0.50943822 27 6
50.167358 -44.306343 15.452337 12 14
7.6444001 -6.753686 -0.17804946 16 7
50.534557 -44.677757 18.073853 19 15
2.873487 -2.5538926 -1.0300999 22 0
8.6171055 -7.6640811 0.20129606 28 8
3.2947206 -2.9313657 -1.0181284 14 1
8.5712709 -7.6313586 0.6014449 14 9
3.8434343 -3.4243753 -1.0006025 16 2
8.6505022 -7.7100248 1.0137956 15 10
4.5980411 -4.1010256 -0.9758383 11 3
10.489872 -9.3625679 1.7264012 17 11
5.6565113 -5.0504031 -0.93108183 19 4
10.118419 -9.040556 2.149097 15 12
6.7966347 -6.0768924 -0.79764932 26 5
9.3038559 -8.3215294 2.4263272 18 13
7.5229092 -6.7333479 -0.52911657 16 6
9.317852 -8.3457651 2.8879216 29 14
7.5791926 -6.7908754 -0.17763059 27 7
2.8656323 -2.5829449 -1.0337234 19 0
8.6495142 -7.8017354 0.20332053 32 8
3.2683887 -2.9490736 -1.0163288 14 1
8.5919065 -7.757936 0.60667849 14 9
3.8281741 -3.4590209 -1.0028921 15 2
8.5432539 -7.7221317 1.0075203 12 10
4.5692987 -4.1330256 -0.9758383 11 3
10.346252 -9.3649693 1.7134831 15 11
5.6446595 -5.1110878 -0.9349817 20 4
10.257067 -9.2940178 2.1922729 36 12
6.8617907 -6.2218919 -0.81037408 22 5
9.2760725 -8.4139786 2.4343412 35 13
7.3322673 -6.6554933 -0.5189634 15 6
9.1252089 -8.2887564 2.8460808 32 14
7.5256791 -6.8382425 -0.17749096 16 7
2.8518078 -2.6067979 -1.0352762 22 0
8.5830326 -7.8511329 0.2030413 32 8
3.2462833 -2.970504 -1.0158789 16 1
8.5463734 -7.8258214 0.60730648 45 9
3.8097227 -3.4909675 -1.0044186 16 2
8.4480133 -7.7438903 1.0026397 13 10
4.5432444 -4.1674948 -0.97646403 12 3
10.2192 -9.3805904 1.7032461 40 11
5.6161504 -5.157083 -0.93620038 21 4
10.206478 -9.3787632 2.1954014 24 12
6.8431191 -6.2925701 -0.81333739 26 5
9.2012119 -8.463913 2.4301436 10 13
7.0960641 -6.5320249 -0.50546068 11 6
9.0685558 -8.3535795 2.8465307 34 14
7.7836308 -7.172473 -0.18475117 12 7
2.8448739 -2.6371503 -1.0394174 16 0
8.583724 -7.9625401 0.20436768 27 8
3.2254663 -2.9930947 -1.0158789 16 1
8.5251932 -7.9165535 0.60971397 9 9
3.7823822 -3.5148063 -1.0036553 17 2
8.4783831 -7.8813577 1.0127498 15 10
4.5285029 -4.2125649 -0.97959268 12 3
10.189788 -9.4855204 1.7093396 11 11
5.5858216 -5.2015767 -0.93717533 21 4
10.061269 -9.375721 2.1781938 12 12
6.8267083 -6.3660088 -0.81664932 29 5
8.9897251 -8.3859873 2.3896918 31 13
7.0867891 -6.6154776 -0.5080775 24 6
8.957325 -8.3674669 2.8298843 32 14
6.9137163 -6.4606934 -0.16516958 4 7
2.8207638 -2.651654 -1.0373468 21 0
8.5818167 -8.0729666 0.20565915 30 8
3.2101691 -3.0208814 -1.0176786 15 1
8.5235176 -8.0265408 0.61358684 9 9
3.7606101 -3.5438194 -1.0044186 15 2
8.4680967 -7.9827209 1.0181533 22 10
4.5018578 -4.2467885 -0.98021847 13 3
10.280661 -9.704957 1.7359071 37 11
5.5609183 -5.2513499 -0.93912524 20 4
6.8211846 -6.4504733 -0.8213557 26 5
8.7170296 -8.2461672 2.3324494 37 13
7.2014303 -6.8172007 -0.51969612 16 6
8.7006273 -8.2421694 2.7668979 31 14
7.4490395 -7.0589972 -0.17913151 10 7
2.7937934 -2.6632843 -1.034241 21 0
8.5831251 -8.1878939 0.20705535 31 8
3.1988695 -3.0526364 -1.0208279 14 1
8.5221624 -8.1382656 0.61756432 11 9
3.7499714 -3.5835507 -1.0082349 16 2
8.4568071 -8.0843239 1.0235571 30 10
4.4820914 -4.287672 -0.98240852 15 3
5.5470614 -5.3120112 -0.94302505 20 4
53.559052 -51.325409 11.749168 20 12
6.7515397 -6.474493 -0.8183924 27 5
8.6464977 -8.29459 2.3290148 43 13
7.0355158 -6.7538919 -0.51111299 35 6
8.6203899 -8.2811089 2.7596996 9 14
7.5855751 -7.2895694 -0.18363422 12 7
9.9742298 -9.591711 3.7078416 3 15
2.780688 -2.6880941 -1.0363115 16 0
8.580369 -8.3004494 0.20838173 35 8
3.188684 -3.0857356 -1.0244272 18 1
8.534009 -8.2642555 0.62258863 11 9
3.7333221 -3.6178403 -1.0105245 15 2
8.4688282 -8.2097321 1.0319239 41 10
4.4421248 -4.3092299 -0.98021847 11 3
9.9333544 -9.6429119 1.6998338 1 11
5.5198102 -5.3602881 -0.94473124 19 4
8.7548923 -8.5078163 1.9335302 9 12
6.7544565 -6.5661283 -0.82414466 19 5
8.5278683 -8.295886 2.3126051 46 13
6.877996 -6.69557 -0.50305325 16 6
8.5233364 -8.3001671 2.7466524 2 14
7.6476398 -7.4526024 -0.1863917 13 7
52.429916 -51.128494 19.622625 24 15
2.7659924 -2.7114987 -1.0378644 20 0
8.5722151 -8.4062643 0.2095685 38 8
3.1656728 -3.1065564 -1.0239772 19 1
8.5345697 -8.3781185 0.6267755 14 9
3.7142117 -3.6486716 -1.012051 16 2
8.4752455 -8.3315077 1.039768 21 10
4.4155068 -4.3421369 -0.98084426 12 3
13.641017 -13.423721 2.349885 0 11
5.4921556 -5.408442 -0.94643742 17 4
11.839158 -11.662775 2.6321666 21 12
6.7652073 -6.6690717 -0.83111715 23 5
8.4208269 -8.306963 2.2992485 36 13
6.9317751 -6.8404331 -0.51038033 15 6
8.2197542 -8.1171055 2.6670198 1 14
7.8073568 -7.7152433 -0.19159251 8 7
51.753704 -51.16095 19.499428 24 15
2.7515831 -2.7343483 -1.0394174 21 0
8.5757084 -8.5279474 0.21110432 38 8
3.1513617 -3.1349044 -1.0262268 17 1
8.5254135 -8.4868135 0.63043898 13 9
3.6914301 -3.6772835 -1.0128142 16 2
8.4733791 -8.4438515 1.0465661 22 10
4.3878827 -4.3756461 -0.98146993 12 3
13.676242 -13.647627 2.372309 20 11
5.4552135 -5.4457011 -0.94643742 20 4
8.6116018 -8.6025877 1.9278985 18 12
6.7184839 -6.7161388 -0.83111715 17 5
8.3363237 -8.3363237 2.2916162 39 13
7.0744414 -7.0793824 -0.52451098 27 6
8.1821651 -8.1935959 2.6733184 18 14
7.4551549 -7.4681778 -0.1841927 12 7
51.747276 -51.873871 19.632978 24 15
2.7378697 -2.758976 -1.0414879 16 0
8.5807362 -8.6529236 0.21270993 39 8
3.1376309 -3.165132 -1.0289261 16 1
8.5235853 -8.6043005 0.63473052 13 9
3.6670499 -3.7043598 -1.0131959 13 2
8.481493 -8.5707788 1.0549332 10 10
4.3655624 -4.4146004 -0.98334718 11 3
9.2663069 -9.3769398 1.6186688 23 11
5.4351988 -5.5020113 -0.949606 20 4
8.350111 -8.4586582 1.8825326 7 12
6.6952205 -6.7869916 -0.83408046 30 5
8.3178997 -8.4348574 2.3026831 34 13
6.9295182 -7.0318623 -0.51739335 20 6
8.1329679 -8.2588501 2.6760178 26 14
7.4870062 -7.6055455 -0.18628699 27 7
2.7131371 -2.7724998 -1.0394174 21 0
8.5718489 -8.7655172 0.21400142 31 8
3.1236317 -3.1953206 -1.0316256 16 1
8.5275106 -8.7293148 0.63954544 13 9
3.6452136 -3.7340848 -1.0143408 16 2
8.4729366 -8.6825409 1.0613827 11 10
4.3511863 -4.4619412 -0.98710161 12 3
9.2394104 -9.4812088 1.6254934 17 11
5.4243588 -5.5682607 -0.95448077 20 4
10.914387 -11.211759 2.478235 9 12
6.7018566 -6.8892636 -0.84087861 24 5
7.2184944 -7.4281268 -0.54282862 19 6
7.3654771 -7.5873222 -0.18457665 14 7
2.6963985 -2.7941537 -1.0404526 22 0
10.782767 -11.181492 0.27114061 6 8
3.1012478 -3.2170498 -1.0316256 14 1
9.2257013 -9.5768795 0.69690567 19 9
3.6245024 -3.7650998 -1.0158671 15 2
9.0199862 -9.3731537 1.1380796 10 10
4.3089762 -4.4808178 -0.98459864 12 3
8.7906151 -9.1475735 1.557734 51 11
5.3963556 -5.6174455 -0.95643073 20 4
10.790705 -11.240655 2.4679105 15 12
6.6660104 -6.948823 -0.8424474 24 5
8.1870899 -8.5374184 2.2992485 4 13
7.0821667 -7.3903761 -0.53644365 25 6
7.4713526 -7.8046765 -0.18859071 30 7
2.6821532 -2.8185074 -1.0425231 18 0
10.040237 -10.558038 0.25431648 41 8
3.0706573 -3.2301476 -1.0289261 17 1
9.1902552 -9.6743584 0.6993131 56 9
3.6062393 -3.7988546 -1.0181569 15 2
8.8830137 -9.3607435 1.1290154 25 10
4.2911816 -4.5251245 -0.98772728 12 3
8.6295929 -9.1064157 1.5404286 19 11
5.3679285 -5.6665115 -0.95838058 19 4
10.387403 -10.972857 2.3931346 8 12
6.5856905 -6.9593043 -0.83826387 29 5
6.9947329 -7.4018965 -0.53372216 30 6
11.512652 -12.187063 3.870508 22 14
7.5992532 -8.050045 -0.19323304 14 7
2.665055 -2.8399811 -1.0435584 21 0
9.3210173 -9.9362955 0.23780648 42 8
3.0560288 -3.2600365 -1.0316256 18 1
9.1037064 -9.7148304 0.69774306 30 9
3.5802979 -3.8233132 -1.0181569 15 2
8.6377497 -9.2305002 1.1060064 24 10
4.2602811 -4.5542288 -0.98772728 12 3
8.5280952 -9.1228914 1.5333602 55 11
5.328238 -5.7038484 -0.95838058 20 4
10.084626 -10.799312 2.34026 4 12
6.6823931 -7.1609755 -0.8569153 26 5
8.5598202 -9.1792831 2.4396839 31 13
7.0163674 -7.5267663 -0.53926975 13 6
11.400723 -12.238619 3.8615098 9 14
7.4979048 -8.0545998 -0.19208118 16 7
2.6456623 -2.8580556 -1.0435584 22 0
3.0350909 -3.2821932 -1.0320754 16 1
8.9787331 -9.7165394 0.69334686 24 9
3.5548506 -3.8496578 -1.0185385 15 2
8.6990509 -9.423769 1.122043 28 10
4.2337408 -4.5896678 -0.98897886 12 3
8.5301247 -9.2537241 1.5453033 21 11
5.2882881 -5.7409072 -0.95838058 18 4
10.300693 -11.186235 2.4084654 22 12
6.6646156 -7.2426391 -0.86109871 27 5
9.1333904 -9.9324865 2.6228604 50 13
6.897419 -7.5035152 -0.53414083 9 6
10.203673 -11.10808 3.4822423 6 14
7.3874006 -8.047822 -0.19068499 10 7
2.6225386 -2.8740604 -1.0425231 22 0
7.5709639 -8.2999859 0.19609523 3 8
3.0207157 -3.3139088 -1.0352248 18 1
8.7274055 -9.5812092 0.67921609 19 9
3.5397847 -3.8874459 -1.021973 16 2
8.7118464 -9.5741949 1.1325017 9 10
4.2061057 -4.6256919 -0.99023032 12 3
8.5387516 -9.3938417 1.558709 55 11
5.2707705 -5.8026657 -0.96252412 17 4
10.183208 -11.218704 2.3997049 12 12
6.4813452 -7.1429152 -0.84384185 27 5
9.0691013 -10.001826 2.624387 48 13
7.4014401 -8.1683788 -0.57768434 13 6
10.137652 -11.192042 3.4862914 1 14
7.2639394 -8.0250711 -0.18893975 15 7
2.6049943 -2.8951709 -1.0435584 22 0
7.4939966 -8.3346195 0.19564149 7 8
3.0040205 -3.3421631 -1.0374742 19 1
8.6322756 -9.6107006 0.67701799 53 9
3.5092533 -3.909754 -1.0212098 16 2
8.4438772 -9.4108543 1.1061807 21 10
4.1842594 -4.6667089 -0.99273324 11 3
8.4805851 -9.4650526 1.5604153 41 11
5.2410307 -5.8535442 -0.96471781 17 4
10.244287 -11.445545 2.4328692 23 12
6.3862333 -7.1401048 -0.83808959 13 5
8.8193674 -9.8673906 2.5724869 50 13
6.4406762 -7.2085662 -0.50661212 9 6
53.365105 -59.769539 18.498625 17 14
7.2036653 -8.0738611 -0.18886994 21 7
2.5919015 -2.9224098 -1.0466642 21 0
7.4409332 -8.3927183 0.1957811 13 8
2.9735663 -3.3562806 -1.0352248 19 1
8.4798737 -9.5780153 0.67042363 35 9
3.4896801 -3.9429786 -1.0234995 16 2
8.386878 -9.482975 1.1075752 49 10
4.158607 -4.7054124 -0.99461043 11 3
8.3038988 -9.3990622 1.5399412 33 11
5.2118626 -5.9033837 -0.96691149 16 4
10.219625 -11.583733 2.4466352 21 12
6.4192553 -7.2786546 -0.84907126 19 5
8.7502651 -9.9287205 2.5724869 41 13
6.5209312 -7.404356 -0.51707929 24 6
7.1391988 -8.1149464 -0.18866052 25 7
2.5783093 -2.9472542 -1.0492525 19 0
7.3795276 -8.4414501 0.19571128 8 8
2.9609108 -3.3881819 -1.038824 16 1
8.3763847 -9.5918865 0.6673882 42 9
3.4646497 -3.9702032 -1.0242627 16 2
8.3810749 -9.6074047 1.1154191 24 10
4.1342707 -4.7425442 -0.99648768 12 3
8.285018 -9.5106897 1.5487157 33 11
5.1741652 -5.9417167 -0.96739888 17 4
8.7167149 -10.016834 2.1031051 6 12
6.2126451 -7.1417947 -0.82815391 24 5
8.6670237 -9.9702702 2.5679076 50 13
6.2424765 -7.1862125 -0.49886638 12 6
10.870828 -12.518689 3.8277671 0 14
7.1021452 -8.1844978 -0.18914919 20 7
2.5601947 -2.9681077 -1.0502877 19 0
7.3545446 -8.5293465 0.19658391 10 8
2.9397287 -3.4117234 -1.0397238 16 1
8.1610031 -9.4746523 0.65535092 52 9
3.4324222 -3.9877424 -1.0227362 16 2
8.2917118 -9.6400042 1.112456 29 10
4.1173482 -4.7885489 -1.0002421 12 3
8.1502304 -9.4855585 1.5355538 41 11
5.1506634 -5.9987793 -0.97081131 15 4
6.2352738 -7.269681 -0.8379153 22 5
8.6074295 -10.04246 2.5709605 46 13
6.4143329 -7.4863734 -0.51666063 15 6
7.072135 -8.265789 -0.18988217 13 7
9.4739742 -11.07693 3.9055796 2 15
2.5311697 -2.9751658 -1.0466642 21 0
7.3142481 -8.6033344 0.19710748 7 8
2.9214859 -3.4375935 -1.0415233 15 1
8.2640247 -9.7308235 0.66906291 19 9
3.4121211 -4.0205889 -1.025026 16 2
8.1898127 -9.6536789 1.1075752 28 10
4.0812626 -4.8141632 -0.99961638 11 3
8.0350513 -9.4846697 1.5262917 33 11
5.1212578 -6.0473332 -0.97300488 14 4
6.1599259 -7.2841291 -0.83460337 26 5
8.4501514 -9.9958639 2.5442474 57 13
6.4263558 -7.6072574 -0.52189422 5 6
10.346777 -12.256767 3.7031441 33 14
7.1111426 -8.4268274 -0.19246514 9 7
9.426302 -11.178245 3.9180028 27 15
2.5140617 -2.9972045 -1.0482172 20 0
8.4062738 -10.028866 0.2284171 30 8
2.8999193 -3.4608929 -1.0424232 16 1
8.0035591 -9.5585794 0.6533621 30 9
3.3864889 -4.0473232 -1.0257893 16 2
8.4072752 -10.051423 1.1464466 12 10
4.0475545 -4.8425384 -0.99961638 12 3
7.9431901 -9.5100622 1.521417 34 11
5.1030884 -6.1118903 -0.97763592 16 4
6.1204066 -7.3407283 -0.83617222 27 5
8.4379816 -10.123987 2.5618017 36 13
6.6632414 -8.000309 -0.54565471 12 6
10.325781 -12.406591 3.7265389 18 14
7.1288772 -8.5685005 -0.19455943 9 7
9.3418579 -11.236351 3.9154146 6 15
2.4943075 -3.0161712 -1.0487348 18 0
8.3398762 -10.091933 0.22852181 48 8
2.8694816 -3.4735415 -1.0401736 17 1
7.9010301 -9.5710945 0.65043133 26 9
3.3731427 -4.0890403 -1.0303686 15 2
8.1860571 -9.9269505 1.1257036 43 10
4.0211864 -4.8798237 -1.0014936 11 3
7.7731309 -9.4396276 1.5014304 43 11
5.0703883 -6.1596284 -0.97958583 17 4
8.4103222 -10.224332 2.0968478 24 12
5.988039 -7.2847719 -0.82501626 27 5
10.10583 -12.298661 3.0941589 20 13
6.1572809 -7.4986649 -0.50849622 4 6
10.012704 -12.202685 3.644207 45 14
7.171607 -8.7432947 -0.19738671 15 7
9.223999 -11.253487 3.8988504 29 15
2.481735 -3.043992 -1.0523583 15 0
8.2818499 -10.165412 0.22887085 27 8
2.8525455 -3.5025561 -1.042873 18 1
8.03195 -9.8692265 0.66686481 37 9
3.3370819 -4.1033506 -1.0280789 17 2
8.1190691 -9.9869499 1.1260523 11 10
3.98453 -4.9047117 -1.0008678 11 3
7.8484197 -9.6678162 1.5289729 37 11
5.0522799 -6.2257042 -0.98446059 21 4
8.3934832 -10.350306 2.1106141 26 12
5.6535439 -6.9765644 -0.78562188 29 5
8.3489456 -10.30641 2.5782113 52 13
6.1600742 -7.6097727 -0.51310176 22 6
9.8132896 -12.131385 3.602366 34 14
7.1720047 -8.8693399 -0.19909707 9 7
9.2071333 -11.394238 3.9252498 15 15
2.4592135 -3.0597379 -1.0518407 16 0
8.3208742 -10.360184 0.23194249 38 8
2.8304641 -3.5254242 -1.0437729 17 1
7.9278588 -9.8814392 0.66393399 39 9
3.3194058 -4.1403332 -1.0315135 15 2
7.8410678 -9.7837515 1.0969422 16 10
3.9551313 -4.9385757 -1.0021193 11 3
7.7149963 -9.6402292 1.5160547 26 11
5.0086932 -6.2608237 -0.98446059 22 4
8.3728266 -10.473454 2.1237545 30 12
5.7949653 -7.2540321 -0.8122915 25 5
8.2755651 -10.36291 2.5778296 59 13
6.0906024 -7.632298 -0.51174104 23 6
9.6117201 -12.053331 3.5591755 33 14
7.1759734 -9.0020685 -0.20094702 12 7
2.4341934 -3.0722895 -1.0502877 15 0
8.2024164 -10.360012 0.23065101 46 8
2.8227146 -3.5664916 -1.0500715 20 1
7.9342566 -10.032104 0.67031902 61 9
3.2892029 -4.1618657 -1.0311319 15 2
7.8367991 -9.919548 1.1060064 23 10
3.920557 -4.9660678 -1.0021193 12 3
7.7409501 -9.8123007 1.5345789 31 11
4.9759264 -6.3096666 -0.98665434 21 4
8.2175856 -10.4277 2.1027923 36 12
5.6443353 -7.167521 -0.79817224 15 5
8.3135242 -10.560811 2.6125569 54 13
5.9655504 -7.5835848 -0.50567007 12 6
9.2768412 -11.801472 3.465596 38 14
7.1463127 -9.0944004 -0.20188944 3 7
9.0674295 -11.54751 3.9340496 0 15
2.4174421 -3.0952981 -1.0523583 20 0
2.7929525 -3.5799646 -1.0482719 19 1
6.1951928 -7.9466238 0.52806985 12 9
3.2697203 -4.1971169 -1.0341848 16 2
7.8506007 -10.080911 1.1178595 31 10
3.8785133 -4.983964 -1.0002421 11 3
6.1136789 -7.861855 1.2228371 55 11
4.9463754 -6.363059 -0.9895792 19 4
8.256073 -10.628336 2.1315763 9 12
5.6430278 -7.2697067 -0.80514479 22 5
8.3298616 -10.734923 2.6411784 36 13
5.9834452 -7.7165918 -0.51174104 35 6
9.2240658 -11.904458 3.4768434 36 14
2.4040236 -3.1228156 -1.0559818 22 0
2.7643278 -3.5947413 -1.0469222 20 1
6.1140079 -7.9564228 0.52587175 18 9
3.2451222 -4.2260709 -1.0357113 15 2
6.1107163 -7.960762 0.87800694 6 10
3.8484333 -5.0171885 -1.0014936 12 3
6.0284538 -7.8649569 1.2167436 44 11
4.9114919 -6.4100413 -0.99152911 18 4
5.6550941 -7.3912072 -0.81420892 23 5
8.1306734 -10.630633 2.60149 34 13
13.57271 -17.771645 5.1626267 51 14
2.380996 -3.1379831 -1.055464 19 0
2.7450502 -3.6217175 -1.0491717 20 1
7.6416268 -10.089394 0.663306 9 9
3.2096162 -4.2407951 -1.0338032 17 2
7.5756507 -10.013172 1.098511 12 10
3.8180783 -5.0502362 -1.002745 12 3
4.8749962 -6.4552617 -0.99323523 17 4
6.050705 -8.0179033 1.5909387 0 12
5.5685687 -7.3843746 -0.80915391 13 5
5.9592404 -7.9110513 -0.51906806 9 6
7.8103456 -10.379747 -0.22674167 54 7
2.3613448 -3.1576235 -1.0564994 19 0
8.1182327 -10.863719 0.23672445 34 8
2.7255301 -3.6485991 -1.0514213 19 1
7.5267987 -10.083276 0.65943313 53 9
3.1811056 -4.2646723 -1.0341848 16 2
7.9295516 -10.634434 1.1605659 32 10
3.7898102 -5.0862722 -1.0046222 11 3
4.8428483 -6.5066547 -0.99591631 19 4
7.8053355 -10.494578 2.0715053 20 12
5.4408178 -7.3207264 -0.79799795 26 5
5.7133813 -7.6958795 -0.50232059 8 6
9.5404959 -12.860352 3.6968455 8 14
7.5745044 -10.213968 -0.22195971 32 7
13.419305 -18.108696 6.0392838 6 15
2.3323662 -3.164701 -1.0533936 20 0
2.713856 -3.6863699 -1.0568202 19 1
7.5106635 -10.209583 0.66424799 16 9
3.1535807 -4.2899404 -1.034948 16 2
7.5990992 -10.341136 1.1227403 13 10
3.754209 -5.112606 -1.0046222 12 3
7.527667 -10.258931 1.5623652 41 11
4.8172655 -6.5675163 -1.00006 17 4
7.8147926 -10.661934 2.0937192 22 12
5.5131917 -7.5273051 -0.81630063 20 5
7.8645067 -10.74155 2.5877516 46 13
5.469646 -7.4760599 -0.48546836 2 6
8.0783968 -11.049864 3.1601124 21 14
7.5065536 -10.271443 -0.22206442 47 7
13.262934 -18.161375 6.0258255 49 15
2.3158925 -3.1887221 -1.0559818 21 0
7.5781593 -10.441935 0.22520585 22 8
2.6880546 -3.7052262 -1.0568202 19 1
7.2563314 -10.009508 0.64791918 60 9
3.1281619 -4.3182116 -1.0364745 16 2
7.4788084 -10.327772 1.1155934 32 10
3.725373 -5.148293 -1.0064995 12 3
7.455864 -10.311233 1.5623652 34 11
4.7526932 -6.5752468 -0.99616015 7 4
7.6892772 -10.645772 2.079953 36 12
5.4873257 -7.6027694 -0.82030988 18 5
7.7192545 -10.699075 2.5644729 39 13
5.5446353 -7.6906552 -0.49687761 4 6
7.9611902 -11.050653 3.1443658 35 14
6.9368377 -9.632329 -0.20719497 28 7
2.3003201 -3.2142382 -1.0590875 21 0
7.1002779 -9.9285421 0.21305898 12 8
2.6666548 -3.7302432 -1.0586197 20 1
7.230392 -10.12168 0.65189672 26 9
3.1082044 -4.3543262 -1.0399091 17 2
7.4424009 -10.43001 1.1209971 21 10
3.6939282 -5.1806087 -1.007751 11 3
7.4286203 -10.426085 1.5718709 39 11
4.683641 -6.5759277 -0.99128538 5 4
7.656004 -10.757132 2.0912163 38 12
5.2135639 -7.3307753 -0.78701639 22 5
7.6500616 -10.760705 2.5663812 46 13
5.6481194 -7.9506154 -0.51111299 11 6
8.1963148 -11.546133 3.2689886 12 14
7.0464816 -9.9300365 -0.21253541 11 7
8.0913515 -11.410926 3.7482176 26 15
2.2778246 -3.2302189 -1.0590875 23 0
6.6910005 -9.4956493 0.20276207 7 8
2.6427922 -3.751955 -1.0595194 21 1
7.0756345 -10.052683 0.6442557 27 9
3.076601 -4.3743134 -1.0395275 16 2
7.001565 -9.9585238 1.0650431 27 10
3.6644843 -5.2159686 -1.0096282 11 3
7.3123097 -10.415953 1.5626088 45 11
4.6079707 -6.5662184 -0.98494816 3 4
7.4616323 -10.640496 2.0583651 34 12
5.3726358 -7.667222 -0.81908965 22 5
7.6378284 -10.903896 2.5877516 41 13
5.6130915 -8.0193043 -0.51299709 15 6
7.7860184 -11.131987 3.1362674 27 14
6.9025068 -9.8724623 -0.21026659 14 7
7.9915767 -11.43863 3.7389002 22 15
2.2574224 -3.2492154 -1.0601228 23 0
6.7397251 -9.7080355 0.20628744 22 8
2.617646 -3.7719152 -1.0599694 21 1
6.957479 -10.032903 0.6398595 42 9
3.043751 -4.3924575 -1.0387642 16 2
6.9091811 -9.9744034 1.0615569 20 10
3.6392238 -5.2576666 -1.0127568 11 3
7.3568544 -10.63654 1.5879577 38 11
4.5450835 -6.5737343 -0.98129201 2 4
7.5196614 -10.884107 2.0952835 37 12
5.1867204 -7.5101628 -0.79852092 19 5
7.6886401 -11.141158 2.6312563 28 13
5.3131938 -7.7047896 -0.49049264 20 6
7.9865708 -11.585842 3.2487431 16 14
7.186204 -10.43257 -0.221122 50 7
7.9115257 -11.494143 3.7389002 27 15
2.2303193 -3.2585192 -1.0580523 23 0
6.6960731 -9.7866945 0.20698555 50 8
2.5978487 -3.7997499 -1.0626688 21 1
6.9836907 -10.21854 0.6486519 45 9
3.0248542 -4.429287 -1.0425804 16 2
6.8483629 -10.035562 1.0629514 21 10
3.6100314 -5.2921071 -1.0146341 11 3
7.2429152 -10.62568 1.5789393 32 11
4.4778466 -6.574132 -0.97666097 0 4
7.366468 -10.819107 2.0730698 15 12
5.1689062 -7.5972552 -0.8039245 20 5
7.5411358 -11.092278 2.6072142 61 13
5.2437868 -7.7159972 -0.48892254 11 6
7.7828746 -11.460756 3.198354 21 14
7.1423898 -10.525506 -0.22202952 39 7
7.8374434 -11.554123 3.7409706 22 15
2.2124088 -3.280031 -1.0601228 21 0
6.7114091 -9.9575682 0.2096034 31 8
2.5686576 -3.8124962 -1.0613191 20 1
7.0538387 -10.477457 0.66194522 21 9
2.9960504 -4.4535542 -1.0433437 16 2
6.7220802 -9.9959717 1.0538872 27 10
3.5685904 -5.3106222 -1.0133826 11 3
4.4318891 -6.6028109 -0.97641724 1 4
7.406292 -11.042528 2.105921 33 12
4.9937286 -7.4510994 -0.78475034 12 5
7.3845968 -11.022654 2.5789745 57 13
5.2542334 -7.84868 -0.49499351 15 6
7.7525167 -11.58932 3.2190495 16 14
7.0361218 -10.522347 -0.22094747 12 7
7.7619562 -11.616588 3.7435589 21 15
2.1926634 -3.3002236 -1.0616758 20 0
6.7014551 -10.094143 0.21148828 16 8
2.5333583 -3.8173459 -1.0577198 19 1
6.9694829 -10.509801 0.66089851 43 9
2.9735615 -4.4874539 -1.0463966 16 2
6.7181473 -10.14232 1.064346 23 10
3.5357897 -5.3419957 -1.0146341 11 3
6.6821051 -10.10322 1.4872936 46 11
4.3605051 -6.5955048 -0.97081131 0 4
7.4738369 -11.313173 2.1475327 28 12
5.0074468 -7.585546 -0.79520899 23 5
7.3031392 -11.067384 2.5774479 42 13
5.1696267 -7.8401499 -0.49216738 12 6
7.3572712 -11.166368 3.0872283 19 14
6.477427 -9.834734 -0.20555446 19 7
7.5256109 -11.434889 3.6679838 36 15
2.1738014 -3.3219168 -1.0637463 20 0
6.6330104 -10.144029 0.21155807 19 8
2.516243 -3.8496196 -1.061769 19 1
6.6698637 -10.212058 0.63923144 34 9
2.9378686 -4.5015278 -1.0448701 16 2
6.6809244 -10.240702 1.0697495 11 10
3.5135124 -5.3897166 -1.0190142 13 3
6.6590819 -10.22281 1.4980181 37 11
4.3013558 -6.605824 -0.96788639 0 4
7.3903651 -11.358451 2.146281 45 12
4.8481541 -7.4541049 -0.77795213 24 5
7.2823987 -11.205345 2.5976737 57 13
5.2235441 -8.0435534 -0.50263453 11 6
7.3872023 -11.379641 3.1322186 53 14
6.7035213 -10.33436 -0.21501365 11 7
7.3531322 -11.344491 3.6224315 49 15
2.1526506 -3.3402596 -1.0647817 20 0
6.3396363 -9.8409615 0.20433277 40 8
2.4871967 -3.8638151 -1.0608691 19 1
6.6347828 -10.310967 0.64258093 39 9
2.9060984 -4.5197692 -1.0444885 18 2
6.565114 -10.218367 1.0626028 32 10
3.4831495 -5.42348 -1.0208914 12 3
7.2905202 -11.360514 1.6574231 36 11
4.2444181 -6.6189814 -0.96544904 0 4
7.3459263 -11.460047 2.1559801 33 12
4.8217874 -7.5280356 -0.78213561 24 5
7.1987033 -11.247644 2.5957658 33 13
4.8005581 -7.5035386 -0.46683675 3 6
7.6130223 -11.90873 3.26314 22 14
6.624752 -10.370796 -0.21480422 40 7
7.3495598 -11.509883 3.6591837 28 15
2.1267583 -3.3499417 -1.0632287 22 0
6.4732356 -10.204123 0.21092978 20 8
2.4650135 -3.8872387 -1.0626688 19 1
6.5818782 -10.387403 0.64446503 14 9
2.8786747 -4.5465822 -1.046015 18 2
6.3867249 -10.091098 1.0448231 13 10
3.4536483 -5.4610209 -1.0233943 12 3
7.1304388 -11.283597 1.6388991 41 11
4.1780634 -6.6141524 -0.96057427 1 4
7.5177398 -11.910287 2.2307556 34 12
4.7257819 -7.4899106 -0.77481455 23 5
7.1387286 -11.322955 2.6018715 54 13
4.7427354 -7.5284214 -0.46631342 25 6
7.158988 -11.368279 3.1016252 19 14
6.4027777 -10.175313 -0.20984773 42 7
7.3420362 -11.677029 3.6959362 5 15
2.1063914 -3.369622 -1.0647817 24 0
6.3866744 -10.220816 0.21037132 38 8
2.4388478 -3.9060054 -1.0631187 19 1
6.2551084 -10.021937 0.61913443 37 9
2.8507776 -4.5710688 -1.0471598 20 2
6.2960992 -10.103312 1.0415112 22 10
3.408041 -5.4709892 -1.0208914 13 3
6.4282651 -10.32744 1.4936308 8 11
4.1233988 -6.6296744 -0.9586243 3 4
7.4031191 -11.9075 2.2207439 39 12
4.63658 -7.4634857 -0.76871365 24 5
7.4332943 -11.97467 2.7396357 37 13
4.7187605 -7.6046538 -0.46903491 20 6
7.0383735 -11.35173 3.0836289 37 14
6.3336911 -10.223165 -0.20991755 40 7
8.542964 -13.794513 4.3476424 19 15
2.0868664 -3.390826 -1.0668522 25 0
6.0986323 -9.9170637 0.20321584 12 8
2.4064167 -3.9146359 -1.0608691 20 1
6.1570983 -10.023894 0.6165176 42 9
2.8282645 -4.6080837 -1.050976 22 2
6.2254128 -10.14702 1.0415112 20 10
3.3770642 -5.508709 -1.0233943 12 3
6.3687167 -10.396873 1.4970431 2 11
4.0873809 -6.6752286 -0.96106172 0 4
7.3043208 -11.938266 2.2166767 27 12
4.5521355 -7.4429822 -0.76330996 27 5
7.2921834 -11.93246 2.7182651 36 13
4.7433305 -7.7677732 -0.47698995 7 6
6.9325542 -11.357346 3.0719316 40 14
6.2986112 -10.326884 -0.21113922 34 7
8.5063667 -13.957569 4.3797359 36 15
2.0681481 -3.4135737 -1.0694402 21 0
5.9677982 -9.8540068 0.20108663 25 8
2.3739846 -3.9230039 -1.0586197 19 1
5.8974848 -9.7494202 0.59715331 26 9
2.7937863 -4.6221871 -1.0498312 18 2
6.2007732 -10.266981 1.0493551 27 10
3.3476574 -5.5450964 -1.0258973 11 3
6.3347135 -10.501175 1.5058178 5 11
4.2866254 -7.1116314 -1.019559 18 4
7.1821117 -11.920028 2.2041619 15 12
4.4754004 -7.4336143 -0.75912648 28 5
7.0133815 -11.658393 2.6446128 54 13
4.627562 -7.6954708 -0.47060499 12 6
6.8460698 -11.393773 3.0687821 43 14
5.9855013 -9.9694271 -0.20297149 18 7
8.7600975 -14.596557 4.5614271 33 15
2.043875 -3.4259131 -1.0689226 20 0
5.9080758 -9.9108877 0.20140077 40 8
2.3492215 -3.9424202 -1.0595194 20 1
5.8537993 -9.8315411 0.5996654 29 9
2.7584383 -4.6365175 -1.0486863 21 2
6.1368551 -10.319224 1.050401 24 10
3.3129003 -5.5751252 -1.0271488 12 3
4.2482519 -7.1577153 -1.0219964 17 4
7.0412846 -11.873032 2.1863284 34 12
4.3617053 -7.357646 -0.74831921 20 5
7.1059585 -11.996396 2.7102511 42 13
4.4618239 -7.5385246 -0.45909104 3 6
6.870563 -11.61286 3.1151221 27 14
5.9185205 -10.011662 -0.2030064 38 7
8.6520863 -14.647378 4.5583215 42 15
2.0199084 -3.4400983 -1.0689226 20 0
5.8445263 -9.9577713 0.20154038 36 8
2.326571 -3.9671297 -1.061769 19 1
5.7726026 -9.8470354 0.59820002 22 9
2.7307839 -4.6619616 -1.0502127 20 2
6.016356 -10.279279 1.042034 21 10
3.2768698 -5.6009564 -1.0277746 12 3
6.4077244 -10.961114 1.5589528 18 11
4.2031837 -7.1957698 -1.0232152 19 4
7.1893945 -12.313037 2.2582881 6 12
4.2831259 -7.3414512 -0.74361277 23 5
7.2187948 -12.383236 2.7861929 20 13
4.4697356 -7.6705346 -0.4652667 10 6
6.8540392 -11.771689 3.1448157 25 14
5.7046843 -9.8055649 -0.198015 9 7
2.005147 -3.4688203 -1.0735815 16 0
5.7628651 -9.9775505 0.20112152 47 8
2.2956159 -3.976124 -1.0599694 20 1
5.6647935 -9.8196249 0.59411782 30 9
2.701112 -4.6860156 -1.0513576 23 2
5.8756261 -10.197423 1.0296578 8 10
3.231775 -5.6134248 -1.0258973 13 3
6.135056 -10.664884 1.5106926 16 11
4.1590548 -7.2328162 -1.0244337 21 4
7.0944004 -12.347513 2.2554724 19 12
4.256568 -7.414372 -0.74797058 24 5
6.8665924 -11.965522 2.6816299 33 13
4.4190578 -7.7067499 -0.46558073 1 6
5.5513487 -9.6932001 -0.1949783 13 7
1.9932976 -3.5045643 -1.0803107 19 0
5.5853724 -9.8280382 0.19731691 17 8
2.2639515 -3.985275 -1.0581697 21 1
5.5842719 -9.8380899 0.59286177 16 9
2.6751122 -4.716712 -1.054029 20 2
5.5743613 -9.8326178 0.98886907 27 10
3.1983488 -5.6461625 -1.0277746 13 3
6.836832 -12.07914 1.704221 37 11
4.1055264 -7.2564931 -1.0237026 18 4
8.2912283 -14.666637 2.6684594 11 12
4.22822 -7.4855409 -0.75215399 30 5
7.0425472 -12.473042 2.7842851 6 13
5.6252298 -9.9709644 -0.59997946 12 6
5.6141024 -9.9634256 -0.19962063 27 7
8.3545551 -14.839056 4.5629802 2 15
1.9772727 -3.5335677 -1.0849695 12 0
5.5078411 -9.8510818 0.19700275 27 8
2.239877 -4.0077882 -1.0599694 21 1
5.634253 -10.089578 0.60563177 40 9
2.6411617 -4.7335591 -1.0536473 18 2
5.8258424 -10.445511 1.0463918 10 10
3.1684697 -5.6856084 -1.0309032 13 3
6.7967606 -12.206355 1.715433 41 11
4.0480099 -7.2728367 -1.0219964 18 4
6.9385924 -12.476437 2.2611041 17 12
4.1762013 -7.5124073 -0.75197971 26 5
4.2887321 -7.7275324 -0.46317327 10 6
5.4135289 -9.7662659 -0.19490847 46 7
1.9506929 -3.5439003 -1.0839342 13 0
5.5052462 -10.00573 0.1993414 20 8
2.2118433 -4.0233274 -1.0599694 21 1
5.5712175 -10.138197 0.60625976 19 9
2.6041553 -4.7428222 -1.0517392 16 2
5.7882342 -10.550558 1.0528414 32 10
3.1372943 -5.7209001 -1.0334063 12 3
6.7001638 -12.227963 1.7120206 22 11
3.9971373 -7.3009195 -1.0219964 22 4
6.8193693 -12.460994 2.2498407 6 12
4.111228 -7.5186534 -0.74971366 29 5
4.8822088 -8.9397469 -0.53382683 1 6
5.4687004 -10.030306 -0.1994112 33 7
1.9274454 -3.5587945 -1.0844518 13 0
5.3990946 -9.9770889 0.198015 43 8
2.1862602 -4.0417175 -1.0608691 21 1
5.435729 -10.057366 0.59914213 43 9
2.5728471 -4.7643418 -1.0525025 16 2
5.4531856 -10.102305 1.0043827 6 10
3.0991545 -5.74614 -1.0340319 13 3
5.7284756 -10.630044 1.4826626 13 11
3.9605291 -7.3524251 -1.0254087 24 4
8.8049536 -16.359415 2.9425328 39 12
4.0501447 -7.5313792 -0.74814492 33 5
4.8395247 -9.0105639 -0.53602493 9 6
6.1591606 -11.477163 3.0071459 0 14
5.4333849 -10.128973 -0.20063286 24 7
1.9007373 -3.5687542 -1.0834166 13 0
5.2710657 -9.9050894 0.19585089 32 8
2.1598213 -4.0603228 -1.061769 21 1
5.3953786 -10.151504 0.60249156 35 9
2.5459688 -4.7943254 -1.0551738 17 2
5.3274121 -10.0363 0.99409837 10 10
3.0571125 -5.7641463 -1.0334063 13 3
5.7071071 -10.769756 1.4965557 4 11
3.5169845 -6.6396251 -0.92255098 0 4
5.5617552 -10.50876 1.8831582 6 12
4.1436944 -7.8359942 -0.7755118 10 5
8.6222305 -16.312088 3.5864463 26 13
4.5778298 -8.6679544 -0.51372981 1 6
5.3336182 -10.111829 -0.19955082 39 7
1.8784654 -3.5870707 -1.0849695 12 0
5.2119856 -9.9611359 0.19623485 26 8
2.1305189 -4.0735755 -1.0613191 21 1
2.513345 -4.8137226 -1.0555553 22 2
5.271965 -10.101508 0.99688739 20 10
3.0167971 -5.7853479 -1.0334063 13 3
3.4577093 -6.6393666 -0.91913867 5 4
5.4809599 -10.533315 1.8806553 3 12
4.2681036 -8.2094421 -0.80950248 14 5
8.5153837 -16.385818 3.589499 36 13
5.2682323 -10.146107 -0.59914213 36 6
5.1809635 -9.9908247 -0.19644429 36 7
1.8604511 -3.6138382 -1.0891106 16 0
5.1734161 -10.05774 0.19742163 31 8
2.1038108 -4.0918159 -1.0622189 22 1
4.7739835 -9.2931547 0.54753882 13 9
2.4805751 -4.8328981 -1.0559371 17 2
5.1867628 -10.109704 0.99409837 14 10
2.9835432 -5.8203306 -1.0359092 12 3
5.2286019 -10.208796 1.4083222 39 11
3.399514 -6.6403737 -0.91597003 1 4
5.4711609 -10.696187 1.9028691 15 12
3.9395857 -7.7085767 -0.75738341 7 5
5.3979335 -10.575783 -0.62227458 19 6
5.1301608 -10.064163 -0.19717729 27 7
1.8316873 -3.6198435 -1.0870401 13 0
5.0814199 -10.050783 0.19658391 30 8
2.0787091 -4.1133604 -1.0640185 23 1
5.0771742 -10.055456 0.59034967 19 9
2.4432375 -4.8430872 -1.0544106 17 2
5.2443409 -10.400064 1.019025 24 10
2.9517257 -5.8586593 -1.0390378 11 3
5.1420307 -10.214906 1.4041786 39 11
3.366457 -6.6905437 -0.91962618 0 4
5.2064791 -10.356434 1.8359152 21 12
3.8016119 -7.5685334 -0.74099815 18 5
18.207382 -36.264397 7.8876624 4 13
5.3033733 -10.572149 -0.61986715 14 6
5.0615659 -10.10331 -0.1972471 35 7
1.8046515 -3.6290829 -1.0860047 12 0
4.9372792 -9.9373722 0.19368681 11 8
2.0490756 -4.1260271 -1.0635686 25 1
4.7316518 -9.5360279 0.55790138 12 9
2.4172151 -4.8758559 -1.0578451 20 2
4.9707942 -10.031178 0.97945625 19 10
2.9089997 -5.8755827 -1.0384121 12 3
5.0670719 -10.243438 1.4032037 37 11
3.3223057 -6.7192216 -0.92035741 1 4
18.416267 -37.278858 6.5855789 27 12
3.8315732 -7.7628303 -0.75738341 7 5
17.556805 -35.586014 7.7132635 33 13
5.1614418 -10.470976 -0.61180741 35 6
4.962647 -10.080988 -0.19613016 33 7
1.7860566 -3.6554797 -1.0901459 13 0
4.8300619 -9.8943281 0.19218589 23 8
2.0244932 -4.1489887 -1.0658182 28 1
4.9494114 -10.152293 0.59191972 19 9
2.3839762 -4.8943777 -1.0582268 17 2
4.8988976 -10.062053 0.97910756 22 10
2.8661819 -5.8921952 -1.0377864 12 3
4.9902296 -10.26785 1.4017414 39 11
3.6222777 -7.4564724 -1.0178528 15 4
16.735826 -34.481388 6.0705967 11 12
3.703856 -7.6345687 -0.7423926 14 5
17.32164 -35.735977 7.7193689 30 13
4.9158521 -10.150836 -0.59108233 13 6
4.7998605 -9.9245653 -0.19243024 13 7
1.7621652 -3.6713421 -1.0911812 18 0
4.8119063 -10.029742 0.19417547 32 8
1.9921097 -4.1559911 -1.0640185 28 1
4.6592674 -9.7246428 0.56512368 37 9
2.3531487 -4.9158039 -1.0593716 16 2
4.868937 -10.180485 0.98730022 21 10
2.8328242 -5.9258251 -1.0402893 13 3
4.9125242 -10.285458 1.3995476 35 11
3.5350821 -7.4081249 -1.0078596 30 4
5.5600572 -11.6569 2.0455372 18 12
3.534755 -7.4174285 -0.71886051 20 5
17.084393 -35.882622 7.7250929 26 13
4.8723927 -10.238165 -0.59422249 33 6
4.763063 -10.02647 -0.19375661 27 7
1.7420787 -3.6937356 -1.0942869 16 0
4.8508739 -10.294635 0.1986433 46 8
1.972078 -4.1870847 -1.0685174 25 1
4.6763043 -9.9376488 0.57559091 42 9
2.3204441 -4.9356651 -1.0601349 15 2
4.8774848 -10.379288 1.0033369 24 10
2.7930651 -5.9490337 -1.040915 12 3
4.8684192 -10.378809 1.407591 37 11
3.4896317 -7.4427996 -1.009322 30 4
5.4534025 -11.641768 2.0361512 14 12
3.6903291 -7.8815894 -0.76139253 8 5
16.752409 -35.811359 7.6850233 29 13
4.988534 -10.673616 -0.61745965 56 6
4.7446046 -10.165568 -0.195816 32 7
1.7194968 -3.7128193 -1.0963575 21 0
4.7378459 -10.234866 0.19686314 30 8
1.9477067 -4.2113628 -1.0712169 22 1
4.8691931 -10.533069 0.60814387 29 9
2.2867942 -4.9513459 -1.0601349 15 2
4.8708539 -10.556004 1.0171075 19 10
2.7657437 -5.9966087 -1.045921 12 3
4.7735667 -10.359425 1.4005226 59 11
3.4160028 -7.4200983 -1.0029848 22 4
15.575449 -33.8479 5.9013348 24 12
3.6035917 -7.8383722 -0.75476873 16 5
16.406935 -35.72049 7.6407561 25 13
4.9074335 -10.689174 -0.616413 33 6
4.6568584 -10.162087 -0.19511791 36 7
1.6821861 -3.6980605 -1.088593 13 0
4.6629691 -10.260409 0.19672352 23 8
1.9133545 -4.2121034 -1.0680676 19 1
4.6230321 -10.186691 0.58626747 6 9
2.2537937 -4.9707661 -1.0608981 16 2
4.9896927 -11.00993 1.0575478 12 10
2.7238128 -6.0157709 -1.045921 12 3
4.766583 -10.537189 1.4200217 44 11
3.1920342 -7.0597143 -0.95131218 22 4
15.216792 -33.685772 5.8544044 21 12
3.5233743 -7.8070416 -0.74936509 12 5
15.597511 -34.576828 7.3732414 22 13
3.5508657 -7.8789554 -0.4529154 9 6
16.216703 -36.016533 9.1190662 19 14
4.583477 -10.184431 -0.19494337 39 7
1.663417 -3.7255898 -1.0932516 18 0
4.627068 -10.373068 0.19825934 31 8
1.8854891 -4.2289181 -1.0689675 20 1
4.6184435 -10.368321 0.59485054 19 9
2.222229 -4.9935532 -1.0624245 16 2
4.5507536 -10.230767 0.97963053 36 10
2.6801438 -6.0310297 -1.0452952 12 3
4.7162633 -10.622824 1.4270902 37 11
3.2248008 -7.266901 -0.97617352 32 4
14.997263 -33.827301 5.8606615 21 12
3.1307015 -7.0681601 -0.67632854 6 5
14.982202 -33.841141 7.1938815 37 13
4.5040302 -10.183108 -0.58354598 35 6
16.020792 -36.255424 9.1510086 7 14
4.4880271 -10.161306 -0.19389623 25 7
1.6396928 -3.7424202 -1.0948045 15 0
4.5272751 -10.342835 0.19707258 26 8
1.8512341 -4.2312655 -1.066268 21 1
4.5923419 -10.506456 0.60092151 19 9
2.1873138 -5.0089455 -1.0624245 16 2
2.6427121 -6.0604572 -1.0471724 12 3
4.634059 -10.637292 1.4246527 37 11
3.2144074 -7.3820591 -0.98860419 38 4
14.744189 -33.893135 5.8540912 10 12
3.0968187 -7.1221952 -0.67946619 13 5
14.745583 -33.944912 7.1938815 28 13
4.4391894 -10.228962 -0.58438331 13 6
15.640256 -36.056133 9.0736256 7 14
4.4233394 -10.207068 -0.19417547 39 7
1.6219177 -3.7732997 -1.1004987 15 0
4.3494153 -10.123537 0.19232552 21 8
1.825492 -4.2530398 -1.0685174 19 1
4.4884362 -10.462216 0.59662998 27 9
2.1562624 -5.0309358 -1.063951 16 2
4.6858726 -10.943508 1.0415112 34 10
2.6013987 -6.0783057 -1.0471724 12 3
4.5108194 -10.549947 1.4088097 24 11
3.1651328 -7.4097958 -0.98933536 32 4
14.523232 -34.016327 5.8581586 28 12
3.3698583 -7.9005232 -0.7514568 11 5
14.527482 -34.092178 7.2034216 28 13
3.1477654 -7.390553 -0.4209905 20 6
15.240135 -35.81657 8.9863443 25 14
4.3222461 -10.167768 -0.19284908 31 7
1.5939443 -3.7789123 -1.0989457 20 0
4.3228955 -10.258694 0.19431511 37 8
1.7987702 -4.2707548 -1.0698671 17 1
4.4532428 -10.583503 0.60175884 19 9
2.1150012 -5.0313883 -1.0608981 16 2
4.5140333 -10.743708 1.0195479 25 10
2.5634887 -6.1072469 -1.0490496 13 3
4.5207319 -10.780723 1.4353772 27 11
3.1253653 -7.4568 -0.99274784 36 4
15.67625 -37.438568 6.4285188 4 12
3.1267815 -7.471148 -0.70857614 39 5
14.978189 -35.824074 7.5476413 3 13
4.4986491 -10.770205 -0.61170274 15 6
14.887126 -35.658718 8.9211082 10 14
4.3768682 -10.494096 -0.19846877 42 7
1.5645703 -3.7828076 -1.0968752 20 0
4.2774148 -10.347017 0.19543205 33 8
1.7733741 -4.2940159 -1.0725666 17 1
4.1517191 -10.057876 0.57025266 13 9
2.0866926 -5.0601878 -1.063951 16 2
4.4396768 -10.776802 1.0197222 23 10
2.5293803 -6.1428199 -1.0521784 12 3
4.4744325 -10.877334 1.4441519 33 11
3.0339961 -7.3829598 -0.98007339 31 4
14.149664 -34.449051 5.8985186 10 12
3.2583399 -7.9407039 -0.75093383 12 5
14.279445 -34.834202 7.3179069 6 13
4.5819817 -11.183144 -0.6333698 16 6
14.710163 -35.938526 8.9651985 10 14
4.280036 -10.467017 -0.19738671 34 7
1.544656 -3.8097506 -1.1015339 23 0
1.7440842 -4.3080978 -1.0730165 19 1
2.0519004 -5.0786309 -1.0647143 16 2
2.4779682 -6.1424432 -1.0490496 13 3
3.6871092 -9.1488924 1.2111377 30 11
