# .PCD v0.7 - Point Cloud Data file format
VERSION 0.7
FIELDS x y z intensity ring
SIZE 4 4 4 4 2
TYPE F F F F U
COUNT 1 1 1 1 1
WIDTH 207
HEIGHT 1
VIEWPOINT 0 0 0 1 0 0 0
POINTS 207
DATA ascii
2.982667 -0.52109522 -0.15868263 53 6
2.9730618 -0.54083294 -0.15836863 72 6
2.9426882 -0.55496287 -0.26199016 71 5
2.9711759 -0.56194663 -0.15847328 84 6
2.9035475 -0.56860095 -0.25885254 36 5
2.9691403 -0.58306032 -0.15857796 83 6
2.8912425 -0.58507758 -0.36219573 74 4
2.8975549 -0.58846092 -0.25867823 81 5
2.9610834 -0.6029774 -0.15836863 93 6
2.8462026 -0.59512115 -0.46054313 2 3
2.8793161 -0.60361862 -0.36122078 11 4
2.8914263 -0.60826504 -0.25850391 73 5
2.9313962 -0.61827642 -0.15700789 43 6
2.81881 -0.6099633 -0.45678869 93 3
2.8672717 -0.62202173 -0.36024579 11 4
2.8910029 -0.62928349 -0.25885254 77 5
2.9445705 -0.64255852 -0.15794992 70 6
2.9888484 -0.65386051 -0.053404365 70 7
2.7668808 -0.61745703 -0.55105644 34 2
2.8048441 -0.62747097 -0.45522434 93 3
2.8628595 -0.64202368 -0.36024579 11 4
2.8865392 -0.64945102 -0.25885254 73 5
2.9478064 -0.66485745 -0.15836863 88 6
2.9783595 -0.67338753 -0.053299651 37 7
2.770155 -0.63852221 -0.55258286 28 2
2.7965462 -0.64614767 -0.45459861 81 3
2.8602417 -0.66244245 -0.36048955 12 4
2.929476 -0.68224943 -0.15763591 89 6
2.9677439 -0.69279999 -0.053194933 32 7
2.7134042 -0.64342207 -0.64380991 27 1
2.7713594 -0.65920877 -0.55372775 13 2
2.7804377 -0.66290653 -0.45272139 92 3
2.8477054 -0.68104583 -0.35951459 19 4
2.8771901 -0.68969011 -0.25885254 10 5
2.9226999 -0.7022177 -0.15753125 93 6
2.9704866 -0.71589291 -0.053334557 90 7
2.6860156 -0.65726382 -0.6384111 77 1
2.76669 -0.67854029 -0.55372775 13 2
2.7794597 -0.68372959 -0.45334715 87 3
2.8486636 -0.70233536 -0.36024579 78 4
2.8819766 -0.71214956 -0.25972411 10 5
2.9001524 -0.71878964 -0.1565892 63 6
2.9576533 -0.73468488 -0.053194933 102 7
2.6584744 -0.66874921 -0.73452848 38 0
2.6832514 -0.676476 -0.638861 88 1
2.75986 -0.6978395 -0.5533461 13 2
2.7784481 -0.7040875 -0.45397288 73 3
2.824451 -0.71731919 -0.35780841 90 4
2.8864603 -0.73521304 -0.26059568 9 5
2.9524522 -0.75531507 -0.053194933 91 7
2.6574814 -0.68826115 -0.73556381 29 0
2.6878946 -0.69763982 -0.64111048 98 1
2.7378218 -0.7126388 -0.54991156 12 2
2.8174539 -0.73651785 -0.35756469 83 4
2.8542755 -0.74827278 -0.25815532 20 5
2.9130144 -0.76530188 -0.15784526 12 6
2.9335709 -0.77234471 -0.052950602 101 7
2.6264775 -0.69983345 -0.72831684 9 0
2.6867242 -0.71739322 -0.64201027 103 1
2.7327797 -0.73173493 -0.54991156 58 2
2.7702546 -0.74332398 -0.45428574 12 3
2.8160775 -0.75720012 -0.35805216 86 4
2.862448 -0.77181172 -0.25937548 102 5
2.9037445 -0.78457791 -0.15763591 13 6
2.6308439 -0.72070456 -0.730905 15 0
2.6816504 -0.73613244 -0.64201027 96 1
2.7257121 -0.75027436 -0.54952991 95 2
2.7669022 -0.76317108 -0.45459861 16 3
2.8183758 -0.77895683 -0.35902712 73 4
2.8301096 -0.78432691 -0.25693512 71 5
2.8962722 -0.8042962 -0.15753125 12 6
2.9167218 -0.81162024 -0.052845888 9 7
2.6145906 -0.7359131 -0.72779918 50 0
2.6689436 -0.75271994 -0.64021069 51 1
2.7336318 -0.77302456 -0.55220127 52 2
2.7539048 -0.78031486 -0.45334715 71 3
2.8127296 -0.79910451 -0.35902712 47 4
2.8264813 -0.80461103 -0.25710943 77 5
2.8809831 -0.82175702 -0.15700789 61 6
2.9281428 -0.83741957 -0.05316003 10 7
2.6259599 -0.75943404 -0.73245794 75 0
2.6522584 -0.76854485 -0.63751125 82 1
2.7225125 -0.79044771 -0.55105644 20 2
2.7444568 -0.79889691 -0.45272139 86 3
2.7823083 -0.81149584 -0.3558585 90 4
2.843744 -0.83103025 -0.25920117 42 5
2.863529 -0.83898228 -0.15637985 67 6
2.9164689 -0.85615146 -0.053055316 11 7
2.6224463 -0.77829772 -0.73297554 51 0
2.658036 -0.79037482 -0.64021069 93 1
2.7130234 -0.80878741 -0.55029315 14 2
2.7822807 -0.83260733 -0.35658973 89 4
2.8339078 -0.85021299 -0.25885254 22 5
2.8652527 -0.86125261 -0.15679854 57 6
2.9008472 -0.87360811 -0.052880794 10 7
2.9667962 -0.90421027 0.054137368 19 8
2.6561813 -0.81004876 -0.64111048 99 1
2.7016788 -0.82598603 -0.54914832 23 2
2.7424788 -0.84003031 -0.45428574 13 3
2.7839911 -0.85434037 -0.35756469 89 4
2.814573 -0.86587572 -0.25763237 70 5
2.9355979 -0.91714805 0.053683605 54 8
2.6504614 -0.82857251 -0.64111048 103 1
2.6977198 -0.8454141 -0.54952991 100 2
2.7252398 -0.85560572 -0.45240852 12 3
2.7779591 -0.87375534 -0.35756469 76 4
2.7875578 -0.87891358 -0.25571495 68 5
2.8472354 -0.89936906 -0.15648453 10 6
2.8998058 -0.91764486 -0.053090218 13 7
2.9367414 -0.94005841 0.053823221 80 8
2.6297653 -0.84230059 -0.63751125 99 1
2.6842752 -0.86182642 -0.54800349 85 2
2.7192001 -0.87461042 -0.45240852 12 3
2.7965214 -0.90325183 -0.25710943 77 5
2.8952312 -0.93848348 -0.053125124 11 7
2.6875179 -0.8836109 -0.54991156 100 2
2.7186565 -0.89542651 -0.45334715 11 3
2.7541778 -0.90872461 -0.35610226 12 4
2.7901473 -0.92275298 -0.25710943 76 5
2.8419843 -0.94154745 -0.15690321 96 6
2.8810174 -0.95615345 -0.052985508 10 7
2.9384964 -0.98605937 0.054102462 9 8
2.6251383 -0.88141692 -0.6393109 14 1
2.6775622 -0.90109932 -0.54914832 100 2
2.7160828 -0.9156462 -0.45397288 93 3
2.7458858 -0.92729497 -0.3558585 12 4
2.7836375 -0.94220924 -0.25710943 73 5
2.8258843 -0.95815843 -0.15637985 101 6
2.8591242 -0.97109854 -0.052706268 10 7
2.9239757 -1.0039523 0.053962842 12 8
2.6170778 -0.89908892 -0.638861 12 1
2.6637812 -0.91721338 -0.54762185 100 2
2.6984196 -0.93072104 -0.45209566 93 3
2.7466848 -0.94951451 -0.35683349 11 4
2.8191261 -0.97786337 -0.15637985 89 6
2.905575 -1.0203654 0.053753413 11 8
2.6105771 -0.91779315 -0.638861 12 1
2.6879652 -0.94869167 -0.45146993 89 3
2.7456038 -0.97065163 -0.35756469 14 4
2.7664545 -0.97965294 -0.25676081 11 5
2.8064101 -0.99600744 -0.15606584 85 6
2.8451104 -1.01142 -0.052706268 86 7
2.8963172 -1.0404547 0.053718507 12 8
2.5967705 -0.93335927 -0.63706136 16 1
2.9692953 -1.0684266 0.16538164 3 9
2.6764078 -0.96409369 -0.55296451 13 2
2.6812766 -0.96743411 -0.45146993 84 3
2.746228 -0.99249452 -0.35853964 97 4
2.7632949 -1.0002989 -0.25710943 10 5
2.8454978 -1.0339895 -0.052845888 101 7
2.8797815 -1.0567008 0.053543981 38 8
2.5718989 -0.94474596 -0.63256234 61 1
2.9282098 -1.0762111 0.16349754 3 9
2.6532009 -0.97618788 -0.54952991 13 2
2.6709223 -0.98429608 -0.4508442 81 3
2.7150242 -1.0027021 -0.35537103 90 4
2.7637188 -1.0223305 -0.25780669 10 5
2.7736821 -1.0276675 -0.15501912 11 6
2.8307114 -1.0510453 -0.052706268 105 7
2.5818305 -0.96838969 -0.63661146 86 1
2.6444833 -0.99399596 -0.54914832 29 2
2.6824725 -1.0098784 -0.45397288 41 3
2.7172444 -1.0251355 -0.35658973 69 4
2.743468 -1.0366701 -0.25658652 17 5
2.7851198 -1.054076 -0.15606584 11 6
2.8195653 -1.0693634 -0.052636456 101 7
2.5912118 -0.99311662 -0.64066058 88 1
2.6228168 -1.0068051 -0.54609537 74 2
2.6622717 -1.0240834 -0.45178279 79 3
2.7305872 -1.053646 -0.25606358 41 5
2.7886829 -1.0783005 -0.15669388 26 6
2.812031 -1.0890214 -0.052636456 62 7
2.5842154 -1.0111823 -0.64066058 72 1
2.6319952 -1.0319977 -0.54952991 20 2
2.6440253 -1.0383121 -0.44990557 80 3
2.7211399 -1.07024 -0.35902712 12 4
2.730392 -1.0760806 -0.25676081 10 5
2.7643669 -1.0911429 -0.15575182 56 6
2.5517564 -1.0190803 -0.63436198 14 1
2.6229036 -1.0496176 -0.54914832 13 2
2.6422131 -1.0589501 -0.4508442 92 3
2.7025487 -1.0847743 -0.35756469 101 4
2.7246618 -1.0958594 -0.25693512 10 5
2.775208 -1.1178776 -0.15679854 82 6
2.6064239 -1.0641927 -0.5472402 13 2
2.6347558 -1.0773702 -0.4508442 89 3
2.6747026 -1.0953398 -0.35488355 90 4
2.7281995 -1.1189162 -0.25798097 10 5
2.60637 -1.0849271 -0.54876673 13 2
2.6724856 -1.1162812 -0.35561478 86 4
2.7056174 -1.1317842 -0.25658652 13 5
2.6023469 -1.1046307 -0.54952991 14 2
2.6341946 -1.1197773 -0.45334715 12 3
2.6684785 -1.1360012 -0.35610226 89 4
2.6884871 -1.1467369 -0.25571495 17 5
2.5909681 -1.121212 -0.54876673 31 2
2.6081877 -1.1302854 -0.45021844 11 3
2.6641247 -1.1561834 -0.35658973 83 4
2.5812812 -1.1384805 -0.54838508 84 2
2.6020403 -1.1492643 -0.4505313 12 3
2.655988 -1.1747541 -0.35658973 76 4
2.5696886 -1.1548638 -0.54762185 96 2
2.6011591 -1.1706446 -0.45178279 12 3
2.5615637 -1.1727754 -0.54762185 100 2
2.5947187 -1.1895987 -0.45209566 36 3
2.5497551 -1.1889703 -0.54685861 100 2
2.5413923 -1.2067419 -0.54685861 100 2
