# .PCD v0.7 - Point Cloud Data file format
VERSION 0.7
FIELDS x y z intensity ring
SIZE 4 4 4 4 2
TYPE F F F F U
COUNT 1 1 1 1 1
WIDTH 113
HEIGHT 1
VIEWPOINT 0 0 0 1 0 0 0
POINTS 113
DATA ascii
3.9015958 1.5258784 -0.073125578 47 7
3.8916848 1.4930992 -0.21845031 35 6
3.8972144 1.4928803 -0.072846346 75 7
3.8851867 1.4595722 -0.21750826 12 6
3.8963079 1.4614227 -0.072636917 12 7
3.9121525 1.4386169 -0.21845031 11 6
3.9122975 1.4355705 -0.072741628 13 7
3.9192979 1.4125794 -0.36448529 0 5
3.9204676 1.4099095 -0.21834564 15 6
3.9184599 1.406871 -0.072671816 17 7
3.9234259 1.3831977 -0.36396238 19 5
3.9113746 1.3758776 -0.21729892 44 6
3.9281864 1.3794806 -0.072671816 18 7
3.9216852 1.3518773 -0.3629165 9 5
3.9112053 1.345974 -0.21677555 10 6
3.9230154 1.333214 0.072322771 49 8
3.9329166 1.3251003 -0.36309084 9 5
3.9318657 1.3224543 -0.21740359 11 6
3.914835 1.3136867 -0.072078437 12 7
3.922739 1.3026409 0.072148249 12 8
3.949578 1.3023764 -0.51063257 36 4
3.9288237 1.2932522 -0.36187065 9 5
3.9355357 1.2924151 -0.21708956 11 6
3.9334128 1.2894368 -0.072252966 15 7
3.9338615 1.2751554 0.072183155 12 8
3.973691 1.2796392 -0.51258254 10 4
3.9512556 1.2693708 -0.36309084 73 5
3.938756 1.2630806 -0.21677555 28 6
3.9461272 1.2631662 -0.072322771 20 7
3.9426684 1.2476591 0.072183155 28 8
3.9654844 1.2465091 -0.51038885 7 4
3.9467137 1.237582 -0.36187065 10 5
3.9360418 1.2319726 -0.21614751 70 6
3.9376709 1.2302192 -0.072008632 70 7
3.9340866 1.2147937 0.071869008 58 8
3.9629145 1.2146105 -0.50892639 7 4
3.9457312 1.2070843 -0.36099908 10 5
3.9463737 1.2020105 -0.072008632 98 7
3.955874 1.1913372 0.072113343 78 8
3.9739501 1.1899762 -0.65702486 56 3
3.9674935 1.1857797 -0.50843894 7 4
3.9502428 1.1783713 -0.36065045 11 5
3.9568932 1.1773456 -0.21635687 11 6
3.9489472 1.1584959 0.071834102 46 8
3.9409077 1.1538968 0.21520546 7 9
3.9726791 1.1594366 -0.65546048 10 3
3.9815946 1.1590229 -0.50917011 64 4
3.9738803 1.1545208 -0.36204496 102 5
3.968852 1.1508069 -0.21656621 27 6
3.945683 1.1411014 -0.071694486 20 7
3.9492483 1.1287009 0.071694486 16 8
3.9490638 1.1256667 0.21520546 44 9
3.9751737 1.1293595 -0.65452182 9 3
4.0029583 1.1349885 -0.51087636 7 4
3.947335 1.1169848 -0.35890734 69 5
3.9385419 1.1115274 -0.21447276 56 6
3.9416194 1.0968136 0.071415246 61 8
3.9527857 1.0976913 0.21499613 78 9
4.0164013 1.1138475 -0.81017506 10 2
3.9770577 1.1006944 -0.65358323 9 3
3.9914565 1.10243 -0.50843894 7 4
3.9857714 1.0978636 -0.3616963 24 5
3.9691272 1.0910436 -0.21572883 98 6
3.9706833 1.0892357 -0.071869008 108 7
3.9626925 1.0729276 0.071659587 85 8
3.9846449 1.0729026 -0.65358323 9 3
3.9837186 1.0704165 -0.50648904 7 4
3.98949 1.0689797 -0.36134771 15 5
3.9592819 1.058664 -0.21478678 46 6
3.9723945 1.0599419 -0.07176429 114 7
3.9778214 1.0472732 0.071799204 105 8
3.9882162 1.0440577 -0.65295756 72 3
3.9891739 1.0420771 -0.50624532 68 4
3.9968553 1.0411036 -0.36134771 45 5
3.9704421 1.032004 -0.21499613 14 6
3.9564691 1.026161 -0.071345441 74 7
3.9714749 1.016008 0.071554869 107 8
4.0030651 1.0181389 -0.65420902 81 3
3.9982753 1.0146922 -0.50648904 84 4
3.9692583 1.0043774 -0.35821009 74 5
3.9601216 0.99985951 -0.21405408 56 6
3.9674149 0.99949163 -0.071415246 114 7
3.9474192 0.9805457 0.070996389 24 8
4.0062404 0.98921841 -0.65358323 21 3
4.0091171 0.98770207 -0.50697654 62 4
3.9742389 0.97616708 -0.3580358 69 5
3.9902837 0.97789311 -0.21531016 90 6
3.9723537 0.97129458 -0.07138034 92 7
3.984833 0.94932121 -0.3583844 69 5
3.9814682 0.94631708 -0.21447276 113 6
3.9887669 0.94584572 -0.071554869 114 7
4.0051122 0.92759824 -0.50478286 68 4
4.010777 0.92596066 -0.36012751 36 5
3.9821389 0.91715324 -0.21415874 97 6
3.9894257 0.91663235 -0.071450152 116 7
4.0018044 0.89744461 -0.50356412 104 4
3.9821444 0.89011437 -0.35698992 63 5
3.9923439 0.89019978 -0.2143681 97 6
3.9801121 0.88528514 -0.071170911 92 7
4.0120044 0.86962652 -0.50405163 68 4
3.9863138 0.86187297 -0.35681561 74 5
3.9867463 0.85978186 -0.21374007 85 6
4.0218635 0.84241015 -0.50453913 68 4
3.9941838 0.83442962 -0.35698992 111 5
4.000618 0.83285958 -0.21415874 105 6
4.0276475 0.81430978 -0.50453913 60 4
4.007865 0.80740041 -0.35768715 106 5
3.9867537 0.80097562 -0.21311203 93 6
4.0212274 0.78091979 -0.3583844 44 5
3.9981306 0.77426249 -0.21342604 38 6
4.0030804 0.74843347 -0.35629267 63 5
4.0023246 0.71941102 -0.35576975 103 5
4.0090919 0.69249237 -0.35594404 113 5
