# .PCD v0.7 - Point Cloud Data file format
VERSION 0.7
FIELDS x y z intensity ring
SIZE 4 4 4 4 2
TYPE F F F F U
COUNT 1 1 1 1 1
WIDTH 162
HEIGHT 1
VIEWPOINT 0 0 0 1 0 0 0
POINTS 162
DATA ascii
2.9497831 1.410136 -0.28604513 105 5
2.9685731 1.3937418 -0.2869167 103 5
2.9627633 1.3683612 -0.40070644 12 4
2.9637561 1.3663104 -0.28552222 111 5
2.9794753 1.3509244 -0.40168139 25 4
2.9695921 1.3439431 -0.28517357 103 5
2.9908795 1.3303758 -0.40192512 16 4
2.9861853 1.3264154 -0.28587085 87 5
2.9946365 1.3070809 -0.40119389 13 4
2.9944491 1.3026463 -0.1711386 38 6
3.0028412 1.2876406 -0.51748526 36 3
3.005738 1.2863992 -0.40143764 20 4
3.0156305 1.2887654 -0.2869167 26 5
3.0126553 1.2856289 -0.17166196 92 6
3.0174415 1.2684162 -0.51842386 43 3
3.007324 1.2623109 -0.40046272 78 4
3.022717 1.2669108 -0.28674239 113 5
3.0236201 1.2648087 -0.17176662 96 6
3.0187008 1.2448355 -0.5171724 13 3
3.0435989 1.2526175 -0.40411878 60 4
3.0241165 1.2427481 -0.28604513 92 5
3.0395505 1.247231 -0.17218532 93 6
3.0238683 1.2217222 -0.51654667 12 3
3.0485878 1.2298533 -0.4036313 10 4
3.0364151 1.2230945 -0.28639376 103 5
3.0483983 1.2254471 -0.17218532 93 6
3.0532403 1.2107128 -0.63844693 75 2
3.0378337 1.2027634 -0.51748526 11 3
3.0554643 1.2072772 -0.40338758 12 4
3.0494454 1.2012088 -0.17176662 93 6
3.0451474 1.1829709 -0.63501233 95 2
3.0592556 1.1859926 -0.51967537 12 3
3.0582645 1.1837668 -0.40265635 14 4
3.0682695 1.1857928 -0.28778824 17 5
3.123893 1.2029054 -0.058430657 0 7
3.057205 1.1625457 -0.63577563 100 2
3.0711539 1.1660099 -0.5203011 77 3
3.0738783 1.1652032 -0.4036313 12 4
3.0615656 1.158703 -0.28639376 14 5
3.0773325 1.1622133 -0.17239466 16 6
3.0687273 1.1430781 -0.63653886 100 2
3.0679109 1.1409452 -0.51842386 79 3
3.0875211 1.145787 -0.4043625 19 4
3.0919995 1.1456075 -0.2884855 36 5
3.096411 1.1453986 -0.17302269 76 6
3.0878568 1.1397827 -0.057453319 108 7
3.0549393 1.1161361 -0.75088662 87 1
3.0876992 1.1256626 -0.63882852 57 2
3.0795135 1.1208521 -0.51904958 23 3
3.0991771 1.1255596 -0.40485001 13 4
3.084938 1.1185586 -0.28709102 92 5
3.0949428 1.1203531 -0.17249933 98 6
3.1032612 1.1209165 -0.057592943 112 7
3.0518372 1.0903132 -0.74818724 100 1
3.0973318 1.1047385 -0.63921016 15 2
3.0911779 1.1001102 -0.51967537 11 3
3.1069598 1.1038942 -0.40485001 13 4
3.0964274 1.0983266 -0.28743961 13 5
3.1047626 1.0988452 -0.17260399 93 6
3.1147821 1.1005567 -0.057662752 108 7
3.0704124 1.0728376 -0.75088662 91 1
3.1174383 1.0849973 -0.52280408 12 3
3.1089649 1.0802236 -0.40411878 12 4
3.1247251 1.0838664 -0.28935707 19 5
3.1180212 1.0791014 -0.17291802 23 6
3.11483 1.0761712 -0.057523135 112 7
3.0852036 1.0538971 -0.75268626 91 1
3.1068792 1.0594854 -0.63806528 100 2
3.1154013 1.0605711 -0.5212397 32 3
3.1258285 1.0616846 -0.40533748 14 4
3.1227815 1.0588264 -0.2884855 17 5
3.1271856 1.0584944 -0.17302269 12 6
3.1203718 1.0537609 -0.057488225 101 7
3.1483221 1.0521934 0.057941992 57 8
3.0923064 1.0328709 -0.75268626 91 1
3.1179259 1.0390093 -0.63882852 98 2
3.1208556 1.0381705 -0.52092683 100 3
3.1386347 1.0422599 -0.40606871 16 4
3.128206 1.0363729 -0.28831118 17 5
3.1458764 1.0403996 -0.17365071 11 6
3.1384826 1.0246029 0.057627846 77 8
3.0994413 1.0112588 -0.75268626 88 1
3.1363046 1.0208627 -0.64111823 100 2
3.1186337 1.0133053 -0.51936251 83 3
3.1552758 1.023385 -0.40728739 101 4
3.146739 1.0181888 -0.28935707 18 5
3.1568644 1.0196396 -0.17386007 14 6
3.1555398 1.0173876 -0.05787218 23 7
3.1119962 0.99137062 -0.75403595 36 1
3.1433551 0.99894232 -0.64111823 98 2
3.1369295 0.99509233 -0.5212397 78 3
3.1530552 0.99778563 -0.40606871 69 4
3.16327 0.99919629 -0.29022861 39 5
3.1208713 0.96965444 -0.75448585 75 1
3.1558776 0.97871935 -0.64226311 57 2
3.1694281 0.97867733 -0.40728739 11 4
3.1720726 0.97767496 -0.29040295 15 5
3.1785996 0.97725749 -0.17427875 51 6
3.1676953 0.97208995 -0.057837274 114 7
3.1275647 0.94784302 -0.75448585 92 1
3.1477661 0.95156658 -0.63921016 100 2
3.1714859 0.95692497 -0.52468127 12 3
3.1742818 0.95595568 -0.40704364 11 4
3.1732628 0.95323151 -0.28988001 12 5
3.1891708 0.95619005 -0.1744881 14 6
3.1686571 0.9482317 -0.05773256 112 7
3.1490564 0.93040419 -0.75808507 91 1
3.1675148 0.93345255 -0.64188147 96 2
3.1837742 0.93643272 -0.52561986 101 3
3.1846879 0.93489003 -0.40753111 10 4
3.1836643 0.93217605 -0.29022861 14 5
3.1976855 0.93446392 -0.17459276 13 6
3.1886375 0.93000811 -0.057976898 49 7
3.1479847 0.90623915 -0.75628549 88 1
3.1928246 0.91673446 -0.64569765 91 2
3.1769416 0.91037387 -0.52342981 99 3
3.2121313 0.91863805 -0.41021225 101 4
3.1958423 0.91156667 -0.29075155 15 5
3.2098939 0.91375762 -0.17490679 17 6
3.1504822 0.88318795 -0.7553857 86 1
3.2010376 0.89495063 -0.6460793 93 2
3.1927333 0.89082682 -0.52499413 76 3
3.20508 0.89246339 -0.4085061 90 4
3.2136464 0.89243186 -0.2917974 80 5
3.2027221 0.88759214 -0.17417407 12 6
3.203419 0.87155056 -0.64531606 88 2
3.2103128 0.87162131 -0.52687138 76 3
3.2131481 0.87058502 -0.40874982 83 4
3.2140286 0.86841565 -0.29127449 76 5
3.2184823 0.86781114 -0.17469743 34 6
3.1851087 0.84511262 -0.76078445 15 1
3.2170169 0.85117388 -0.64684254 25 2
3.2296894 0.8527177 -0.52906144 54 3
3.242183 0.85420078 -0.41167468 19 4
3.2360542 0.84835958 -0.17532547 5 6
3.209801 0.82772183 -0.76528347 66 1
3.2323875 0.83114016 -0.6487506 104 2
3.2106888 0.82376891 -0.52499413 87 3
3.2384517 0.82908517 -0.410456 11 4
3.2316315 0.82493401 -0.2917974 11 5
3.2304921 0.80665118 -0.64722413 86 2
3.2240288 0.80324423 -0.52624559 78 3
3.2730577 0.8136397 -0.41411206 101 4
3.2450473 0.80427176 -0.29249465 15 5
3.2474935 0.78685069 -0.64951384 86 2
3.2410789 0.78350013 -0.52812284 76 3
3.2477822 0.78332108 -0.41021225 97 4
3.2699547 0.7862553 -0.29423779 47 5
3.2471735 0.7628144 -0.64836901 96 2
3.2541621 0.76265848 -0.5293743 74 3
3.2570374 0.76153362 -0.41069973 83 4
3.2748182 0.74342006 -0.53187722 72 3
3.273891 0.74140733 -0.41216215 81 4
3.2728465 0.72078007 -0.65142196 12 2
3.2906215 0.72108269 -0.41362458 74 4
3.2970004 0.70200384 -0.65523815 97 2
3.2906752 0.69885629 -0.53281587 98 3
3.3131762 0.70121634 -0.41581824 59 4
3.2936568 0.67489439 -0.53250295 106 3
3.3021643 0.65264827 -0.53312874 81 3
3.3221645 0.63253474 -0.53563172 81 3
3.3187273 0.60790259 -0.5343802 71 3
