# .PCD v0.7 - Point Cloud Data file format
VERSION 0.7
FIELDS x y z intensity ring
SIZE 4 4 4 4 2
TYPE F F F F U
COUNT 1 1 1 1 1
WIDTH 141
HEIGHT 1
VIEWPOINT 0 0 0 1 0 0 0
POINTS 141
DATA ascii
3.4755511 -0.50207305 -0.43117377 53 4
3.5352962 -0.51322359 -0.3125405 10 5
3.4738321 -0.52722836 -0.43141752 9 4
3.4504621 -0.54835165 -0.42898014 8 4
3.5258181 -0.56222022 -0.31236616 7 5
3.4504662 -0.57307732 -0.42946759 8 4
3.5197394 -0.58710796 -0.31219187 8 5
3.379214 -0.5836916 -0.54314053 68 3
3.4463816 -0.59715199 -0.42946759 8 4
3.5194809 -0.61234897 -0.3125405 8 5
3.3847775 -0.60901761 -0.54470485 72 3
3.4284537 -0.61872959 -0.42776144 11 4
3.511199 -0.63619399 -0.31219187 8 5
3.4435608 -0.64631128 -0.43019882 63 4
3.4890506 -0.6573711 -0.31062305 12 5
3.3170204 -0.6429612 -0.65676457 10 2
3.3565538 -0.65244794 -0.54157621 8 3
3.4331198 -0.66919661 -0.42946759 8 4
3.4961083 -0.68400836 -0.31166893 76 5
3.3105261 -0.66571552 -0.65638298 92 2
3.3441715 -0.67430323 -0.54032475 9 3
3.4205816 -0.69157422 -0.42849267 8 4
3.4756272 -0.70522928 -0.31027445 8 5
3.54638 -0.72151917 -0.18966553 53 6
3.2981105 -0.68720907 -0.6548565 100 2
3.3490505 -0.69965309 -0.54188907 26 3
3.4078982 -0.71380949 -0.42751768 9 4
3.472569 -0.72988623 -0.31044877 8 5
3.5217135 -0.74214137 -0.18861879 8 6
3.2817175 -0.70773405 -0.65256679 81 2
3.3460152 -0.72343409 -0.54220194 85 3
3.3950717 -0.73590142 -0.42654276 18 4
3.4868574 -0.75834548 -0.31219187 8 5
3.5144954 -0.76628387 -0.18851414 8 6
3.1997125 -0.71111715 -0.75673532 38 1
3.2766967 -0.7306273 -0.65256679 78 2
3.344739 -0.74763769 -0.54282767 83 3
3.3994036 -0.76234889 -0.42776144 74 4
3.4756465 -0.78135878 -0.31166893 76 5
3.5129569 -0.79167897 -0.18872347 8 6
3.1964414 -0.73443174 -0.75718528 94 1
3.3316045 -0.76977396 -0.54157621 41 3
3.3998005 -0.78740621 -0.42849267 76 4
3.4429359 -0.7992962 -0.30922857 75 5
3.1722748 -0.75223279 -0.75268626 78 1
3.2679503 -0.77733022 -0.65294844 71 2
3.3088558 -0.78889096 -0.53876036 7 3
3.4000125 -0.81250602 -0.42922387 14 4
3.4313157 -0.82251936 -0.30870563 73 5
3.5130658 -0.84406096 -0.18935151 88 6
3.1593738 -0.7725094 -0.75088662 84 1
3.2567241 -0.7987228 -0.65180355 90 2
3.3166955 -0.81527233 -0.54095048 28 3
3.3769104 -0.83194894 -0.42703021 8 4
3.4467664 -0.85171175 -0.31062305 13 5
3.4780071 -0.86136395 -0.18778142 75 6
3.1007531 -0.77943063 -0.85669106 25 0
3.165242 -0.7974034 -0.75358605 84 1
3.2434547 -0.81951565 -0.65027708 81 2
3.3090079 -0.83792228 -0.54063755 91 3
3.3652475 -0.85403877 -0.42629901 34 4
3.433013 -0.87378794 -0.30992582 8 5
3.5338016 -0.90338254 -0.063666381 41 7
3.0784039 -0.79670256 -0.8520323 37 0
3.1614845 -0.81997061 -0.75403595 86 1
3.2300544 -0.84016222 -0.6487506 83 2
3.3049891 -0.86150116 -0.54095048 87 3
3.361124 -0.87801343 -0.42654276 76 4
3.4791646 -0.91339082 -0.18851414 10 6
3.5274086 -0.92803085 -0.063666381 15 7
3.0690331 -0.81718016 -0.85099703 14 0
3.1575658 -0.84252411 -0.75448585 79 1
3.2354894 -0.86573642 -0.65104032 83 2
3.2836304 -0.88046044 -0.5384475 73 3
3.3587468 -0.9024871 -0.42703021 77 4
3.3954692 -0.91489649 -0.30765978 78 5
3.5266347 -0.95420086 -0.063771099 57 7
3.0707068 -0.8406263 -0.85306764 67 0
3.1403313 -0.86145425 -0.75178647 82 1
3.2331526 -0.88934451 -0.65180355 66 2
3.2735951 -0.90231299 -0.53782177 69 3
3.3561914 -0.92697042 -0.42751768 76 4
3.4043603 -0.94283301 -0.30905426 81 5
3.4718461 -0.96348053 -0.18882816 80 6
3.1286135 -0.88177085 -0.75043672 86 1
3.2136402 -0.90815705 -0.64913225 100 2
3.3381796 -0.94712722 -0.42605525 67 4
3.3976953 -0.96657681 -0.30905426 81 5
3.4573517 -0.98550498 -0.18840946 84 6
3.0957901 -0.89413917 -0.86342037 1 0
3.124253 -0.90413266 -0.75088662 84 1
3.2053361 -0.93002307 -0.6487506 83 2
3.2644713 -0.94903439 -0.5384475 71 3
3.3257687 -0.96874344 -0.42532405 44 4
3.3985145 -0.99250746 -0.30975151 39 5
3.4350524 -1.0051305 -0.18757208 77 6
3.1216013 -0.92703146 -0.75178647 84 1
3.1912389 -0.95013684 -0.64722413 83 2
3.2729099 -0.97631878 -0.54095048 86 3
3.3246303 -0.99364311 -0.42605525 76 4
3.364783 -1.0082031 -0.30731115 66 5
3.1225102 -0.95107287 -0.75358605 79 1
3.1920388 -0.97468579 -0.6487506 82 2
3.2490137 -0.99394327 -0.53813463 80 3
3.3233061 -1.0185741 -0.42678648 79 4
3.3576624 -1.0316689 -0.30731115 75 5
3.4302282 -1.0559313 -0.18809544 13 6
3.1889036 -0.99811941 -0.64951384 80 2
3.236341 -1.0148281 -0.53719604 68 3
3.3102512 -1.0405432 -0.42605525 73 4
3.3579798 -1.0574784 -0.3080084 76 5
3.0864816 -0.98799056 -0.74818724 10 1
3.238399 -1.0409832 -0.53876036 64 3
3.2991273 -1.0624106 -0.42556778 76 4
3.3543077 -1.082119 -0.308357 83 5
3.0961747 -1.0149773 -0.75223631 87 1
3.174475 -1.0431004 -0.64951384 71 2
3.2310529 -1.063566 -0.53876036 18 3
3.2897449 -1.0847952 -0.42532405 56 4
3.3464785 -1.1060939 -0.308357 78 5
3.1559503 -1.0614815 -0.64722413 95 2
3.2235491 -1.0860969 -0.53876036 68 3
3.2839723 -1.1083699 -0.42556778 77 4
3.3349004 -1.1281527 -0.3080084 67 5
3.1540322 -1.0854048 -0.64836901 81 2
3.2177558 -1.1092187 -0.53907323 93 3
3.279907 -1.132565 -0.42605525 78 4
3.1537855 -1.1100043 -0.64989549 82 2
3.1950295 -1.1264012 -0.53657025 73 3
3.2756641 -1.1567574 -0.42654276 73 4
3.1945214 -1.1513582 -0.53782177 69 3
3.2525713 -1.1742051 -0.42459282 76 4
3.1400239 -1.1540596 -0.65027708 10 2
3.236845 -1.1941351 -0.42361787 73 4
3.1245389 -1.1731924 -0.6487506 11 2
3.1894369 -1.1994658 -0.53969896 8 3
3.1309371 -1.2006005 -0.65180355 97 2
3.162545 -1.2146206 -0.53657025 71 3
3.1613445 -1.2395539 -0.53782177 93 3
3.145278 -1.2586582 -0.53657025 69 3
3.1455584 -1.284319 -0.53813463 56 3
