# .PCD v0.7 - Point Cloud Data file format
VERSION 0.7
FIELDS x y z intensity ring
SIZE 4 4 4 4 2
TYPE F F F F U
COUNT 1 1 1 1 1
WIDTH 1356
HEIGHT 1
VIEWPOINT 0 0 0 1 0 0 0
POINTS 1356
DATA ascii
2.3536479 4.6053743 -1.1940402 4 1
6.9397221 13.567241 0.79864681 13 9
2.8351614 5.5380125 -1.2093475 3 2
6.8354306 13.346109 1.3118682 3 10
3.575563 6.9752574 -1.241464 10 3
6.8613591 13.373717 1.8455895 6 11
5.890347 11.471223 -1.5833267 7 4
6.9096632 13.450524 2.3950119 5 12
6.8864655 13.38239 2.9254837 58 13
6.8207183 13.248924 -0.78095722 13 6
6.9103446 13.41153 3.4831421 48 14
6.7979693 13.182116 -0.25888899 57 7
6.9300609 13.432486 4.0500007 55 15
2.0419939 3.9310079 -1.1869442 5 0
7.0403681 13.547514 0.26649824 8 8
2.3919363 4.5987887 -1.1967396 4 1
7.0587626 13.559752 0.80115891 9 9
2.8773823 5.5250497 -1.210874 3 2
6.956543 13.346324 1.316749 4 10
3.6381764 6.9740119 -1.2458442 15 3
7.0280347 13.466277 1.8650886 11 11
5.9859071 11.459737 -1.5874703 7 4
7.0011606 13.391983 2.3934476 6 12
6.2263079 11.904779 -1.1753824 2 5
7.0152397 13.40182 2.9403667 65 13
6.9431567 13.252852 -0.78409737 13 6
7.0372849 13.42682 3.4997885 48 14
6.9139843 13.180378 -0.25979653 55 7
7.0583196 13.444135 4.0686355 60 15
2.0657794 3.9098227 -1.1848736 6 0
7.1034789 13.433148 0.26524168 4 8
2.4358323 4.6043696 -1.2025883 5 1
7.1495113 13.503086 0.80074024 4 9
2.9260375 5.5216656 -1.2146901 3 2
7.083138 13.360808 1.3230242 4 10
3.6802945 6.9362283 -1.2436541 20 3
7.1521478 13.468236 1.8724008 8 11
6.0760098 11.436951 -1.5901513 8 4
7.1223049 13.395103 2.4028337 6 12
6.3880877 12.004147 -1.1896758 7 5
7.1335411 13.399307 2.9506705 58 13
7.0655575 13.260466 -0.78744686 13 6
7.1680298 13.44146 3.5168848 48 14
7.0378289 13.191777 -0.26098329 57 7
7.1756692 13.438834 4.0820942 60 15
2.0966806 3.9021137 -1.1869442 5 0
7.2652788 13.510035 0.26775482 8 8
2.463299 4.5786729 -1.2003388 4 1
7.2890563 13.537253 0.8057645 9 9
2.9719684 5.5149283 -1.2177432 4 2
7.2244611 13.400475 1.3319141 6 10
3.7267563 6.9068875 -1.2430284 23 3
7.2988153 13.515795 1.8860501 16 11
6.174583 11.42918 -1.595026 8 4
7.2485242 13.405875 2.413784 6 12
6.5760431 12.152006 -1.2088501 6 5
7.2512074 13.394072 2.9605925 58 13
7.1846027 13.259985 -0.79037774 13 6
7.2895637 13.442483 3.5303819 47 14
7.1659884 13.209115 -0.26230967 61 7
7.3006568 13.446136 4.0996938 52 15
2.1192403 3.8789046 -1.184356 4 0
7.3277602 13.401085 0.26660296 2 8
2.4942687 4.5596542 -1.1998889 5 1
9.3150749 17.014339 1.0165738 3 9
3.0160551 5.5043774 -1.2200328 3 2
7.3350768 13.38116 1.3350517 11 10
3.788183 6.9049492 -1.2474086 22 3
7.3796191 13.440149 1.8826377 13 11
6.2637749 11.403198 -1.5974635 11 4
7.4085531 13.476116 2.4356849 9 12
6.6040592 12.002808 -1.1985657 5 5
7.3767266 13.401599 2.9735675 60 13
7.3059168 13.261981 -0.79351783 13 6
7.4095774 13.439048 3.5429792 47 14
7.2812166 13.200787 -0.26314738 55 7
7.4064879 13.416826 4.1064234 41 15
2.1518967 3.8741477 -1.1874619 4 0
9.2263861 16.596991 0.33145609 1 8
2.5364592 4.560864 -1.2048379 4 1
9.4617996 16.999502 1.0196092 6 9
3.0486772 5.4728966 -1.2177432 4 2
7.4603224 13.387058 1.340804 32 10
3.8430319 6.8904114 -1.2495986 23 3
7.5284185 13.487102 1.8965309 13 11
6.3664603 11.400787 -1.6033133 10 4
7.5284739 13.470624 2.4441323 10 12
7.4278526 13.279683 -1.3312168 8 5
7.5074968 13.416592 2.9884505 55 13
7.4295545 13.266417 -0.79686737 13 6
7.5346541 13.443093 3.5578258 48 14
7.3996043 13.196726 -0.26408982 56 7
7.5160398 13.393435 4.1152229 37 15
2.1807885 3.8623953 -1.1884971 4 0
7.6695938 13.572537 0.27211791 11 8
2.5643997 4.5362606 -1.2030382 4 1
7.6624284 13.543298 0.81549895 8 9
3.0887451 5.454896 -1.2185063 4 2
7.5791321 13.379722 1.3453361 39 10
3.8968873 6.873724 -1.2514758 26 3
7.6625638 13.505 1.9065242 15 11
6.4713745 11.400948 -1.6096504 8 4
7.6359992 13.44178 2.4485126 24 12
7.071137 12.4424 -1.2520794 0 5
7.6320457 13.418458 3.0006623 57 13
7.5605178 13.281923 -0.80094957 13 6
7.6539559 13.440599 3.570873 45 14
7.5252137 13.203818 -0.26527658 58 7
7.6218033 13.362452 4.1219521 54 15
2.2067404 3.8453999 -1.1879795 5 0
7.7299352 13.464526 0.27100098 9 8
2.6037753 4.5317636 -1.2066375 5 1
7.8041964 13.57741 0.82073259 11 9
3.1277621 5.4371486 -1.2192695 4 2
7.6991959 13.373104 1.3500425 39 10
3.9504864 6.8590217 -1.2536659 15 3
7.7761154 13.49037 1.9118865 13 11
6.2591739 10.849965 -1.5379913 10 4
7.7490349 13.427135 2.4553957 36 12
6.8140316 11.79751 -1.1919419 1 5
7.7569733 13.419243 3.0128741 57 13
7.6817508 13.283747 -0.80419439 13 6
7.7846894 13.450933 3.5879693 46 14
7.6512871 13.209794 -0.26646334 56 7
7.7416391 13.360408 4.1374817 62 15
2.2367539 3.8369672 -1.19005 6 0
7.9164553 13.569139 0.27421221 11 8
2.6325951 4.51057 -1.2057376 4 1
7.9411101 13.595025 0.82512879 9 9
3.1795156 5.4389091 -1.2246122 3 2
7.8262544 13.382302 1.3563176 39 10
4.0052605 6.8432097 -1.2558562 10 3
7.9262862 13.531679 1.9255358 16 11
6.5617142 11.197599 -1.5935637 7 4
7.8715582 13.422128 2.464469 38 12
7.0807929 12.064095 -1.223841 0 5
7.8799391 13.420312 3.0250859 57 13
7.7985806 13.271125 -0.80670649 13 6
7.9179206 13.46345 3.6059654 44 14
7.7785454 13.221178 -0.26775482 57 7
7.8749118 13.374289 4.1587048 60 15
2.2605326 3.8162715 -1.1884971 4 0
7.9773483 13.456772 0.27306035 4 8
2.6679966 4.498786 -1.2075372 4 1
8.045002 13.554711 0.82607079 6 9
3.2154014 5.4132051 -1.2238491 3 2
7.9591832 13.394137 1.3631158 43 10
4.0640402 6.8337579 -1.2592976 7 3
8.030715 13.493071 1.9279732 12 11
6.7879949 11.400546 -1.6291496 7 4
7.9954057 13.417756 2.473855 39 12
7.1628027 12.010945 -1.2234924 2 5
8.009656 13.425664 3.0388241 57 13
7.9350677 13.290097 -0.81120741 13 6
8.041708 13.458028 3.6194623 44 14
7.909646 13.231774 -0.26908121 57 7
8.007762 13.385298 4.17941 60 15
2.2950895 3.8136392 -1.1926383 4 0
8.1329956 13.503535 0.27515465 8 8
2.6993411 4.4800491 -1.2075372 5 1
8.1064262 13.443489 0.82272136 9 9
3.2652867 5.4107962 -1.2284284 3 2
8.0885334 13.397948 1.3692167 39 10
4.1177793 6.8153634 -1.2611748 3 3
8.1760826 13.521608 1.9401602 5 11
6.8868785 11.380548 -1.633293 5 4
8.1267414 13.42413 2.485431 40 12
7.3961787 12.207732 -1.2487675 0 5
8.1441956 13.431801 3.0533257 61 13
8.0535526 13.277067 -0.81382424 13 6
8.1718655 13.461533 3.635659 44 14
8.0300846 13.217561 -0.26995382 56 7
8.1391344 13.391805 4.1990805 59 15
2.3192968 3.7921741 -1.1910853 6 0
8.2876024 13.545361 0.27717912 8 8
2.738452 4.4722528 -1.2106866 5 1
8.2900839 13.528179 0.83151376 9 9
3.2947729 5.3744779 -1.2253754 4 2
8.2133799 13.387273 1.3740975 38 10
4.163343 6.780673 -1.2602363 2 3
8.2702818 13.464198 1.9401602 5 11
6.9536815 11.3119 -1.6303681 2 4
8.2536469 13.416108 2.4948173 42 12
8.2799892 13.443151 3.0689721 57 13
8.199708 13.302407 -0.8189531 11 6
8.3055429 13.468842 3.6532054 41 14
8.1568213 13.217335 -0.27110568 55 7
8.2652092 13.382528 4.2146096 56 15
2.3508134 3.7840934 -1.1936734 4 0
8.3769274 13.473822 0.2769348 6 8
2.7747555 4.4612985 -1.212936 4 1
8.4117603 13.514064 0.83423519 6 9
3.3372993 5.357429 -1.2269019 4 2
8.3435144 13.388791 1.3801982 42 10
4.2178969 6.7631755 -1.2624264 1 3
8.4788809 13.584862 1.9662402 5 11
7.0524588 11.295072 -1.6349993 1 4
8.3921204 13.430193 2.5082705 44 12
7.6092114 12.16784 -1.2555656 5 5
8.4090405 13.441607 3.0819471 63 13
8.3326445 13.309171 -0.82293069 11 6
8.4441338 13.476768 3.6716511 45 14
8.288187 13.222763 -0.27239716 54 7
8.479579 13.517605 4.2756906 47 15
2.3668635 3.7512522 -1.1884971 4 0
8.4675846 13.409938 0.27683008 4 8
2.804791 4.4401722 -1.2124861 5 1
8.5336494 13.498903 0.83695668 6 9
3.3830199 5.347271 -1.2299548 4 2
8.4826002 13.402609 1.3876938 39 10
4.2650132 6.733562 -1.2624264 2 3
8.6064548 13.577317 1.9737961 6 11
7.0035772 11.044386 -1.6057506 2 4
8.5269499 13.436329 2.5204725 49 12
7.4162512 11.677137 -1.2102447 9 5
8.5405712 13.442231 3.0956852 63 13
8.4532204 13.294494 -0.82565212 11 6
8.5798607 13.483253 3.6896472 43 14
8.4221764 13.230368 -0.27375844 52 7
8.6069593 13.510215 4.2922554 12 15
2.4013326 3.7476501 -1.1926383 4 0
8.5847397 13.387534 0.27759799 5 8
2.8357205 4.4204831 -1.2124861 5 1
8.6729937 13.509592 0.84135288 6 9
3.4234493 5.3284793 -1.2310997 4 2
8.619051 13.410104 1.3946662 46 10
4.3226008 6.7202377 -1.2655549 1 3
8.7332649 13.566976 1.9811082 6 11
7.0074224 10.881735 -1.5891764 8 4
8.6654882 13.446211 2.533613 47 12
7.8323607 12.144126 -1.2642812 2 5
8.6799746 13.453216 3.1120949 59 13
8.5913353 13.305622 -0.83004832 13 6
8.7107944 13.480316 3.7053936 40 14
8.5599375 13.241776 -0.27522445 55 7
8.7482815 13.522792 4.3155494 2 15
2.429543 3.7340336 -1.1936734 4 0
8.7827511 13.488144 0.28094885 8 8
2.8633215 4.3956795 -1.2111365 4 1
8.7976427 13.495558 0.8442837 4 9
3.4573476 5.2995167 -1.2299548 3 2
8.7560177 13.416345 1.4016386 46 10
4.373733 6.6965127 -1.2668065 1 3
8.8321123 13.512322 1.9820831 6 11
7.0680113 10.809289 -1.5857641 10 4
8.7926807 13.436627 2.5433118 46 12
7.9365935 12.119155 -1.2674187 7 5
8.8134928 13.453053 3.1262147 57 13
8.7212429 13.302112 -0.8336072 11 6
8.8485231 13.485977 3.7238398 44 14
8.6905737 13.24021 -0.27644613 56 7
8.8849001 13.525975 4.3362546 4 15
2.4544873 3.7153697 -1.1931559 6 0
8.8733921 13.421495 0.28084412 6 8
2.9046874 4.3918381 -1.2156355 4 1
8.9070787 13.457127 0.84574908 6 9
3.4985976 5.2817974 -1.2314813 4 2
8.8890886 13.414681 1.4079139 40 10
4.4269266 6.6756926 -1.2686837 1 3
8.9822121 13.534687 1.9945139 6 11
7.1023488 10.693944 -1.5762583 13 4
8.9354639 13.448956 2.5573912 47 12
8.2714233 12.440072 -1.3069874 5 5
8.9650011 13.472998 3.1456771 54 13
8.859273 13.309069 -0.83789873 14 6
8.9910755 13.496857 3.7440853 41 14
8.82059 13.230925 -0.27756307 51 7
9.0155554 13.518262 4.3538542 2 15
2.4788585 3.6945024 -1.1921207 6 0
9.0181398 13.435596 0.28244972 6 8
2.9436464 4.3822637 -1.2187848 5 1
9.0711184 13.494156 0.85213417 4 9
3.5463398 5.2735376 -1.2352976 3 2
9.0248985 13.410233 1.414189 42 10
4.4767909 6.64712 -1.2693094 1 3
9.1397076 13.56549 2.0084071 6 11
7.1779423 10.645745 -1.576502 21 4
9.0789766 13.455084 2.5708442 43 12
8.0949984 11.992298 -1.2658501 7 5
9.1005964 13.471907 3.1601787 60 13
9.0158052 13.336337 -0.84365571 12 6
9.1276579 13.496715 3.7616315 43 14
8.9609404 13.240234 -0.27906397 61 7
12.138941 17.922407 5.8001351 2 15
2.5067656 3.6802995 -1.1931559 6 0
9.1816311 13.46986 0.28454405 5 8
2.9664838 4.3503361 -1.2156355 4 1
9.2788086 13.597123 0.86270601 9 9
3.5961645 5.2658591 -1.2394953 5 2
9.1677532 13.419288 1.4218588 42 10
4.5297732 6.6254907 -1.2711866 1 3
9.2656898 13.542336 2.0147443 6 11
7.2767506 10.631415 -1.5818642 17 4
9.22293 13.464707 2.5849233 47 12
9.1381273 13.330918 -1.4140148 31 5
9.2332926 13.46471 3.1735351 57 13
9.1358137 13.312593 -0.84616786 12 6
9.2802629 13.512983 3.7845767 41 14
9.1018467 13.248224 -0.28056487 57 7
12.265947 17.840416 5.8011703 2 15
2.541189 3.6754208 -1.197297 5 0
9.3391552 13.497524 0.2864987 6 8
2.9990029 4.3327236 -1.2165353 5 1
9.4110317 13.586198 0.86616015 9 9
3.6294837 5.2357841 -1.2383504 4 2
9.3111629 13.426999 1.4295285 43 10
4.5781698 6.5969505 -1.2718123 1 3
9.3962421 13.529492 2.0225437 11 11
7.3553257 10.586878 -1.5828393 8 4
9.3674507 13.472975 2.5990024 44 12
8.6858921 12.48342 -1.3305196 7 5
9.3764191 13.47082 3.1903267 56 13
9.2764702 13.317324 -0.85056406 12 6
9.4200706 13.513405 3.8030224 43 14
9.246726 13.259815 -0.2821705 60 7
12.392418 17.757509 5.8022056 2 15
2.5634556 3.6528478 -1.195744 4 0
9.4526968 13.459817 0.28709209 9 8
3.0347769 4.3196549 -1.2187848 5 1
9.4907188 13.498924 0.86479938 9 9
3.6648209 5.2087107 -1.2379688 5 2
9.4528389 13.430097 1.4368495 43 10
4.6332178 6.5777469 -1.2743154 1 3
9.5556517 13.556052 2.036437 15 11
7.4038939 10.499576 -1.5774769 2 4
9.500001 13.46213 2.6096401 44 12
7.6453395 10.825929 -1.15952 3 5
9.5302668 13.490021 3.2105522 60 13
9.4222536 13.327256 -0.85537893 12 6
9.562582 13.515718 3.8223684 41 14
9.3771954 13.248802 -0.28332236 58 7
12.517203 17.672138 5.8027234 2 15
2.5944979 3.6427298 -1.1983322 5 0
9.6450891 13.531909 0.290059 9 8
3.0671227 4.3015366 -1.2196846 5 1
9.6949358 13.586788 0.87474328 9 9
3.7056565 5.1893911 -1.2394953 5 2
9.5926933 13.428626 1.4438219 37 10
4.6882133 6.5580978 -1.2768183 1 3
9.658143 13.500313 2.0381432 7 11
7.4654565 10.431491 -1.5750395 1 4
9.6466608 13.469353 2.624032 44 12
8.7606926 12.223274 -1.315703 0 5
9.6756916 13.494957 3.227725 55 13
9.570962 13.33904 -0.86040318 12 6
9.7067108 13.518282 3.8421638 43 14
9.5172968 13.249597 -0.28475344 50 7
9.8810558 13.745893 4.5360627 8 15
2.6096807 3.6104367 -1.1936734 4 0
9.7440119 13.470724 0.29019859 12 8
3.1005056 4.2847557 -1.2210344 4 1
9.7836981 13.510686 0.87421989 16 9
3.7464027 5.1697531 -1.2410218 5 2
9.7329845 13.425853 1.4507943 42 10
4.738523 6.5316038 -1.2780697 2 3
9.8396263 13.553035 2.0564234 24 11
7.5054374 10.334146 -1.5682149 1 4
9.797368 13.479979 2.6393628 39 12
8.7063465 11.970079 -1.29496 0 5
9.8204918 13.496929 3.2445164 56 13
9.7167511 13.344559 -0.86511344 14 6
9.8628225 13.535236 3.8664589 46 14
9.6625729 13.255548 -0.28632417 48 7
9.8948069 13.564203 4.4987926 27 15
2.6428192 3.6030354 -1.197297 5 0
9.7975874 13.347562 0.28901187 30 8
3.1234207 4.2535825 -1.2183349 5 1
9.8352041 13.384112 0.87045169 43 9
3.7986867 5.1656156 -1.2463645 5 2
9.8347425 13.36881 1.4520146 32 10
4.7769794 6.4888186 -1.2761924 1 3
9.8668909 13.392913 2.0425303 41 11
7.5632677 10.26232 -1.56529 1 4
9.8806829 13.396942 2.6365466 41 12
8.8938198 12.050073 -1.3102994 0 5
9.8911562 13.396453 3.2368839 49 13
9.7788181 13.234632 -0.86239195 32 6
9.9200001 13.415909 3.8520617 37 14
9.7917366 13.23761 -0.28740624 36 7
9.9168501 13.396972 4.4661818 46 15
2.6759844 3.5953438 -1.2009205 4 0
9.8069153 13.166575 0.28656849 34 8
3.1542065 4.2332344 -1.2187848 5 1
9.8352795 13.190234 0.86228722 40 9
3.8381767 5.1436915 -1.2475092 4 2
9.8467913 13.191256 1.4401615 28 10
4.8268895 6.4616432 -1.277444 1 3
9.8662548 13.198099 2.0232751 40 11
7.6418562 10.21881 -1.5667524 1 4
9.8899374 13.215346 2.6143329 40 12
9.7623997 13.035437 -1.4248221 33 5
9.905571 13.2218 3.2113154 47 13
9.783515 13.049386 -0.85475093 34 6
9.9210339 13.22318 3.8165197 37 14
9.8082895 13.068171 -0.28520724 47 7
9.92661 13.216191 4.4289117 50 15
2.7068408 3.5842826 -1.2035086 5 0
9.8190165 12.992502 0.28426477 52 8
3.1919098 4.221992 -1.2219341 4 1
9.835537 13.000206 0.85433227 61 9
3.8704405 5.1120734 -1.2463645 5 2
9.8664618 13.0269 1.4297028 57 10
4.8862047 6.4466777 -1.2811985 1 3
9.8873758 13.035583 2.0088944 62 11
7.6938167 10.139904 -1.5628526 1 4
9.9031143 13.042145 2.5936837 48 12
9.8073521 12.906687 -1.4181982 46 5
9.9180355 13.047606 3.1857471 66 13
9.8223763 12.912418 -0.85025001 50 6
9.9351969 13.051262 3.7868261 43 14
9.8435488 12.926201 -0.28360158 56 7
9.9553976 13.063601 4.4009595 62 15
2.7294464 3.5622327 -1.2024734 6 0
9.9642363 12.995044 0.2858355 38 8
3.2248631 4.2042456 -1.2232838 6 1
9.9844294 13.00727 0.85935646 50 9
3.9179947 5.1004972 -1.2501806 5 2
10.023935 13.044592 1.4392898 20 10
4.9455423 6.4311991 -1.2849529 1 3
10.074986 13.092098 2.0283935 21 11
7.757153 10.076507 -1.5613902 1 4
10.054195 13.050939 2.6093271 7 12
9.9312868 12.882082 -1.423079 6 5
10.091605 13.085322 3.212079 15 13
10.095157 13.071035 3.8129203 9 14
2.753063 3.5415654 -1.2019557 4 0
10.084189 12.96304 0.28667322 30 8
3.2637103 4.193933 -1.2268831 5 1
10.115496 12.989244 0.86281061 40 9
3.9631593 5.0854106 -1.2532336 4 2
10.128242 12.991575 1.4412074 37 10
4.9903164 6.3965182 -1.2849529 1 3
10.178357 13.03709 2.0308311 44 11
7.8346381 10.031496 -1.5628526 1 4
10.186421 13.033347 2.6199648 34 12
10.087261 12.89718 -1.4324918 39 5
10.196019 13.031559 3.2162766 50 13
10.116221 12.920261 -0.85998452 54 6
10.225054 13.03581 4.4392643 34 15
2.7801135 3.5252929 -1.202991 4 0
10.337961 13.099535 0.29128066 9 8
3.2880795 4.1649275 -1.2250834 5 1
10.489457 13.277199 0.8867805 19 9
4.0034366 5.0637789 -1.25476 4 2
10.567219 13.361238 1.4903631 8 10
5.0348516 6.3615236 -1.2849529 2 3
10.675853 13.479233 2.1112647 9 11
7.90448 9.9765558 -1.5628526 1 4
10.699351 13.494378 2.7275918 48 12
10.55724 13.305601 -1.4860054 29 5
10.723709 13.510564 3.3528957 58 13
10.550272 13.282532 -0.8889786 16 6
10.766553 13.545126 3.9946809 40 14
10.636065 13.376158 -0.29829654 16 7
2.8179319 3.5223916 -1.2086849 5 0
10.727853 13.400137 0.29962292 9 8
3.317076 4.1418705 -1.2250834 5 1
10.763007 13.42963 0.90195799 13 9
4.0485168 5.0479589 -1.257813 4 2
10.792401 13.451869 1.5088401 11 10
5.074193 6.3200569 -1.2837014 1 3
10.825645 13.474011 2.1222329 14 11
7.9440918 9.8839951 -1.5570029 1 4
10.863868 13.507093 2.7454252 46 12
10.749807 13.355746 -1.4999503 36 5
10.887951 13.522532 3.3746481 55 13
10.753014 13.34542 -0.89818978 10 6
10.922021 13.545479 4.0171762 42 14
10.799489 13.388745 -0.30025119 18 7
10.965442 13.584767 4.6778955 4 15
2.8339326 3.4921324 -1.2050616 4 0
10.892997 13.413397 0.3016125 11 8
3.3508263 4.1246624 -1.2268831 5 1
10.916975 13.42855 0.90698218 11 9
4.083662 5.0195694 -1.257813 4 2
10.947677 13.451919 1.5173815 12 10
5.1481328 6.3212361 -1.2912103 1 3
10.990925 13.485821 2.136126 10 11
7.9928355 9.8036728 -1.553103 1 4
11.016586 13.502864 2.7601302 44 12
10.915869 13.369885 -1.5100603 38 5
11.050389 13.529826 3.3956373 60 13
10.924284 13.365903 -0.90467948 10 6
11.057034 13.518677 4.032023 26 14
10.952213 13.385765 -0.30189171 16 7
11.150579 13.618492 4.7162008 6 15
2.8606989 3.475246 -1.2060968 6 0
11.05121 13.415744 0.30339265 12 8
3.3869755 4.1101918 -1.2295824 5 1
11.068904 13.422895 0.91179711 11 9
4.1286001 5.0030537 -1.2608659 5 2
11.102197 13.448916 1.5257484 10 10
5.2097487 6.3064647 -1.2955904 1 3
11.1569 13.495969 2.1500192 20 11
8.0610781 9.7476368 -1.553103 1 4
11.174814 13.503236 2.7760863 47 12
10.349401 12.496943 -1.4195926 15 5
11.214713 13.537012 3.4170077 54 13
11.081073 13.366187 -0.90991306 10 6
11.168557 13.462157 4.0383215 33 14
11.11692 13.395146 -0.30384642 21 7
11.313262 13.622059 4.7446709 1 15
2.8910801 3.4626057 -1.2086849 6 0
11.204869 13.410382 0.30503315 16 8
3.4205849 4.0924292 -1.2313821 5 1
11.239235 13.437208 0.91807747 11 9
4.1697278 4.981636 -1.262774 4 2
11.263616 13.45204 1.534987 11 10
5.2485738 6.2638836 -1.2943389 2 3
11.319722 13.49989 2.1631808 9 11
8.1493464 9.715457 -1.5570029 1 4
11.341204 13.511133 2.7939198 45 12
10.455612 12.447276 -1.4222074 5 5
11.369572 13.530538 3.4353254 60 13
11.243522 13.371052 -0.91556531 10 6
11.338804 13.474813 4.0657654 43 14
11.270683 13.389115 -0.30548695 12 7
13.922195 16.52729 5.7902999 1 15
2.9151831 3.4423378 -1.2086849 5 0
11.373203 13.420315 0.30705765 18 8
3.4465518 4.0654764 -1.2304822 5 1
11.407709 13.44675 0.92414844 13 9
4.2018633 4.9494114 -1.2620108 3 2
11.426898 13.455083 1.5443997 8 10
5.2972937 6.2331104 -1.2955904 1 3
11.481853 13.50068 2.1760993 9 11
8.188674 9.6250639 -1.5516406 1 4
11.513366 13.523379 2.8130047 46 12
11.398919 13.379487 -1.5377759 42 5
11.531249 13.530026 3.4555511 55 13
11.396214 13.362133 -0.92038018 12 6
11.505974 13.481295 4.0918598 43 14
11.432699 13.390707 -0.30733687 12 7
14.032217 16.423817 5.788229 1 15
2.944181 3.4277627 -1.2107556 5 0
11.538308 13.423993 0.3089774 18 8
3.4697702 4.0354037 -1.2286826 5 1
11.569047 13.445507 0.92959136 21 9
4.2401552 4.9244213 -1.2631556 5 2
11.605073 13.473104 1.55573 12 10
5.3484149 6.2049565 -1.2974676 1 3
11.645843 13.501363 2.189261 11 11
8.2401037 9.5496302 -1.5487157 1 4
11.681085 13.527892 2.8308384 48 12
11.546759 13.362899 -1.545097 34 5
11.705026 13.54128 3.4792116 56 13
11.567619 13.372881 -0.92666054 10 6
11.668684 13.480205 4.1161542 43 14
11.604446 13.401268 -0.30943117 11 7
14.146535 16.325453 5.788229 1 15
2.9693084 3.4085815 -1.2112732 6 0
11.711894 13.435068 0.31110659 18 8
3.5029812 4.0169563 -1.2304822 5 1
11.73748 13.450194 0.93555766 17 9
4.2899299 4.9124427 -1.2677351 4 2
11.767005 13.469787 1.5647942 10 10
5.4059072 6.1838226 -1.3009092 2 3
11.818238 13.509376 2.2038856 16 11
8.2804308 9.4619904 -1.5438409 1 4
11.842916 13.52329 2.8471076 48 12
10.884702 12.420378 -1.4448678 8 5
11.876926 13.547809 3.5021083 56 13
11.737085 13.378883 -0.93273151 12 6
11.847362 13.495068 4.1458478 40 14
11.767652 13.399568 -0.31128111 11 7
12.04628 13.70717 4.8896093 1 15
2.9917519 3.3863227 -1.2107556 6 0
11.879577 13.436874 0.3130613 13 8
3.5361013 3.9982438 -1.2322818 6 1
11.91316 13.460651 0.94204724 17 9
4.321517 4.8794341 -1.2669718 4 2
11.926817 13.461874 1.5735097 8 10
5.4633622 6.1621909 -1.3043507 1 3
11.986034 13.509701 2.2175348 9 11
8.3331089 9.3891048 -1.5414037 1 4
12.013113 13.525949 2.8652539 47 12
10.927475 12.294936 -1.4391156 1 5
12.059918 13.564339 3.5280588 50 13
11.893932 13.368235 -0.93775576 8 6
11.928749 13.39324 -0.3130613 11 7
14.375669 16.12923 5.7892647 1 15
3.0050063 3.353843 -1.2066144 6 0
12.043851 13.432514 0.31491122 12 8
3.5769401 3.9879665 -1.2367809 6 1
12.082893 13.461871 0.9480136 11 9
4.3620334 4.8564501 -1.2688799 4 2
12.108402 13.476089 1.5850143 10 10
5.5141706 6.1327152 -1.3062279 2 3
12.159722 13.514233 2.2321589 10 11
8.379858 9.3100481 -1.5379913 1 4
12.194503 13.538626 2.8859031 45 12
11.72937 13.013073 -1.5327208 9 5
12.229259 13.562923 3.5498106 52 13
12.088657 13.397571 -0.94571084 10 6
16.47888 18.250357 5.6768651 1 14
12.110426 13.407576 -0.31536499 11 7
14.472368 16.011284 5.7830534 1 15
3.0387392 3.3442221 -1.2107556 5 0
12.223428 13.4428 0.31714514 15 8
3.5915813 3.9484818 -1.2322818 5 1
12.259929 13.468768 0.95450324 11 9
4.3997979 4.8302331 -1.2700247 5 2
12.290423 13.483335 1.5961703 10 10
5.5728226 6.1115856 -1.3099824 1 3
12.334063 13.516989 2.2467835 16 11
8.4194927 9.2205267 -1.5331165 1 4
12.372663 13.545042 2.9056141 47 12
11.137053 12.183818 -1.4441707 9 5
12.405505 13.561983 3.5727079 56 13
12.251645 13.384385 -0.95094436 10 6
16.608522 18.137741 5.6777649 1 14
12.291169 13.413455 -0.31756398 10 7
14.586573 15.907311 5.7830534 1 15
3.0730686 3.3337538 -1.2148967 5 0
12.399305 13.441708 0.31920451 10 8
3.6171012 3.9198158 -1.2313821 5 1
12.434584 13.465798 0.96057421 11 9
4.4529033 4.8188124 -1.2753674 6 2
12.471807 13.487206 1.6071519 12 10
5.6217785 6.0773506 -1.3112338 2 3
12.511376 13.515795 2.2614079 12 11
8.4393921 9.110528 -1.5248294 1 4
12.559231 13.553236 2.9265761 46 12
11.394648 12.287887 -1.4661338 7 5
12.591708 13.569284 3.5982764 54 13
12.431372 13.387112 -0.95743406 12 6
16.732582 18.012716 5.6759648 1 14
12.46989 13.414499 -0.31969318 10 7
14.710555 15.813842 5.7871938 1 15
3.0994849 3.3145001 -1.215932 6 0
12.581254 13.444622 0.3214035 12 8
3.6477215 3.8966773 -1.2322818 6 1
12.618012 13.469761 0.96727324 19 9
4.4751878 4.7739334 -1.2719328 4 2
12.65016 13.489916 1.6179591 8 10
5.6759377 6.048491 -1.3137368 1 3
12.698818 13.522872 2.2777381 10 11
8.4864807 9.0340261 -1.5219045 1 4
12.739772 13.552258 2.9459741 46 12
12.136193 12.901159 -1.5496291 9 5
12.774933 13.575411 3.6234632 59 13
12.613524 13.394517 -0.96423781 12 6
12.889026 13.67751 4.3388557 1 14
12.652389 13.421703 -0.32196197 10 7
12.91301 13.688594 5.0423126 2 15
3.1105833 3.2801661 -1.2112732 4 0
12.769787 13.456547 0.32381195 12 8
3.6909347 3.8880782 -1.2376807 4 1
12.797029 13.471121 0.97376287 14 9
4.5165229 4.751112 -1.2742226 4 2
12.834644 13.496562 1.6294638 11 10
5.72892 6.0201664 -1.3162397 2 3
12.880529 13.525891 2.2933376 10 11
8.5192194 8.9429379 -1.5165422 1 4
12.915855 13.548777 2.9647465 47 12
11.935788 12.511934 -1.5128495 15 5
12.953428 13.573952 3.6471233 54 13
12.785351 13.388463 -0.970204 12 6
13.008434 13.612554 4.3469543 1 14
12.8204 13.411101 -0.32384688 10 7
13.038974 13.630219 5.0542188 4 15
3.134748 3.2597613 -1.2117908 6 0
12.946616 13.453523 0.32590625 14 8
3.7152877 3.859406 -1.2367809 6 1
12.996073 13.490771 0.981718 11 9
4.5523047 4.7222939 -1.2749858 4 2
13.007389 13.488379 1.6393995 8 10
5.7653189 5.97434 -1.3149883 1 3
13.078066 13.542735 2.3116179 42 11
8.5593739 8.8604059 -1.5126424 1 4
13.100744 13.552012 2.9853957 49 12
12.266655 12.680331 -1.5435282 8 5
13.14208 13.580536 3.673455 51 13
12.977157 13.400747 -0.97763574 12 6
13.207581 13.629157 4.3815966 2 14
13.011146 13.421777 -0.32629019 10 7
13.229324 13.6373 5.0909705 5 15
3.1628239 3.243329 -1.2138613 6 0
13.128204 13.45298 0.32810524 19 8
3.7448635 3.8361635 -1.2376807 5 1
13.182047 13.494013 0.98862636 11 9
4.5865364 4.6917996 -1.2753674 5 2
13.204315 13.502658 1.6522985 12 10
5.7875476 5.9141774 -1.310608 1 3
13.259794 13.540455 2.3269734 45 11
8.6432524 8.8231182 -1.5165422 1 4
13.293217 13.560376 3.0076096 48 12
11.876307 12.106545 -1.4837393 5 5
13.328702 13.58234 3.6990235 52 13
13.159951 13.401031 -0.98433477 12 6
13.411673 13.64782 4.4175887 2 14
13.204055 13.43187 -0.32876843 12 7
13.421745 13.643773 5.1282406 6 15
3.1840296 3.2197974 -1.2133437 4 0
13.328703 13.469026 0.33075804 16 8
3.7688096 3.8071578 -1.2367809 5 1
13.368701 13.495305 0.99553466 14 9
4.6371474 4.6777906 -1.2803285 6 2
13.396463 13.509176 1.6645004 8 10
5.8620896 5.90728 -1.318117 1 3
13.447711 13.541935 2.3433039 43 11
8.6682653 8.7259455 -1.510205 1 4
13.496182 13.57652 3.0320129 48 12
12.026586 12.089721 -1.4919319 5 5
13.521516 13.58777 3.7261183 50 13
13.349027 13.405061 -0.9914524 12 6
13.586409 13.633919 4.4436831 2 14
13.393513 13.435658 -0.33114195 10 7
13.606717 13.640007 5.162405 5 15
3.216006 3.2070394 -1.2169672 6 0
13.521568 13.474445 0.33320135 13 8
3.8063419 3.7917566 -1.2403802 5 1
13.560266 13.498864 1.0027571 16 9
4.6641221 4.6397672 -1.2788019 4 2
13.603477 13.527708 1.6784453 10 10
5.9171963 5.8801379 -1.3212456 1 3
13.640522 13.545634 2.3603656 44 11
8.7064276 8.6428452 -1.5063052 1 4
13.684596 13.575178 3.0529754 49 12
12.276245 12.169579 -1.5123265 3 5
13.724818 13.600829 3.7558844 48 13
13.554401 13.422564 -0.99972153 14 6
13.785148 13.641541 4.4774261 2 14
13.576548 13.430424 -0.33334094 10 7
13.807398 13.649258 5.2022629 1 15
3.2391381 3.1864288 -1.2174848 6 0
13.721345 13.488642 0.33585411 11 8
3.8348432 3.7684913 -1.2412798 5 1
13.754429 13.507011 1.0102934 16 9
4.7054048 4.6175375 -1.2814733 6 2
13.794795 13.532472 1.690647 8 10
5.9627295 5.8452525 -1.3224971 1 3
13.843018 13.560826 2.3793771 44 11
8.738183 8.5540791 -1.5014304 1 4
13.874099 13.577046 3.0745635 47 12
12.526879 12.250115 -1.5328952 9 5
13.927561 13.61033 3.785269 48 13
13.739738 13.422112 -1.0066299 14 6
13.775903 13.438646 -0.33592394 11 7
15.435209 15.052072 5.7768416 2 15
3.2549229 3.1564445 -1.2148967 10 0
13.898456 13.473248 0.33787858 11 8
3.8645113 3.7436652 -1.2421798 4 1
13.955489 13.509651 1.0179344 11 9
4.7516351 4.598228 -1.2852895 5 2
13.992968 13.531749 1.7030232 11 10
6.0214481 5.8189106 -1.3262516 1 3
14.043003 13.565915 2.397414 44 11
8.7976894 8.4928675 -1.5014304 1 4
14.078954 13.581643 3.0983415 43 12
12.550426 12.102892 -1.5253998 8 5
14.116955 13.60404 3.8108373 54 13
13.939013 13.423196 -1.0141662 14 6
17.627762 16.969494 5.6489711 1 14
13.977465 13.446127 -0.33854178 11 7
15.548094 14.94659 5.7789121 1 15
3.2852569 3.1416547 -1.2180026 42 0
14.117398 13.49088 0.3408455 14 8
3.8849163 3.7112103 -1.2403802 5 1
14.167926 13.524981 1.0265175 11 9
4.7886806 4.5681715 -1.2864343 6 2
14.203888 13.545105 1.7171425 7 10
6.0619278 5.7767286 -1.3262516 1 3
14.246099 13.566381 2.4154506 42 11
8.8136358 8.3901749 -1.4941182 1 4
14.296508 13.60012 3.125248 51 12
12.714689 12.086901 -1.5348126 8 5
14.319737 13.607943 3.8398404 54 13
14.130871 13.419081 -1.021284 16 6
14.662925 13.91459 4.6668344 5 14
14.187056 13.458317 -0.34133416 11 7
14.66084 13.898031 5.4129419 7 15
3.3155429 3.1265955 -1.2211083 37 0
14.326202 13.500344 0.34360299 13 8
3.9192414 3.6920156 -1.2430795 5 1
14.372522 13.529792 1.0344726 13 9
4.8247437 4.5386662 -1.2875792 6 2
14.414213 13.554811 1.7310873 7 10
6.0934691 5.7261539 -1.3243743 1 3
14.447546 13.567152 2.4334872 42 11
8.8083105 8.2686644 -1.4833938 1 4
14.506361 13.608097 3.1502776 51 12
12.878714 12.072779 -1.5443997 8 5
14.530428 13.616379 3.8707516 50 13
14.343759 13.43204 -1.0298671 14 6
14.637336 13.697383 4.6281428 4 14
14.406264 13.476423 -0.344336 12 7
14.653069 13.697723 5.3746367 3 15
3.3401175 3.106005 -1.2221435 37 0
14.538763 13.510252 0.34643027 19 8
3.9506304 3.6698713 -1.2448791 5 1
14.580809 13.535103 1.042637 37 9
4.8591909 4.5075431 -1.2883424 6 2
14.622452 13.559513 1.7446836 31 10
6.1622748 5.7103267 -1.3306317 1 3
14.648229 13.564424 2.4512801 51 11
8.8658218 8.2069693 -1.4833938 1 4
14.654665 13.556126 3.161854 55 12
12.980237 11.99881 -1.5464915 7 5
14.687137 13.5719 3.8871613 60 13
14.532553 13.419652 -1.0366707 38 6
14.698232 13.563144 4.6173453 39 14
14.552903 13.424336 -0.34559253 38 7
14.727034 13.575451 5.3668718 42 15
3.3588727 3.0799994 -1.2211083 37 0
14.575229 13.355735 0.34506899 40 8
3.9876506 3.6527314 -1.2484783 4 1
14.610125 13.373645 1.0380315 65 9
4.8905387 4.4735122 -1.2883424 5 2
14.618243 13.367017 1.7330047 33 10
6.2078233 5.6724968 -1.3318831 1 3
14.667817 13.393558 2.4388494 44 11
8.9199696 8.1421976 -1.4829062 1 4
14.655543 13.368287 3.1418302 55 12
13.140256 11.977693 -1.5555557 10 5
14.691555 13.387051 3.8635008 55 13
14.535803 13.235843 -1.0302857 42 6
14.707521 13.382819 4.5908012 44 14
14.548636 13.233603 -0.34328881 45 7
14.732819 13.391743 5.3347783 57 15
3.3774285 3.0538819 -1.220073 41 0
14.580569 13.174563 0.34300959 48 8
4.0217328 3.6326389 -1.2511778 4 1
14.611212 13.188349 1.0315418 58 9
4.9274817 4.4445205 -1.2898688 5 2
14.620946 13.18325 1.7223718 31 10
6.2531414 5.6343122 -1.3331347 1 3
14.672451 13.211132 2.4242251 43 11
8.9500332 8.0558252 -1.4785191 1 4
14.672143 13.196953 3.125561 55 12
13.382106 12.028173 -1.5742069 10 5
14.685352 13.194932 3.8375509 60 13
14.562463 13.075331 -1.0256802 54 6
14.729521 13.216045 4.5687561 49 14
14.572193 13.070293 -0.34168321 58 7
14.733883 13.20604 5.3016496 65 15
3.4073169 3.0379441 -1.2231789 43 0
14.6483 13.051167 0.34245113 48 8
4.0382643 3.5966966 -1.2484783 5 1
14.704413 13.087358 1.0316465 53 9
4.9715953 4.421752 -1.2933035 6 2
14.772179 13.133817 1.7293442 31 10
6.298233 5.5957646 -1.3343862 1 3
14.865267 13.197999 2.4407995 46 11
8.9912119 7.9799647 -1.4760816 1 4
14.913181 13.226583 3.1571608 58 12
13.696862 12.139296 -1.6012254 14 5
14.935816 13.232694 3.8787656 62 13
14.784979 13.089861 -1.0348912 70 6
14.99657 13.267844 4.6227441 51 14
14.824855 13.111325 -0.34545293 63 7
14.992186 13.24998 5.3611779 58 15
3.4415004 3.0255625 -1.2278377 30 0
14.875767 13.068686 0.34562746 65 8
4.0603452 3.5658469 -1.2475786 5 1
14.915514 13.089775 1.0400202 60 9
5.0185804 4.4011755 -1.2975012 5 2
14.951903 13.107859 1.7396286 26 10
6.3520036 5.5646749 -1.3375148 2 3
14.989896 13.122671 2.4461615 43 11
9.012228 7.8840523 -1.4702318 1 4
15.043814 13.155966 3.1652954 27 12
13.800785 12.060414 -1.6034913 12 5
15.052306 13.144848 3.8844898 45 13
14.888047 12.996823 -1.0357287 22 6
15.100579 13.173074 4.6263437 26 14
14.927343 13.01279 -0.34566239 17 7
15.125102 13.180528 5.3756719 21 15
3.4791226 3.0147746 -1.2335316 7 0
4.100492 3.5494542 -1.2520776 4 1
5.0343313 4.3531923 -1.2936851 6 2
6.4006314 5.5268245 -1.3393921 1 3
15.752855 13.597507 2.5551128 39 11
9.0520172 7.8079767 -1.4677945 1 4
15.810882 13.628345 3.3060863 43 12
14.124635 12.17056 -1.6312069 18 5
15.744748 13.556979 4.0386634 44 13
15.624098 13.4436 -1.0802143 12 6
15.884363 13.643424 5.6106796 49 15
3.4824595 2.9753535 -1.22732 6 0
16.0734 13.723146 0.36890897 3 8
4.1251717 3.520741 -1.2520776 5 1
15.904476 13.564519 1.0954963 13 9
5.0788012 4.3285179 -1.2971196 6 2
16.044165 13.669137 1.8440411 10 10
6.4390574 5.482008 -1.3393921 1 3
15.984316 13.598915 2.5768056 43 11
9.0851336 7.7265916 -1.4643822 1 4
16.039604 13.631484 3.3339317 45 12
14.311595 12.154298 -1.6427114 10 5
15.854649 13.450474 -1.0896348 10 6
18.788879 15.928503 5.6867623 1 14
15.908499 13.48184 -0.36398739 4 7
16.117796 13.649562 5.6593375 48 15
3.5031466 2.9509687 -1.22732 5 0
16.265202 13.691722 0.371108 5 8
4.1645613 3.5044034 -1.2565767 4 1
16.121078 13.555988 1.1038702 38 9
5.1119027 4.2954817 -1.2978829 4 2
16.235306 13.637536 1.8550228 7 10
6.4983549 5.4547014 -1.3437722 1 3
16.218786 13.604361 2.5992296 43 11
9.138854 7.6629772 -1.4643822 1 4
16.276709 13.638433 3.3633416 48 12
14.347209 12.013164 -1.6371334 9 5
16.43082 13.752916 4.164979 1 13
16.092167 13.45992 -1.099474 8 6
16.510258 13.79983 4.9678192 1 14
16.151075 13.494826 -0.36737317 4 7
16.341709 13.644424 5.7043719 49 15
3.5325782 2.9338472 -1.2304258 3 0
16.415787 13.62381 0.37236455 9 8
4.1829257 3.4702663 -1.254777 4 1
16.356783 13.560385 1.1134999 45 9
5.1432776 4.2609415 -1.2982645 5 2
16.420654 13.598838 1.8653071 4 10
6.5241022 5.3991261 -1.3412693 1 3
16.457165 13.609716 2.6221409 43 11
9.1707087 7.5812821 -1.4609698 1 4
16.523817 13.650275 3.3946283 48 12
14.591493 12.049704 -1.6556104 18 5
19.030983 15.70468 4.796175 2 13
16.305933 13.446361 -1.1076384 6 6
16.712072 13.776375 5.0002117 1 14
16.405415 13.51397 -0.37100327 6 7
16.58572 13.652783 5.7561359 49 15
3.5753965 2.9274702 -1.2381904 6 0
16.518967 13.520629 0.37260887 13 8
4.2040343 3.4385123 -1.2538772 4 1
16.597137 13.570105 1.1235484 45 9
5.1782432 4.2308021 -1.299791 6 2
16.627855 13.575851 1.8780318 6 10
6.5851879 5.374577 -1.3462751 1 3
16.692488 13.614062 2.6448088 41 11
9.2111025 7.50704 -1.4590199 1 4
16.771027 13.663502 3.426228 45 12
14.860669 12.098491 -1.6765277 12 5
16.845106 13.704301 4.221077 3 13
16.525694 13.439651 -1.1163261 6 6
16.912193 13.74417 5.0312552 2 14
16.609571 13.488613 -0.37348151 9 7
16.835751 13.667418 5.8104877 46 15
3.6072631 2.912776 -1.2423315 11 0
16.76392 13.526774 0.37599465 18 8
4.2273407 3.4098186 -1.2538772 4 1
16.831427 13.566702 1.1329689 45 9
5.2045956 4.1920853 -1.2990277 5 2
16.878168 13.589806 1.8958117 12 10
6.6102366 5.3185668 -1.3437722 2 3
16.946465 13.625321 2.6699138 42 11
9.240325 7.4267573 -1.4556075 1 4
17.013855 13.664845 3.4562635 46 12
15.132785 12.145346 -1.6976196 12 5
19.548901 15.684059 4.8717356 2 13
16.792086 13.462626 -1.1279447 6 6
17.210007 13.787818 5.0910926 1 14
16.844599 13.490246 -0.37669274 12 7
17.093653 13.679914 5.8663926 44 15
3.6063502 2.8706779 -1.2350845 15 0
17.017574 13.536385 0.37955493 15 8
4.2723966 3.397203 -1.2601758 5 1
17.08992 13.579329 1.1439595 42 9
5.2398829 4.1605339 -1.3005542 6 2
17.128689 13.59551 1.9132428 6 10
6.6843481 5.3017535 -1.351281 1 3
17.201418 13.633675 2.6950188 40 11
9.2826099 7.3546748 -1.4541451 1 4
17.269913 13.673246 3.488802 44 12
15.47502 12.243377 -1.7263809 11 5
19.585552 15.489951 4.8537993 2 13
17.032959 13.461477 -1.1377839 6 6
17.593351 13.894407 5.175674 1 14
17.089043 13.491271 -0.3800436 12 7
17.338888 13.678709 5.9176388 41 15
3.6202252 2.8406589 -1.233014 16 0
17.265869 13.538178 0.38297561 9 8
4.292944 3.3648865 -1.2592759 4 1
17.354113 13.592705 1.155264 45 9
5.2703476 4.125061 -1.3009357 6 2
17.373819 13.593468 1.9299767 6 10
6.714973 5.2500911 -1.3500296 2 3
17.46825 13.64769 2.7218301 42 11
9.3005772 7.2611866 -1.4487829 1 4
17.542475 13.690896 3.5244689 46 12
15.506695 12.09339 -1.7204543 18 5
17.701376 13.795033 4.3622756 3 13
17.306131 13.482173 -1.1497164 4 6
17.726835 13.799965 5.1864715 2 14
17.350876 13.497564 -0.38370863 9 7
17.601719 13.68777 5.9745793 45 15
3.6465719 2.8194089 -1.2350845 18 0
17.518185 13.539597 0.38646609 9 8
4.3169122 3.3340809 -1.2592759 4 1
17.612213 13.592643 1.1659406 45 9
5.3176727 4.1025548 -1.3055153 6 2
17.633171 13.594091 1.9479308 9 10
6.7555008 5.2043176 -1.3506554 1 3
17.726665 13.65138 2.747179 43 11
9.3510437 7.1960793 -1.4487829 1 4
17.809114 13.695065 3.5582585 41 12
15.622337 12.009125 -1.7239405 20 5
17.87821 13.73331 4.3821197 3 13
17.566935 13.484466 -1.1606022 4 6
17.947973 13.771963 5.2229133 3 14
17.616066 13.507515 -0.38747835 9 7
17.87249 13.694242 6.0330725 46 15
3.6707757 2.797395 -1.2366375 15 0
17.786442 13.544737 0.39023581 11 8
4.343183 3.3062248 -1.2601758 4 1
17.870407 13.593902 1.1767218 41 9
5.3500175 4.0667763 -1.3062785 6 2
17.894215 13.597229 1.9662335 6 10
6.823133 5.1809196 -1.3569127 1 3
17.989944 13.65017 2.7727716 41 11
9.3390255 7.0810061 -1.4390334 10 4
18.079029 13.702855 3.5929871 28 12
15.853992 12.007696 -1.7399772 11 5
18.151356 13.737721 4.424861 3 13
17.823109 13.484411 -1.1712788 10 6
18.215504 13.771277 5.2719526 3 14
17.898952 13.522143 -0.39156219 4 7
18.146494 13.704178 6.0931182 43 15
3.704603 2.7814953 -1.2412962 16 0
18.14286 13.617096 0.39596021 4 8
4.3698492 3.2773995 -1.2610756 4 1
18.138235 13.593842 1.1879216 39 9
5.371994 4.0246186 -1.304752 6 2
18.026148 13.495102 1.9700685 14 10
6.8805952 5.1473451 -1.36098 2 3
18.278749 13.669282 2.8025076 32 11
9.3739214 7.004941 -1.4368397 27 4
18.350735 13.703136 3.6274028 24 12
16.160963 12.063577 -1.7643808 13 5
18.440384 13.755048 4.4717999 6 13
18.108105 13.497373 -1.1836301 4 6
18.509659 13.791644 5.3290901 3 14
18.220671 13.566443 -0.39651868 3 7
18.440933 13.720428 6.1588583 45 15
3.72859 2.7590117 -1.2428491 14 0
18.437607 13.633156 0.4002535 4 8
4.4020252 3.2537622 -1.263775 5 1
18.407808 13.596222 1.1993308 37 9
5.4006557 3.9860744 -1.304752 6 2
18.034948 13.306234 1.9608299 9 10
6.9433942 5.1191082 -1.3662988 2 3
18.564684 13.677071 2.8312688 37 11
9.441781 6.9534492 -1.4397645 13 4
18.628908 13.709344 3.6633828 25 12
16.378492 12.044412 -1.7786744 15 5
18.820686 13.835293 4.5404911 1 13
18.359636 13.486501 -1.1938879 6 6
18.970764 13.925213 5.4330177 1 14
18.487448 13.565492 -0.4002535 8 7
18.720106 13.726145 6.2199397 45 15
3.7602484 2.7420201 -1.2469902 15 0
18.668083 13.603036 0.40318549 4 8
4.4340849 3.229835 -1.2664744 4 1
18.69928 13.610784 1.2121009 42 9
5.433115 3.9517376 -1.3058969 6 2
18.283709 13.293662 1.9777381 8 10
6.9757643 5.0681901 -1.3656731 1 3
18.852482 13.687081 2.8605175 37 11
9.4981241 6.8931971 -1.4409832 2 4
18.920858 13.721601 3.7018657 25 12
16.646101 12.063048 -1.798546 10 5
19.365171 14.028356 4.6481071 1 13
18.655581 13.504381 -1.2069719 4 6
19.067511 13.792441 5.4330177 11 14
18.76482 13.568489 -0.40419775 1 7
19.004942 13.73203 6.2825742 39 15
3.7745917 2.7123215 -1.2454373 13 0
19.053356 13.681142 0.40943345 2 8
4.4565234 3.1988032 -1.2664744 4 1
19.00321 13.630061 1.2256036 42 9
5.4717412 3.9217169 -1.3085681 6 2
18.481352 13.241109 1.9890683 3 10
6.991703 5.005568 -1.3619186 1 3
19.138079 13.691432 2.8892784 37 11
9.5395584 6.8221021 -1.4400083 1 4
19.207438 13.725854 3.7390969 36 12
16.809355 12.003284 -1.8070872 3 5
19.417896 13.860884 4.6374221 2 13
18.931513 13.50372 -1.2186952 6 6
19.318851 13.769836 5.4771085 23 14
19.041483 13.567125 -0.40810707 1 7
19.30493 13.744675 6.3498664 52 15
3.8060484 2.6948345 -1.2495784 12 0
19.324707 13.672526 0.41320318 16 8
4.475565 3.1653624 -1.2655747 5 1
19.292 13.634234 1.2380595 44 9
5.5086069 3.8902194 -1.3108579 6 2
19.401827 13.696628 2.0777929 41 10
7.0652165 4.9839668 -1.3694276 1 3
19.40519 13.678713 2.9151151 55 11
9.5869532 6.7553368 -1.4400083 1 4
19.448168 13.69377 3.7672551 57 12
16.744461 11.781309 -1.7912247 2 5
19.493315 13.7103 4.6324611 57 13
19.219776 13.507887 -1.2311511 11 6
19.502224 13.696229 5.501853 45 14
19.31904 13.562546 -0.41201642 30 7
19.515865 13.690557 6.3876543 68 15
3.8390303 2.6781435 -1.2542372 14 0
19.280243 13.440089 0.41023627 46 8
4.5039511 3.1384943 -1.2673743 5 1
19.296558 13.436456 1.2323025 48 9
5.5259624 3.8449395 -1.3085681 6 2
19.36285 13.467555 2.0634992 33 10
7.1160588 4.9457936 -1.3725561 1 3
19.395864 13.470435 2.8995156 46 11
9.632247 6.6871152 -1.4397645 2 4
19.449156 13.492358 3.7491088 61 12
16.963848 11.75947 -1.805867 6 5
19.506256 13.516849 4.6129985 60 13
19.27256 13.344954 -1.2285343 45 6
19.526855 13.510956 5.4820571 56 14
19.309643 13.355679 -0.4098174 66 7
18.177492 12.563239 5.9207449 11 15
3.8592246 2.6523728 -1.2547548 13 0
19.355471 13.292708 0.40985233 54 8
4.5418181 3.1180034 -1.2718732 4 1
19.380011 13.294634 1.2316744 72 9
5.5526719 3.8062644 -1.3085681 6 2
19.407087 13.298271 2.05827 47 10
7.1569362 4.9004545 -1.3738077 2 3
19.430452 13.294345 2.8907411 55 11
9.7098322 6.6409941 -1.4443955 1 4
19.451548 13.293832 3.7315884 61 12
17.214993 11.756495 -1.8238209 7 5
19.499617 13.311712 4.5893383 60 13
19.310802 13.172949 -1.2250801 49 6
19.53697 13.317227 5.458662 56 14
19.332998 13.173264 -0.40835139 66 7
18.31426 12.469736 5.9367914 40 15
3.8696492 2.6199505 -1.2521666 10 0
19.444487 13.155016 0.4097825 18 8
4.5699306 3.0905886 -1.2736728 5 1
19.505449 13.181379 1.233768 14 9
5.587245 3.7729003 -1.3104763 6 2
7.1975231 4.8547888 -1.375059 1 3
9.7888832 6.5952287 -1.4492704 2 4
17.475191 11.756124 -1.8426466 7 5
19.72403 13.264004 4.6202493 7 13
19.460323 13.076792 -1.2287437 60 6
19.828465 13.314129 5.5140004 27 14
19.489256 13.081428 -0.4097127 68 7
18.591791 12.469627 5.9983902 49 15
3.899096 2.6003742 -1.2557901 12 0
19.715576 13.138703 0.41355222 2 8
4.5849085 3.0542874 -1.2718732 5 1
19.686785 13.104637 1.2394203 62 9
5.6134472 3.7338049 -1.3104763 6 2
20.591324 13.691198 2.1633797 22 10
7.2246571 4.8000536 -1.3738077 1 3
20.674261 13.725555 3.0469775 44 11
9.8677654 6.548686 -1.4541451 1 4
20.781073 13.780794 3.9493449 4 12
17.756144 11.765906 -1.8635641 7 5
21.002794 13.912 4.8969226 1 13
20.642036 13.662662 -1.2973038 26 6
20.784014 13.746218 5.7528982 31 14
20.689388 13.678432 -0.43292442 31 7
18.799276 12.419401 6.0372128 24 15
3.9397588 2.5879409 -1.263037 11 0
20.916853 13.729357 0.43672904 25 8
4.6093769 3.0243447 -1.2727731 5 1
19.68759 12.907754 1.233768 72 9
5.6574407 3.7063591 -1.314674 6 2
20.919748 13.699935 2.1877835 20 10
7.2646036 4.7538252 -1.375059 1 3
20.993881 13.727538 3.0798824 31 11
9.9132433 6.4796362 -1.4541451 2 4
21.212515 13.85465 4.0128574 1 12
18.036396 11.771248 -1.8843071 6 5
21.309881 13.902332 4.9457698 1 13
20.974495 13.673109 -1.3121672 21 6
21.116238 13.75501 5.8181338 30 14
21.040762 13.700617 -0.43826485 29 7
19.039352 12.387945 6.0863886 46 15
3.9723296 2.5698152 -1.2676958 10 0
21.255699 13.740407 0.44179022 27 8
4.6402001 2.9984353 -1.2754724 5 1
19.695007 12.716908 1.228639 74 9
5.6831784 3.6667724 -1.314674 6 2
21.266033 13.715535 2.2139301 22 10
7.3175397 4.7158337 -1.3788135 1 3
21.33287 13.737563 3.115468 30 11
9.9682531 6.4167175 -1.4556075 1 4
21.476515 13.814163 4.0444574 5 12
18.319262 11.774311 -1.9052244 8 5
21.536898 13.837068 4.9759173 4 13
21.30138 13.67525 -1.326612 21 6
21.441395 13.754556 5.8811202 31 14
21.378298 13.70883 -0.44329113 29 7
19.354727 12.40167 6.1593757 52 15
3.9983201 2.5472105 -1.2702839 11 0
21.578838 13.736648 0.44650239 2 8
4.6708846 2.9722445 -1.2781719 4 1
19.692297 12.521231 1.2229868 62 9
5.7086387 3.6270068 -1.314674 6 2
21.588322 13.710939 2.237462 23 10
7.3369412 4.6561656 -1.3763106 1 3
21.678045 13.746696 3.1517851 31 11
10.02733 6.353723 -1.4575576 1 4
21.987961 13.927086 4.1223617 1 12
18.609774 11.778257 -1.9268392 2 5
22.061796 13.952283 5.0739932 1 13
21.506065 13.595574 -1.3334156 14 6
21.805441 13.774183 5.9544544 27 14
19.666296 12.408515 6.2308102 37 15
4.0115352 2.5154552 -1.2687311 13 0
4.7184587 2.9552948 -1.2853703 4 1
19.798321 12.390591 1.2240335 40 9
5.7388144 3.5901883 -1.3158189 5 2
21.937609 13.713465 2.2634346 21 10
7.3767715 4.6077337 -1.3775622 1 3
22.029427 13.754825 3.1888335 31 11
10.11523 6.3108888 -1.4638947 1 4
22.288216 13.894793 4.1599059 1 12
18.906296 11.781875 -1.9489768 4 5
22.336988 13.908962 5.1148262 3 13
21.816475 13.574281 -1.3466043 4 6
22.155909 13.780114 6.0237393 29 14
21.919834 13.622676 -0.4504815 1 7
19.984348 12.41015 6.3032794 47 15
4.0487242 2.4995661 -1.2749426 15 0
22.325691 13.772495 0.45788136 6 8
4.7638569 2.9376247 -1.2921189 7 1
20.135994 12.407144 1.239525 36 9
5.781076 3.5593233 -1.319635 6 2
22.294115 13.720806 2.2902787 21 10
7.408762 4.556118 -1.3775622 2 3
22.387751 13.756882 3.2263691 31 11
10.165809 6.2442679 -1.4648696 1 4
22.53788 13.832884 4.1883769 3 12
19.216007 11.784825 -1.97216 8 5
22.567448 13.834769 5.1453557 6 13
21.941357 13.44043 -1.3484883 22 6
22.531521 13.791114 6.0988731 29 14
21.939346 13.423407 -0.4489457 57 7
20.322681 12.424503 6.3824782 43 15
4.0677257 2.4722452 -1.2754604 11 0
22.653749 13.757463 0.46262839 2 8
4.7675896 2.8941851 -1.2876198 16 1
20.464609 12.413352 1.2543883 36 9
5.8175364 3.5260005 -1.3223064 6 2
22.660301 13.728983 2.3179941 22 10
7.4708061 4.5226984 -1.3831936 1 3
22.748209 13.760544 3.2643926 32 11
10.219348 6.1793084 -1.4663321 1 4
22.914558 13.844786 4.2403131 3 12
19.347281 11.680239 -1.9772152 13 5
22.969398 13.861509 5.2148104 4 13
21.940592 13.230189 -1.3427315 45 6
22.895988 13.795399 6.1713076 24 14
21.948593 13.219348 -0.44723538 66 7
20.672104 12.440705 6.4647822 40 15
4.1047797 2.4556882 -1.2816719 11 0
23.053053 13.78057 0.46880654 4 8
4.8010612 2.8688271 -1.291219 16 1
20.81658 12.428871 1.2706125 38 9
5.8386374 3.4832914 -1.3215431 6 2
23.05164 13.746983 2.34815 22 10
7.5123782 4.4765029 -1.3850709 1 3
23.12686 13.769979 3.3048532 32 11
10.286117 6.1220322 -1.4697444 1 4
23.389271 13.909638 4.3100829 1 12
19.351278 11.499084 -1.9693711 12 5
23.388006 13.892316 5.2876992 3 13
21.95685 13.031839 -1.3381258 57 6
23.283384 13.808193 6.2495904 28 14
21.937138 13.004613 -0.44514108 63 7
21.019403 12.450669 6.5460515 40 15
4.1085062 2.4191303 -1.2775309 12 0
23.460649 13.802842 0.4751243 2 8
4.8293715 2.8401787 -1.2934686 20 1
21.171463 12.441105 1.2869413 38 9
5.8729711 3.4484098 -1.3238329 6 2
23.437433 13.756168 2.3776085 22 10
7.5553746 4.4309425 -1.3872609 2 3
23.527294 13.78682 3.3482385 32 11
10.352585 6.0641189 -1.4731567 1 4
23.88645 13.980488 4.3836069 3 12
19.360565 11.322477 -1.9622244 13 5
23.721714 13.8674 5.3411255 24 13
21.961058 12.827875 -1.3328922 47 6
23.513861 13.723892 6.2855825 15 14
21.941025 12.800772 -0.44339585 66 7
21.361168 12.45248 6.6252503 39 15
4.1219516 2.3884511 -1.2764956 12 0
23.77103 13.762965 0.47945252 14 8
4.8575153 2.811275 -1.2957181 19 1
21.549999 12.46197 1.3046309 29 9
5.9071012 3.4132178 -1.3261225 6 2
23.838274 13.768587 2.4084618 23 10
7.5861244 4.378088 -1.3872609 2 3
23.911867 13.788841 3.3891866 30 11
10.395714 5.989882 -1.4731567 1 4
23.995447 13.820302 4.385797 50 12
18.881367 10.866047 -1.9059218 15 5
23.982021 13.790269 5.3773794 42 13
21.966961 12.626471 -1.327868 57 6
21.895582 12.575263 5.8293815 16 14
21.988708 12.618544 -0.44252321 42 7
21.730783 12.465488 6.7127309 40 15
4.1523647 2.3665469 -1.2806368 12 0
23.857845 13.591726 0.479278 49 8
4.875814 2.7754793 -1.2952682 13 1
23.923317 13.606913 1.4423791 67 9
5.9341998 3.3738358 -1.3268858 6 2
23.948317 13.604542 2.4096818 40 10
7.6224132 4.3266158 -1.3881997 1 3
23.976473 13.603936 3.3847995 48 11
10.485631 5.9445729 -1.4799815 1 4
24.011227 13.601506 4.3707795 50 12
18.857943 10.678007 -1.8959861 3 5
24.050373 13.607039 5.3712735 68 13
22.206278 12.553484 -1.3368697 23 6
22.188131 12.538102 5.8838201 21 14
22.115559 12.476733 6.8038354 38 15
4.1772103 2.3422244 -1.2832248 11 0
23.872501 13.374718 0.47763747 52 8
4.8882709 2.7375634 -1.2934686 13 1
23.916639 13.382998 1.4363081 65 9
5.9684706 3.3370371 -1.3291756 6 2
23.945316 13.382587 2.3999205 38 10
7.6662307 4.2810011 -1.3907026 1 3
23.996931 13.389458 3.3740749 56 11
10.547683 5.8828225 -1.4829062 1 4
24.024498 13.38835 4.3560743 56 12
18.806799 10.472034 -1.8832613 2 5
24.065866 13.394895 5.3537188 63 13
22.577892 12.556378 -1.3539313 22 6
22.508947 12.507738 5.9450064 19 14
22.50786 12.491714 6.8975277 35 15
4.1968436 2.3148708 -1.2842602 10 0
24.149176 13.309087 0.48130247 57 8
4.910677 2.7052505 -1.2943684 13 1
24.18795 13.313951 1.4469846 62 9
5.9950638 3.2971771 -1.3299388 6 2
24.259888 13.337003 2.4220581 28 10
7.7028561 4.2311807 -1.3919541 2 3
24.295168 13.334305 3.4028361 42 11
10.602417 5.8166862 -1.4848562 1 4
24.370281 13.358932 4.4017534 11 12
18.753624 10.271579 -1.8707108 2 5
24.136873 13.203594 -1.4418557 18 6
22.790651 12.45685 5.9962955 27 14
24.176744 13.208963 -0.4808836 14 7
22.916685 12.510159 6.9958787 35 15
4.2162971 2.2873592 -1.2852954 10 0
4.9397225 2.6764743 -1.2970678 13 1
38.02932 20.588116 2.2663565 34 9
6.0248432 3.2589793 -1.3314652 6 2
38.066528 20.582493 3.7860453 20 10
7.7530637 4.1885691 -1.3957086 2 3
