# .PCD v0.7 - Point Cloud Data file format
VERSION 0.7
FIELDS x y z intensity ring
SIZE 4 4 4 4 2
TYPE F F F F U
COUNT 1 1 1 1 1
WIDTH 1286
HEIGHT 1
VIEWPOINT 0 0 0 1 0 0 0
POINTS 1286
DATA ascii
5.8964505 -4.0844188 0.12520356 21 8
4.6194696 -3.2010584 -1.2975177 10 1
5.8953357 -4.0882158 0.37598157 42 9
2.8967805 -2.0103168 -0.68538594 75 2
6.1341424 -4.2585783 0.65331942 30 10
2.8990068 -2.0141122 -0.55909681 8 3
5.5447817 -3.8551588 0.82919908 12 11
2.9020751 -2.0192487 -0.43409866 7 4
5.7944965 -4.0332818 1.1181936 9 12
2.9002371 -2.0202248 -0.30922857 8 5
6.9962678 -4.8770342 1.6577487 45 13
5.6896601 -3.9676857 -0.36352557 18 6
6.9148417 -4.8256545 1.9467264 31 14
5.7512069 -4.0165758 -0.12244608 33 7
7.028193 -4.9102335 2.2972779 32 15
3.9339738 -2.764843 -1.2884012 9 0
5.6993003 -4.0070214 0.12160837 27 8
4.594851 -3.2329113 -1.2970678 8 1
5.8904262 -4.1475449 0.37755162 23 9
2.8602045 -2.0146632 -0.68004328 90 2
5.8217869 -4.103776 0.62316358 54 10
2.8748353 -2.0279734 -0.55721962 77 3
5.4998918 -3.8811841 0.826518 6 11
2.8830426 -2.0360243 -0.43336743 10 4
6.2510524 -4.4178071 1.2123673 23 12
2.8828092 -2.0381224 -0.30887994 8 5
6.9219818 -4.8974099 1.6482083 39 13
5.613852 -3.9748285 -0.36049011 16 6
6.9907117 -4.9515309 1.9777697 34 14
5.6740837 -4.0219369 -0.12139894 18 7
6.639924 -4.7100329 2.1813271 7 15
3.8903799 -2.7729325 -1.2801191 9 0
5.7288723 -4.0863652 0.12283003 24 8
4.5701361 -3.2610502 -1.296168 8 1
5.4255586 -3.8743012 0.34939486 42 9
2.8464251 -2.0340855 -0.68004328 81 2
5.5432138 -3.9627004 0.59614527 28 10
2.8532894 -2.0412483 -0.5556553 72 3
5.5056272 -3.9416416 0.83139277 20 11
2.8597925 -2.0481656 -0.431905 78 4
6.5298867 -4.6801128 1.2724382 17 12
2.8510602 -2.044924 -0.30696252 47 5
7.001008 -5.0233274 1.6749215 39 13
5.5143609 -3.959552 -0.35577986 20 6
6.9600096 -5.0012746 1.9786695 39 14
5.6034446 -4.027966 -0.12045651 27 7
6.7324309 -4.8430896 2.2222204 44 15
3.866231 -2.7966285 -1.2785661 7 0
5.6532302 -4.0922556 0.1218178 27 8
4.5472584 -3.2928758 -1.296168 8 1
5.3369236 -3.8675492 0.34541735 28 9
2.8257978 -2.0492971 -0.67851686 81 2
5.3702717 -3.8960056 0.58045721 42 10
2.8261812 -2.0518336 -0.55315232 63 3
5.4458566 -3.9566462 0.826518 19 11
2.8390012 -2.063412 -0.43093005 58 4
6.4970546 -4.7255855 1.2724382 9 12
5.3609233 -3.902091 -0.58010858 14 5
6.8848267 -5.0131431 1.6554589 46 13
5.4413867 -3.9650187 -0.35284904 43 6
6.9312239 -5.0543351 1.9804692 29 14
5.5396457 -4.0410604 -0.1196886 28 7
6.7156196 -4.9025025 2.2279146 36 15
3.8512845 -2.8269804 -1.2801191 9 0
5.5697279 -4.091372 0.12063103 22 8
4.5147381 -3.3176174 -1.2934686 8 1
5.2904854 -3.8905139 0.34416127 26 9
2.80826 -2.0666473 -0.67775363 76 2
5.3974938 -3.9735625 0.58638382 23 10
5.4436655 -4.0134158 0.83041775 19 11
5.8822017 -4.3414888 1.1579281 5 12
5.2502146 -3.8778689 -0.57104445 15 5
6.9443998 -5.1310868 1.6783561 40 13
5.3637896 -3.9660988 -0.34960422 22 6
6.6670589 -4.9333644 1.9147834 19 14
5.4421873 -4.0284762 -0.1181877 31 7
6.7635036 -5.0102115 2.2553494 14 15
3.8376522 -2.8584144 -1.2821896 9 0
5.4849138 -4.0883288 0.11940937 25 8
4.4727192 -3.3350768 -1.2880697 9 1
5.2375841 -3.9082422 0.34248653 27 9
5.0133581 -3.7436521 -1.2162166 11 2
5.3839879 -4.0218782 0.58795261 23 10
2.7909286 -2.0863621 -0.55190086 9 3
5.3980293 -4.0382419 0.82773668 9 11
2.7956109 -2.092145 -0.42873639 8 4
5.1719956 -3.8761907 -0.56546646 17 5
6.9618163 -5.2194834 1.691331 50 13
5.2976279 -3.9746814 -0.34709209 19 6
6.6823239 -5.01723 1.9291801 30 14
5.365963 -4.0303435 -0.11714055 16 7
6.6897545 -5.0282893 2.2424083 19 15
3.8083563 -2.8781478 -1.2790838 10 0
5.1005702 -3.8575311 0.1116256 38 8
4.4555435 -3.3709238 -1.2898693 11 1
5.511126 -4.1725698 0.36226952 21 9
4.9135542 -3.7228363 -1.1982806 11 2
5.2509818 -3.9799373 0.57644808 50 10
2.7684259 -2.0998271 -0.55033648 77 3
6.3089299 -4.7887387 0.97251743 3 11
2.7651269 -2.0996063 -0.42629901 17 4
6.7238107 -5.1092005 1.3375148 29 12
5.1042519 -3.8799574 -0.56093436 21 5
8.7893276 -6.6859808 2.1466014 39 13
5.2093616 -3.9655972 -0.34311455 13 6
6.5611968 -4.9964833 1.9039857 13 14
5.2836189 -4.0264959 -0.1159538 20 7
6.7420473 -5.141645 2.2719138 33 15
3.7943025 -2.9093668 -1.2811544 10 0
5.0440478 -3.8690352 0.1109624 35 8
4.4380851 -3.4066932 -1.2916689 11 1
5.2259712 -4.0129285 0.34531268 21 9
4.8600793 -3.7346635 -1.1914115 13 2
5.06355 -3.8938298 0.5588426 32 10
2.7478063 -2.1138046 -0.54908502 64 3
5.5007095 -4.2345872 0.85235429 32 11
4.9944401 -3.8476255 -0.77411413 8 4
6.0129495 -4.6339383 1.2023554 6 12
5.0502195 -3.8948119 -0.55797106 18 5
8.799943 -6.7915597 2.1607211 19 13
5.1348209 -3.9643476 -0.3399744 15 6
6.6017179 -5.1005468 1.9260309 32 14
5.2000098 -4.0204744 -0.11473212 19 7
6.619791 -5.1200471 2.2424083 32 15
3.7530613 -2.9185236 -1.2739074 9 0
4.9932423 -3.8857334 0.11043882 48 8
4.4132562 -3.435626 -1.291219 10 1
4.3092031 -3.3570397 0.28627771 42 9
4.7998247 -3.741946 -1.1830158 13 2
5.280448 -4.1181216 0.58586085 17 10
2.7236385 -2.125644 -0.54720783 76 3
5.0282631 -3.9270959 0.78337622 4 11
4.9048948 -3.8335025 -0.7643646 20 4
5.9851203 -4.6794538 1.203294 4 12
4.9883838 -3.9029644 -0.55413622 18 5
8.6224661 -6.7511616 2.1286652 5 13
5.0692835 -3.9705412 -0.33746228 16 6
5.4033723 -4.2352624 1.5850052 4 14
5.1356268 -4.0282931 -0.11392931 26 7
6.5291705 -5.1232047 2.2237732 49 15
3.7320807 -2.9453049 -1.2739074 9 0
4.9550061 -3.9118237 0.11019449 34 8
4.3839712 -3.4634941 -1.2898693 11 1
4.7335477 -3.7436993 -1.1730938 11 2
5.1352348 -4.0643034 0.57296187 9 10
2.6975188 -2.1364942 -0.54501772 67 3
4.9415989 -3.9152591 0.77411413 8 11
4.8500137 -3.8454518 -0.75997728 14 4
5.4532042 -4.3268075 1.1025503 6 12
4.8798656 -3.8732836 -0.54507202 21 5
8.8364677 -7.0187769 2.1935403 21 13
4.9922719 -3.9681878 -0.33421743 18 6
5.3843503 -4.2813711 1.5881544 4 14
5.0760837 -4.0391459 -0.11323121 25 7
6.510478 -5.184236 2.229985 18 15
3.7084115 -2.968873 -1.2728721 9 0
4.9300084 -3.949682 0.11026431 28 8
4.3353543 -3.4745162 -1.2826709 9 1
3.9014013 -3.128967 0.26209849 7 9
4.6668282 -3.7455256 -1.1631716 11 2
5.1611128 -4.1437116 0.57906276 69 10
2.6809976 -2.1540368 -0.54470485 47 3
4.7247148 -3.798768 0.74437803 13 11
4.7812848 -3.8456256 -0.75339633 14 4
5.4013214 -4.3474317 1.09817 6 12
4.8402915 -3.8972609 -0.54367751 21 5
5.4805675 -4.4159465 1.3681006 12 13
4.933352 -3.9778702 -0.33212399 22 6
5.275456 -4.2552361 1.5647595 6 14
4.9933004 -4.0305247 -0.11200955 23 7
6.132988 -4.9540019 2.1124811 21 15
3.6725984 -2.9825115 -1.2676958 9 0
5.006999 -4.0676265 0.11260293 32 8
4.3064561 -3.5010102 -1.2813212 7 1
3.8397255 -3.1226864 0.25937703 15 9
4.5955439 -3.7400274 -1.1517231 12 2
5.0996161 -4.1532197 0.5754022 17 10
4.6495156 -3.7880001 -0.94987023 10 3
5.128005 -4.180809 0.81238109 6 11
4.7097149 -3.8425188 -0.74632788 17 4
4.7548642 -3.8807366 0.97208387 6 12
4.7882762 -3.9107921 -0.54088855 26 5
5.5256104 -4.5162215 1.3871815 6 13
4.8690515 -3.9810174 -0.3296119 20 6
5.2999167 -4.3363872 1.580956 3 14
4.9201717 -4.0285478 -0.1109973 30 7
6.1992579 -5.0776486 2.1471629 15 15
3.655195 -3.0098968 -1.2687311 9 0
4.9985418 -4.1190147 0.11305669 30 8
4.2795186 -3.5277631 -1.2804214 12 1
5.0873604 -4.1966796 0.34562668 24 9
4.5299573 -3.7395234 -1.1418011 13 2
5.144969 -4.2487316 0.58376914 28 10
4.6031618 -3.8040087 -0.94580293 8 3
4.9793711 -4.1178308 0.79336947 11 11
4.6589789 -3.8542426 -0.74242812 14 4
5.1932702 -4.2993007 1.0678217 5 12
4.7271028 -3.9161615 -0.53705364 19 5
4.9505582 -4.1027398 1.249799 4 13
4.8027062 -3.9830372 -0.32699507 21 6
5.2050319 -4.319766 1.5616102 11 14
4.8541722 -4.0300117 -0.11012468 22 7
6.2067504 -5.1566048 2.1621742 23 15
3.6222312 -3.0254343 -1.2645899 9 0
4.9374437 -4.1268797 0.11232369 29 8
4.2592711 -3.5613034 -1.2817712 8 1
5.015049 -4.1962066 0.34269586 20 9
4.4796562 -3.750891 -1.1356952 13 2
4.529562 -3.7967138 -0.93610394 10 3
4.845561 -4.0644674 0.77655149 23 11
4.6076269 -3.8662581 -0.73852831 17 4
4.6645646 -3.9195869 -0.53304452 19 5
4.9623718 -4.1713095 1.2601026 10 13
4.735044 -3.9830418 -0.32427362 25 6
8.3532438 -7.0315933 2.5208015 4 14
4.8045049 -4.0457683 -0.10963602 27 7
6.1750317 -5.2035441 2.1637273 23 15
3.6010215 -3.0506485 -1.2645899 9 0
4.8566513 -4.1172829 0.11113693 22 8
4.2283597 -3.5859094 -1.2799715 8 1
4.9399481 -4.1923461 0.33955571 19 9
4.4234328 -3.7566559 -1.1280628 13 2
4.246985 -3.6080813 0.48754922 23 10
4.4698358 -3.8000946 -0.9292208 9 3
4.8987126 -4.1676574 0.78971344 10 11
4.5608711 -3.8816051 -0.73535967 15 4
4.7312007 -4.0294156 0.98428577 25 12
4.5658174 -3.891315 -0.52485186 17 5
4.8046474 -4.0963111 1.2272835 6 13
4.6721754 -3.9861856 -0.32186615 22 6
7.77634 -6.6392746 2.3606362 18 14
4.7487726 -4.0558348 -0.10900773 32 7
6.3735223 -5.447351 2.2465494 10 15
3.5767059 -3.0731955 -1.2635547 9 0
4.7762361 -4.1067605 0.10995016 19 8
4.1914029 -3.6051755 -1.2763723 9 1
4.8621206 -4.1850362 0.33620623 20 9
4.3703237 -3.7643828 -1.1211938 13 2
4.2035799 -3.6220367 0.48545748 4 10
4.4162688 -3.8079877 -0.92358917 10 3
5.0498495 -4.3573756 0.81896204 11 11
4.4870772 -3.8731408 -0.72780377 12 4
4.7253785 -4.0817165 0.98897886 12 12
4.5159297 -3.9035509 -0.52223718 10 5
4.8264251 -4.1734138 1.2402586 27 13
4.6004343 -3.9808064 -0.3188307 21 6
7.890378 -6.8324499 2.4096758 34 14
4.6810436 -4.0548472 -0.10810021 19 7
6.316361 -5.4752631 2.23982 26 15
3.5420563 -3.086668 -1.2588959 7 0
4.7067566 -4.1045194 0.10900773 19 8
4.1485105 -3.6189761 -1.2709734 11 1
4.7936649 -4.1847281 0.33348474 30 9
4.3054948 -3.761219 -1.1112716 12 2
4.1901937 -3.661783 0.48685199 5 10
4.3747077 -3.825722 -0.92046052 9 3
4.2544599 -3.7231867 0.69416779 5 11
4.4300561 -3.8782215 -0.722929 10 4
4.7829471 -4.1901031 1.0071251 21 12
4.4675937 -3.9165952 -0.51979685 11 5
6.0429606 -5.2995343 1.5623442 9 13
4.5515141 -3.9943826 -0.31736526 19 6
7.8146658 -6.8629351 2.4011276 31 14
4.607553 -4.0478339 -0.10705306 27 7
6.2562194 -5.5000939 2.2320557 29 15
3.516078 -3.1074827 -1.2573429 9 0
4.6704974 -4.1306539 0.1088332 29 8
4.1129279 -3.6388111 -1.2678242 8 1
4.750875 -4.2061763 0.33254269 23 9
4.2570896 -3.7716565 -1.1055473 11 2
3.8499138 -3.4121099 0.45007223 5 10
4.3168569 -3.8286448 -0.9138903 7 3
4.1838236 -3.7132664 0.68685567 28 11
4.3434954 -3.8563356 -0.71317947 9 4
4.577848 -4.0672622 0.96989381 7 12
4.4118514 -3.9225361 -0.51648492 12 5
6.1041036 -5.4290094 1.5879126 16 13
4.4862199 -3.9928639 -0.31474847 18 6
7.8262277 -6.9704642 2.4195735 26 14
4.5299106 -4.0360036 -0.1059012 16 7
3.485667 -3.1242173 -1.2542372 9 0
4.6087971 -4.1337852 0.1080653 28 8
4.0917754 -3.6713398 -1.2691739 11 1
4.6946445 -4.2152224 0.33065861 18 9
4.1883044 -3.7632318 -1.0944804 12 2
3.7785821 -3.3962846 0.44449428 25 10
4.2562437 -3.828305 -0.90669429 9 3
5.0106044 -4.5099845 0.82773668 11 11
4.2825375 -3.8560145 -0.70757347 13 4
4.34829 -3.9179671 0.92703074 24 12
4.3450913 -3.9164591 -0.51177853 10 5
4.4434824 -4.007956 1.1631716 21 13
4.4152393 -3.9852777 -0.31171298 19 6
7.8277774 -7.0679765 2.4348702 19 14
4.4793682 -4.0474195 -0.10537763 25 7
4.7172222 -4.2653294 1.7040646 20 15
3.4666302 -3.1510744 -1.2552725 9 0
4.5021391 -4.0937591 0.10621535 26 8
4.0530729 -3.6880126 -1.2651247 13 1
4.6215348 -4.2067471 0.32751846 12 9
4.1408215 -3.7718227 -1.0887562 17 2
4.2038808 -3.831948 0.49765927 34 10
4.1892161 -3.8199203 -0.89793396 9 3
5.003252 -4.5653949 0.83163649 11 11
4.2467184 -3.8777864 -0.70611101 13 4
4.1815052 -3.8195777 0.89699531 18 12
4.2926435 -3.9238458 -0.50881523 9 5
4.4038043 -4.0282793 1.1601188 28 13
4.3541203 -3.9842277 -0.30930555 19 6
7.7897406 -7.1329808 2.4384694 8 14
4.4170928 -4.0475197 -0.10457481 23 7
4.682384 -4.2921176 1.7019941 35 15
3.4451013 -3.1745975 -1.2552725 9 0
4.1603222 -3.8363473 0.098780625 48 8
3.9906337 -3.6811614 -1.2534273 10 1
4.4981279 -4.1522069 0.32081944 23 9
4.0927563 -3.7806563 -1.0830319 13 2
4.1806269 -3.8631785 0.49800789 38 10
4.1406908 -3.8289557 -0.89324087 7 3
3.8435454 -3.5566709 0.64298266 24 11
4.184586 -3.8749697 -0.70026129 13 4
4.3141456 -3.996341 0.93141097 30 12
4.2388444 -3.9293375 -0.50567758 11 5
4.3741355 -4.0575895 1.1597371 16 13
4.2969184 -3.9873567 -0.30721208 22 6
8.9649763 -8.3249397 2.8244855 9 14
4.3594317 -4.0510335 -0.10387672 26 7
4.5391107 -4.2194786 1.660583 15 15
3.4166512 -3.1938918 -1.2532018 9 0
4.3685918 -4.0851965 0.1044003 18 8
3.9442694 -3.6909821 -1.2471286 10 1
4.4566379 -4.173367 0.31998208 17 9
4.0304437 -3.7755823 -1.0734915 11 2
4.5293527 -4.245913 0.5431546 19 10
4.0814905 -3.8287549 -0.88635778 7 3
4.1270442 -3.8755524 -0.69514281 12 4
4.3084702 -4.0487533 0.9364168 27 12
4.1837277 -3.9329062 -0.50236571 10 5
4.3843112 -4.1243482 1.1700408 25 13
4.234828 -3.9865155 -0.30480465 21 6
4.6178894 -4.3486366 1.4644314 10 14
4.294661 -4.0470834 -0.10300411 21 7
4.5945354 -4.3327003 1.6921589 45 15
3.3816526 -3.2057049 -1.2485431 7 0
4.3436003 -4.1204815 0.10450501 24 8
3.8957887 -3.696965 -1.2399302 8 1
4.4042211 -4.182373 0.31830731 21 9
3.9620512 -3.7651067 -1.0624245 12 2
4.4793844 -4.2582121 0.5407142 33 10
4.0246058 -3.8285639 -0.8797875 9 3
3.779942 -3.5983326 0.64078909 25 11
4.062511 -3.8686767 -0.68880558 12 4
4.2300491 -4.0310373 0.92546642 22 12
4.1215582 -3.929024 -0.49818221 13 5
4.3142152 -4.1155567 1.1589739 15 13
4.1751108 -3.9856424 -0.30250186 19 6
4.5733247 -4.3673105 1.4599323 11 14
4.2142568 -4.0272317 -0.10174754 23 7
4.5544024 -4.3553238 1.6885355 16 15
3.3577976 -3.2278957 -1.2480254 9 0
4.2851834 -4.1208434 0.10377201 22 8
3.8460133 -3.7011011 -1.2322818 13 1
4.3555064 -4.192862 0.3168419 20 9
3.9094672 -3.7661092 -1.0551738 15 2
4.3936052 -4.2354517 0.53391606 28 10
3.972858 -3.8311877 -0.87415588 10 3
3.7582183 -3.6267347 0.64127654 18 11
4.0211239 -3.8831544 -0.68636823 12 4
4.1314764 -3.9911141 0.909823 11 12
4.0653791 -3.9300063 -0.49469596 14 5
4.2218804 -4.0841489 1.1418011 6 13
4.1263566 -3.9931352 -0.30093178 19 6
4.6183195 -4.4723377 1.4842271 11 14
4.1415219 -4.0134139 -0.10066548 5 7
4.4081368 -4.2732739 1.645054 19 15
3.3329813 -3.2479806 -1.2469902 9 0
4.2205191 -4.1157565 0.10289939 18 8
3.7970181 -3.7040608 -1.2246336 15 1
4.3004041 -4.1980534 0.3149578 16 9
3.8704402 -3.7809627 -1.0517392 13 2
4.3304739 -4.2318392 0.52973258 27 10
3.9008203 -3.8146346 -0.86414409 10 3
4.6550145 -4.5553446 0.7997067 6 11
3.9605544 -3.8771076 -0.68051845 10 4
4.0950456 -4.0115652 0.90794575 25 12
4.0214586 -3.9408536 -0.49260426 9 5
3.9879286 -3.9107256 1.0857033 28 13
4.0741448 -3.9980636 -0.29915234 23 6
4.3402338 -4.2606707 1.4041444 9 14
4.1041217 -4.0317016 -0.10042115 28 7
4.3878403 -4.3134241 1.6486773 37 15
3.3184698 -3.2793174 -1.2500961 9 0
4.1611199 -4.113461 0.10213149 21 8
3.7447436 -3.7044389 -1.2160853 20 1
4.2291393 -4.1850824 0.31181765 17 9
3.8278751 -3.7906432 -1.0471598 12 2
4.2767668 -4.2381268 0.52676928 34 10
3.8439019 -3.8105028 -0.857261 10 3
4.0756826 -4.0430923 0.70489234 2 11
3.9080322 -3.8794892 -0.67613119 15 4
3.9793403 -3.9516556 0.88823503 8 12
3.9599299 -3.9351265 -0.48842075 10 5
4.0524082 -4.0298386 1.11089 26 13
3.9958615 -3.9749937 -0.29538417 21 6
4.1460333 -4.1272621 1.3506061 9 14
4.0645418 -4.0489655 -0.10014191 32 7
4.1818538 -4.1672812 1.5819021 10 15
3.2900367 -3.2969341 -1.2480254 10 0
4.0863934 -4.0978203 0.10101452 33 8
3.7036572 -3.7153106 -1.2111365 15 1
4.0834994 -4.0992088 0.30323455 8 9
3.7577143 -3.7748048 -1.0353296 11 2
4.2259941 -4.2466969 0.52415466 26 10
3.7970355 -3.8183012 -0.85288078 10 3
4.4230471 -4.4509254 0.7704581 4 11
3.8472774 -3.8728783 -0.67028147 12 4
3.8493686 -3.8776896 0.86539555 19 12
3.9106219 -3.9421453 -0.48580611 11 5
3.9522915 -3.9855411 1.091046 31 13
3.9616916 -3.9978108 -0.29496548 25 6
4.0024123 -4.0431347 -0.099304192 38 7
4.131547 -4.1764979 1.5741374 15 15
3.2560997 -3.3088069 -1.2438843 9 0
4.0506754 -4.1191201 0.10084001 26 8
3.6667001 -3.7299585 -1.2075372 13 1
4.0785766 -4.1518388 0.30501398 37 9
3.7051387 -3.7743275 -1.0280789 13 2
4.1348424 -4.2135258 0.51648492 26 10
3.7619879 -3.8362539 -0.85100359 12 3
3.5471165 -3.6196675 0.62226492 30 11
3.8006976 -3.8797898 -0.6668691 15 4
3.9465704 -4.0315127 0.89355379 23 12
3.852354 -3.9380169 -0.48197123 10 5
4.1000686 -4.1927037 1.1398931 19 13
3.9183304 -4.0096583 -0.29381409 24 6
3.4705057 -3.5538769 1.1468004 2 14
3.9517388 -4.0480833 -0.098745719 24 7
4.0739603 -4.1761999 1.5632671 27 15
3.2248485 -3.3231399 -1.2407786 9 0
3.9939778 -4.118587 0.10014191 30 8
3.6134429 -3.7274818 -1.1985391 14 1
3.8090794 -3.9320383 0.28690574 21 9
3.6677744 -3.7888174 -1.025026 12 2
3.8697855 -3.9988916 0.48685199 20 10
3.7103968 -3.836864 -0.84537196 10 3
5.8185601 -6.0210876 1.0280899 28 11
3.7666237 -3.8990903 -0.66565043 13 4
3.9128413 -4.0532813 0.89230233 11 12
3.7957189 -3.9347024 -0.4783107 13 5
3.5664606 -3.6983411 0.9986943 12 13
3.8708396 -4.0167813 -0.29234868 26 6
3.4334457 -3.5653858 1.1427513 4 14
3.9081264 -4.0597258 -0.09836176 20 7
4.1505113 -4.3145261 1.6041605 31 15
3.2069128 -3.351155 -1.2428491 9 0
3.9305758 -4.110239 0.099269286 18 8
3.5617473 -3.725853 -1.1899911 17 1
3.9181187 -4.1015096 0.29726827 19 9
3.6331007 -3.8058102 -1.0227362 13 2
3.514405 -3.6827586 0.44536582 13 10
3.6671607 -3.8455191 -0.84161752 11 3
3.7119267 -3.8965449 -0.66077566 9 4
3.8585711 -4.0533147 0.88635778 7 12
3.7365727 -3.9279039 -0.47430155 13 5
3.9153092 -4.1172314 1.1044025 24 13
3.8124349 -4.0118551 -0.29004589 24 6
3.4581218 -3.6415534 1.1593977 6 14
3.8659217 -4.0724072 -0.098012716 29 7
4.007277 -4.2242651 1.5601612 31 15
3.1807876 -3.3706522 -1.2418139 9 0
3.8647432 -4.0982985 0.098326862 23 8
3.5142615 -3.7279396 -1.1827927 16 1
3.5018198 -3.7173407 0.2676461 42 9
3.5781834 -3.8010616 -1.0147223 16 2
3.7125354 -3.9451611 0.47395292 17 10
3.6131604 -3.8422458 -0.83536011 12 3
3.7193024 -3.9578853 0.6668691 5 11
3.6357045 -3.8702776 -0.65200108 9 4
4.4007182 -4.6879282 1.0183885 16 12
3.6906626 -3.9329066 -0.47186115 13 5
3.7347183 -3.9826391 1.0612797 17 13
3.7556546 -4.0077682 -0.28784779 17 6
3.5185196 -3.7560279 1.1881914 8 14
3.7977657 -4.0569611 -0.097000472 25 7
3.9948454 -4.2704787 1.5668906 16 15
3.1598108 -3.3956039 -1.2428491 9 0
3.8285856 -4.115725 0.098117426 23 8
3.4722283 -3.7352552 -1.1773938 16 1
3.8054533 -4.0951552 0.29297671 10 9
3.5268447 -3.7979949 -1.0074716 12 2
3.6808369 -3.9666016 0.47342998 40 10
3.562742 -3.8406825 -0.82972854 11 3
3.6221015 -3.9074075 0.65419465 5 11
3.5937569 -3.8795462 -0.64931989 17 4
4.0063252 -4.326438 0.93391389 15 12
3.6563504 -3.9512646 -0.47098961 18 5
3.4655666 -3.7477162 0.99220681 36 13
3.70524 -4.008306 -0.28606835 24 6
3.8955154 -4.2170973 1.3254116 6 14
3.7395105 -4.0510492 -0.096232571 19 7
3.9303117 -4.2592382 1.5529144 29 15
3.1157227 -3.394263 -1.2345669 9 0
3.7835386 -4.1246691 0.097698569 23 8
3.4401381 -3.751622 -1.1751443 13 1
3.8253469 -4.1746335 0.29674488 21 9
3.4830081 -3.8037012 -1.0025105 10 2
3.8716857 -4.2296476 0.50166845 22 10
3.5118434 -3.8392251 -0.82409686 12 3
3.5558944 -3.8901091 0.64712632 27 11
3.549181 -3.8854868 -0.6461513 12 4
4.2291045 -4.6314597 0.99335897 21 12
3.6112175 -3.9575615 -0.46872357 19 5
3.6655195 -4.0198884 1.0574635 33 13
3.6623666 -4.017839 -0.28491697 29 6
3.6835732 -4.0439377 1.2628752 16 14
3.6842163 -4.0474815 -0.095534474 27 7
3.8276722 -4.2065573 1.5239266 13 15
3.0887618 -3.4136064 -1.2335316 9 0
3.7224565 -4.1153903 0.096860856 22 8
3.3949099 -3.7559028 -1.1688457 14 1
3.7632458 -4.1663284 0.29423279 17 9
3.4221604 -3.7900386 -0.9925884 16 2
3.567703 -3.9540007 0.46593457 41 10
3.4578242 -3.8349154 -0.81783944 12 3
3.5871284 -3.979717 0.65785074 19 11
3.5100121 -3.8968952 -0.64395767 17 4
3.7438912 -4.159472 0.88635778 15 12
3.5461864 -3.9412048 -0.46384284 12 5
3.5966744 -4.0001235 1.0456334 17 13
3.5988157 -4.0053163 -0.28219551 20 6
3.6773887 -4.094202 1.2705235 3 14
3.6465194 -4.062686 -0.095290139 26 7
3.5717397 -3.982167 1.4333398 12 15
3.0661414 -3.4365282 -1.2340492 7 0
3.6636355 -4.1090851 0.096092947 23 8
3.3400807 -3.7475071 -1.1589478 17 1
3.7207847 -4.1775842 0.29318607 16 9
3.3910363 -3.8100302 -0.99144357 13 2
3.5280924 -3.9654145 0.46436578 31 10
3.4125919 -3.8382943 -0.81345934 11 3
3.5137305 -3.9548285 0.64956367 19 11
3.4682207 -3.9049778 -0.64127654 14 4
3.4970946 -3.9402573 0.83442152 28 12
3.4967411 -3.9426305 -0.46105388 14 5
3.4931195 -3.9399319 1.0234995 20 13
3.5482497 -4.0049286 -0.28041607 18 6
3.6273286 -4.0970669 1.2633251 21 14
3.5862613 -4.0521054 -0.094452426 22 7
3.5412929 -4.0041113 1.4323047 16 15
3.0420752 -3.45785 -1.2340492 7 0
3.6190152 -4.11654 0.095674098 20 8
3.275244 -3.7268195 -1.1454507 18 1
3.6019094 -4.1014109 0.28606835 9 9
3.3514049 -3.8188546 -0.98762739 13 2
3.7342038 -4.2565446 0.49539325 21 10
3.362273 -3.8352878 -0.80782765 10 3
3.5265856 -4.0255499 0.65711957 27 11
3.4107947 -3.8947475 -0.63567054 12 4
3.4799089 -3.9764676 0.83692449 18 12
3.4494576 -3.9444492 -0.4584392 16 5
3.3905842 -3.8784931 1.0013657 8 13
3.4952376 -4.0010242 -0.2784273 21 6
3.6665609 -4.2000961 1.2871699 11 14
3.5539403 -4.0725226 -0.094347708 27 7
3.4586561 -3.9661291 1.4100462 13 15
3.0191271 -3.4804628 -1.2345669 9 0
3.5770907 -4.1265945 0.095325045 23 8
3.2312796 -3.7289762 -1.1391522 18 1
3.4254501 -3.9558425 0.27424043 11 9
3.296401 -3.8094978 -0.97923183 13 2
3.4984517 -4.0444255 0.467852 36 10
3.3134556 -3.8332617 -0.80250889 13 3
3.3790147 -3.9118648 0.63469559 6 11
3.3575742 -3.8884146 -0.63079578 12 4
3.6985469 -4.2863202 0.8966825 9 12
3.4056118 -3.9482241 -0.45617315 17 5
3.3564258 -3.8966985 -0.26953021 24 6
3.5539646 -4.1274915 1.2574763 15 14
3.498033 -4.065403 -0.093614712 26 7
3.5505359 -4.1293359 1.4592218 28 15
2.980943 -3.4853058 -1.2288729 7 0
3.2968173 -3.8559866 0.088553511 23 8
3.1823828 -3.7247746 -1.1310539 15 1
3.3102398 -3.875793 0.26712275 22 9
3.2500019 -3.8079543 -0.97312593 13 2
3.4274662 -4.0187244 0.46209973 13 10
3.2770343 -3.8437014 -0.80000597 13 3
3.3638959 -3.9483738 0.63688928 27 11
3.3226249 -3.9026911 -0.62933332 10 4
3.4746828 -4.0827379 0.8491264 16 12
3.3560219 -3.9461021 -0.45320985 16 5
3.4556117 -4.0660772 1.0372378 10 13
3.3673251 -3.9635961 -0.27256569 23 6
3.3623681 -3.9605625 1.199439 9 14
3.2587013 -3.8411691 -0.087925225 11 7
3.8522146 -4.5423756 1.5958784 16 15
2.9633784 -3.5128987 -1.231461 9 0
3.3535929 -3.9782896 0.090822324 33 8
3.1531882 -3.7418792 -1.1297042 17 1
3.2586589 -3.8697813 0.26513401 38 9
3.1841528 -3.783983 -0.96129572 26 2
3.2627995 -3.8788192 0.44344842 15 10
3.2094462 -3.8180974 -0.78999412 19 3
3.3234813 -3.9565613 0.63445187 19 11
3.2525821 -3.8735294 -0.62104625 15 4
3.4105425 -4.0645261 0.84036607 19 12
3.2835858 -3.9160004 -0.44710895 17 5
3.526226 -4.2068639 1.067004 23 13
3.283143 -3.9196389 -0.26796013 23 6
3.2133083 -3.8389871 1.1557984 10 14
3.3158903 -3.9629486 -0.090194039 38 7
3.8104959 -4.5573015 1.5917372 30 15
2.9412525 -3.5364714 -1.2324963 9 0
3.1915321 -3.840126 0.087157324 43 8
3.1107991 -3.7443154 -1.1238555 25 1
3.4777894 -4.1890173 0.28533566 21 9
3.1651795 -3.8151855 -0.9635855 13 2
3.4823844 -4.1990237 0.47726485 32 10
3.1549821 -3.8069491 -0.78311098 13 3
3.3122385 -3.999543 0.63762045 44 11
3.2191312 -3.8884966 -0.61982757 18 4
3.3883801 -4.0958471 0.84193045 24 12
3.2663233 -3.9511137 -0.44850346 18 5
3.4442439 -4.1678171 1.050976 30 13
3.3141999 -4.0133052 -0.27277502 27 6
3.213717 -3.8943934 1.1656964 12 14
3.3339534 -4.0415335 -0.091450609 15 7
3.6385031 -4.413857 1.5327265 18 15
2.9140422 -3.5539315 -1.231461 9 0
3.3357418 -4.0711288 0.091869473 15 8
3.0722351 -3.7508657 -1.1193565 28 1
3.2068398 -3.9179931 0.26534331 16 9
3.1260381 -3.8219929 -0.95976931 16 2
3.2171526 -3.9347944 0.44466859 21 10
3.1583242 -3.8655958 -0.79061991 13 3
3.4311223 -4.2024775 0.66613787 13 11
3.1768439 -3.8924203 -0.61690265 17 4
3.352212 -4.110218 0.8400532 27 12
3.2260725 -3.9583759 -0.44676036 14 5
3.4001832 -4.1734958 1.0463966 31 13
3.2608819 -4.0053673 -0.27068159 17 6
3.2909851 -4.0452266 1.203938 6 14
3.3157506 -4.0771213 -0.091729842 21 7
3.0629878 -3.7690053 1.3013422 3 15
2.8891602 -3.5741885 -1.231461 9 0
3.3311129 -4.1238732 0.092532657 19 8
3.0423017 -3.7676733 -1.1180067 16 1
3.3687944 -4.1749926 0.28114879 18 9
3.0721684 -3.8101003 -0.9513737 15 2
3.4284186 -4.2534404 0.47796208 28 10
3.1052387 -3.8552437 -0.78404963 12 3
3.2672758 -4.0593171 0.63981414 20 11
3.1346598 -3.8959448 -0.61397779 18 4
3.3717093 -4.1935601 0.85225511 16 12
3.1746495 -3.9512911 -0.44344842 16 5
3.1804099 -3.9598761 0.9872458 8 13
3.2190881 -4.0109005 -0.26953021 16 6
3.1041639 -3.8704748 1.1454507 11 14
3.2634408 -4.0705271 -0.091066658 21 7
3.1634276 -3.9486032 1.3556943 25 15
2.8472822 -3.5731196 -1.2242141 9 0
3.2860487 -4.1266918 0.092078894 21 8
2.9904377 -3.7568033 -1.1085589 14 1
3.3234026 -4.1780896 0.27978805 16 9
3.0222833 -3.8022547 -0.94412297 13 2
3.3825274 -4.2569933 0.47569603 28 10
3.0684218 -3.8644521 -0.78154671 11 3
3.1870348 -4.016715 0.6295771 29 11
3.101217 -3.9099572 -0.61275911 11 4
3.2785466 -4.1364961 0.8359859 7 12
3.1328328 -3.9540689 -0.44135666 11 5
3.1761382 -4.0144806 -0.26827416 16 6
3.2107208 -4.0596476 1.19494 19 14
3.2064257 -4.0571265 -0.090263851 17 7
2.8258481 -3.5974674 -1.225767 7 0
3.2307136 -4.1143632 0.091310993 21 8
2.9472961 -3.7561245 -1.1022601 8 1
3.2837927 -4.186471 0.278846 18 9
2.9914877 -3.8165579 -0.94259644 16 2
3.3281548 -4.2491331 0.47220981 18 10
3.0189087 -3.8556974 -0.77560216 13 3
3.3663473 -4.3025331 0.67076892 20 11
3.0652862 -3.9205656 -0.61105299 9 4
2.6323657 -3.3680623 0.67704844 7 12
3.0732667 -3.9350173 -0.43682456 12 5
2.7274156 -3.4947028 0.8616935 23 13
3.1339965 -4.0171099 -0.26701808 15 6
3.0409191 -3.9006112 1.1418515 9 14
3.1509871 -4.0447073 -0.089495942 22 7
3.2012684 -4.1107302 1.3960699 13 15
2.7977467 -3.6120372 -1.2242141 9 0
3.1762078 -4.1036081 0.09057799 20 8
2.0177345 -2.6078203 -0.76123434 1 1
3.245934 -4.1982331 0.27811331 17 9
2.9539683 -3.8233666 -0.93916196 12 2
3.2845407 -4.2527666 0.47011805 20 10
2.9750206 -3.8547854 -0.771222 13 3
3.1677194 -4.1074328 0.63688928 18 11
3.0196648 -3.9182844 -0.60739684 17 4
2.6244597 -3.4067006 0.68111575 11 12
3.0372128 -3.9453256 -0.43560439 17 5
2.6837988 -3.4887612 0.8555876 9 13
3.0876126 -4.0151424 -0.26544797 21 6
2.9874907 -3.8877509 1.1319537 10 14
3.1019688 -4.0396442 -0.088902563 8 7
3.2971814 -4.2954173 1.4509397 18 15
2.7694843 -3.6288936 -1.2231789 9 0
3.119585 -4.0891156 0.089775175 21 8
1.968304 -2.5818985 -0.74953693 7 1
3.2000754 -4.2006989 0.27675256 21 9
2.9093623 -3.8204672 -0.93343765 11 2
3.2371333 -4.2539635 0.46767771 20 10
2.933012 -3.8571064 -0.76746756 13 3
3.0464683 -4.00776 0.61812133 27 11
2.9694226 -3.9092355 -0.6027658 16 4
2.6334562 -3.4694502 0.68987608 1 12
3.0071874 -3.9632587 -0.4352558 17 5
2.6819148 -3.5371361 0.86283833 35 13
3.0358856 -4.0068874 -0.26345924 22 6
2.7908492 -3.6848145 1.0671679 10 14
3.0712781 -4.058012 -0.088832751 26 7
3.1172006 -4.1216769 1.3846819 9 15
2.734792 -3.6357887 -1.2190377 9 0
3.0734234 -4.0889549 0.089286514 24 8
1.9502313 -2.5955768 -0.74953693 13 1
3.151484 -4.1973825 0.27507779 18 9
2.8583848 -3.8097801 -0.92580527 15 2
3.1882296 -4.2509561 0.46488872 18 10
2.8953509 -3.8632622 -0.76465172 13 3
2.4655752 -3.2922068 0.50502658 28 11
2.9206445 -3.9012663 -0.59837854 20 4
2.5582891 -3.4197354 0.67642272 8 12
2.9703991 -3.973505 -0.43403557 19 5
3.0708303 -4.1093473 0.99716789 19 13
2.9982781 -4.0151815 -0.26262185 24 6
2.7585824 -3.6968811 1.0649183 9 14
3.0333083 -4.0665317 -0.088553511 24 7
3.4566424 -4.6374416 1.5498085 15 15
2.0006573 -2.6988044 -0.90017265 2 0
3.0376608 -4.1006703 0.089077078 21 8
1.9262649 -2.6012981 -0.74728745 13 1
3.0947795 -4.1823545 0.27267036 18 9
2.8293836 -3.8264854 -0.92504203 10 2
3.1418948 -4.25068 0.46244836 23 10
2.8589213 -3.8706698 -0.7621488 10 3
2.4378159 -3.3029509 0.50405163 7 11
2.8886237 -3.9151719 -0.59740359 21 4
2.5261469 -3.4263823 0.67423266 23 12
2.9260418 -3.9716887 -0.43159524 19 5
3.0024843 -4.0769377 0.98419291 33 13
2.9571524 -4.0183206 -0.26147047 19 6
2.9705341 -4.0394568 1.1575981 9 14
2.9823408 -4.0569963 -0.08789032 17 7
3.385298 -4.6085238 1.5322088 13 15
1.9760695 -2.704906 -0.8975845 48 0
3.0030637 -4.1137018 0.088902563 23 8
1.9046113 -2.6099598 -0.74593771 13 1
3.0502081 -4.182879 0.27130961 14 9
2.3285639 -3.1956005 -0.76857871 7 2
3.094547 -4.248354 0.45983368 33 10
2.8109047 -3.8617866 -0.75651717 12 3
2.4158652 -3.3214941 0.50429535 29 11
2.8460448 -3.9143703 -0.594235 14 4
3.1082575 -4.2781496 0.83755022 7 12
2.8748326 -3.9597735 -0.42810899 19 5
3.685436 -5.0781565 1.2196511 19 13
2.9149568 -4.019465 -0.26021439 19 6
2.8908029 -3.9890888 1.1373526 9 14
2.943387 -4.0631423 -0.087576173 19 7
3.3745649 -4.6617785 1.5420439 13 15
1.9797112 -2.7499924 -0.90793723 41 0
2.963762 -4.1199574 0.088588417 21 8
1.8715538 -2.6026249 -0.740089 45 1
3.0022845 -4.1781211 0.26963487 18 9
2.2993274 -3.2022107 -0.766289 1 2
3.0555184 -4.2569056 0.4584392 21 10
2.7700603 -3.8620541 -0.75276273 11 3
2.9534783 -4.1208143 0.62250865 47 11
2.8059306 -3.9163928 -0.59155381 11 4
2.9288266 -4.0909414 0.79687726 7 12
2.8297298 -3.9554408 -0.42549434 15 5
3.5117102 -4.9105349 1.1734754 5 13
2.8682451 -4.0137172 -0.25853965 17 6
2.9183748 -4.0868816 1.1593977 10 14
2.9091406 -4.0754547 -0.087401658 26 7
3.0839162 -4.3234911 1.4229871 13 15
1.9799527 -2.7901874 -0.91673708 38 0
2.9298666 -4.1318793 0.088413894 22 8
1.8357642 -2.5898662 -0.73289055 55 1
2.9587679 -4.1772718 0.26827416 19 9
2.2899535 -3.2354145 -0.77048677 5 2
3.0069091 -4.2499552 0.4554759 26 10
2.7357256 -3.869529 -0.75057268 13 3
3.0124116 -4.2640419 0.64103281 11 11
2.7597406 -3.907836 -0.58741027 13 4
2.8713 -4.068819 0.78874266 23 12
2.7889624 -3.9550712 -0.42340261 17 5
2.8391192 -4.0276923 0.95786124 6 13
2.823606 -4.0086551 -0.25696957 19 6
2.8209465 -4.0078502 1.1315038 9 14
2.8744283 -4.0853491 -0.087192222 22 7
2.7666407 -3.935071 1.2889189 9 15
1.9858856 -2.8403566 -0.92864275 36 0
2.8894963 -4.1358395 0.088064842 26 8
1.8031335 -2.5818491 -0.72704178 49 1
2.914674 -4.1765337 0.26691341 21 9
2.6749547 -3.8358843 -0.90901417 10 2
2.9589362 -4.2446923 0.45268691 21 10
2.7007411 -3.8771873 -0.74838257 10 3
2.9893739 -4.2947445 0.64249521 18 11
2.7199202 -3.9090831 -0.58472919 14 4
2.9928031 -4.3044758 0.83035421 13 12
2.7510517 -3.9597192 -0.42183378 23 5
2.823251 -4.0651522 0.96205902 1 13
2.7898583 -4.0200658 -0.25644621 16 6
2.8306546 -4.0818925 1.1468004 14 14
2.8241918 -4.0740914 -0.086529031 18 7
2.8084047 -4.0543385 1.3215301 13 15
1.9813502 -2.8764246 -0.93588972 33 0
2.8446796 -4.1328502 0.087576173 21 8
1.7806464 -2.5879526 -0.7252422 52 1
2.8707359 -4.175385 0.26555267 21 9
2.6381052 -3.8399019 -0.90557957 12 2
2.9111836 -4.2389679 0.44989792 26 10
2.6657839 -3.8845463 -0.74619251 13 3
2.9447241 -4.2942262 0.63932663 18 11
2.6925638 -3.9279764 -0.58472919 11 4
2.9102128 -4.2486677 0.81564939 23 12
2.7199645 -3.9738958 -0.42131084 15 5
3.5686107 -5.2157288 1.2284284 24 13
2.7515802 -4.0246058 -0.25550416 20 6
2.8075855 -4.1096005 1.14905 9 14
2.7798922 -4.0705895 -0.086040363 21 7
2.9401035 -4.3084154 1.3976228 15 15
1.9872547 -2.9285524 -0.94831306 36 0
2.8079021 -4.1410236 0.087331839 24 8
1.7581624 -2.5938683 -0.72344255 52 1
2.8359158 -4.1870556 0.26502931 21 9
2.5947273 -3.8338373 -0.89985526 11 2
2.864773 -4.2344351 0.44728327 24 10
2.6186857 -3.8736048 -0.74056083 13 3
2.9224513 -4.3261938 0.64103281 12 11
2.6561885 -3.9335167 -0.58277923 10 4
2.9114184 -4.3147302 0.82440978 35 12
2.6709924 -3.9614005 -0.41799891 15 5
2.7144907 -4.0304642 -0.25466678 19 6
2.5035555 -3.7200706 1.0352248 4 14
2.7413607 -4.0749645 -0.085726224 16 7
2.7493672 -4.0899482 1.3204948 7 15
1.994674 -2.9841127 -0.96177161 36 0
2.7578211 -4.1289306 0.086668648 27 8
1.7270259 -2.5866311 -0.71804374 50 1
2.807725 -4.2084141 0.26513401 22 9
2.5624542 -3.8436906 -0.89794719 13 2
2.7997851 -4.2012768 0.44170532 28 10
2.5740609 -3.865485 -0.73555493 13 3
2.8525891 -4.2869954 0.63225818 18 11
2.6121719 -3.9271719 -0.5791232 17 4
2.8462346 -4.2823057 0.81439793 42 12
2.6362484 -3.9678726 -0.41677874 16 5
2.6586843 -4.0077085 -0.25205001 19 6
3.0048289 -4.5312047 1.255227 7 14
2.6984866 -4.0723333 -0.085272454 23 7
2.7292798 -4.1219287 1.3246359 19 15
1.9950389 -3.0302362 -0.9721244 31 0
2.7175601 -4.1292324 0.086284697 24 8
1.7003599 -2.5855989 -0.71444452 51 1
2.762557 -4.2023935 0.2635639 24 9
2.5232973 -3.8413527 -0.89336777 12 2
2.7157228 -4.1374388 0.43298975 15 10
2.5368536 -3.8664007 -0.73242623 13 3
2.8037515 -4.2764316 0.62787092 18 11
2.5683737 -3.9204051 -0.57546705 11 4
2.853816 -4.3577671 0.82503545 28 12
2.6052103 -3.981179 -0.4162558 15 5
2.8934467 -4.4250197 1.0276973 26 13
2.6127663 -3.9972916 -0.25027055 16 6
2.8793464 -4.4084935 1.2156355 9 14
2.6448531 -4.052557 -0.084469646 35 7
2.8795483 -4.4138494 1.4121168 9 15
1.999598 -3.0826435 -0.98454767 37 0
2.6810532 -4.1363578 0.086040363 20 8
1.6806018 -2.593842 -0.71354473 51 1
2.7168698 -4.1964283 0.26199383 21 9
2.4878871 -3.8456879 -0.89031488 15 2
2.7480845 -4.2495184 0.44275117 25 10
2.5044391 -3.8757212 -0.73086196 15 3
2.4174085 -3.7439041 0.54719341 6 11
2.5319409 -3.922786 -0.57327342 13 4
2.8447368 -4.4107852 0.83129281 24 12
2.5640171 -3.9770508 -0.41398975 16 5
2.8217936 -4.3802452 1.0128142 32 13
2.5783103 -4.0053582 -0.24964255 18 6
2.8376727 -4.4099636 1.2106866 11 14
2.6107185 -4.0603738 -0.084260218 44 7
3.5347242 -5.5016727 1.752205 39 15
2.389858 -3.7412312 -1.1895324 10 0
2.627007 -4.1140618 0.085202649 27 8
1.6582595 -2.5989401 -0.71174508 54 1
2.6592448 -4.1693587 0.25916767 24 9
2.4479363 -3.8410101 -0.8853538 15 2
2.706578 -4.250114 0.44083372 23 10
2.4705741 -3.8810134 -0.72867179 14 3
2.7253449 -4.2845325 0.6234836 14 11
2.4949098 -3.9252887 -0.57107979 12 4
2.8241818 -4.4450521 0.83410865 13 12
2.5137646 -3.9595308 -0.41032922 15 5
2.7890422 -4.3965235 1.012051 40 13
2.5392213 -4.0042615 -0.24849114 21 6
2.5126791 -3.9654655 1.0838141 6 14
2.5684018 -4.0565372 -0.083806455 16 7
2.3365576 -3.7132642 -1.1755562 18 0
2.5939636 -4.1255293 0.085063025 23 8
1.6405308 -2.6101675 -0.71174508 50 1
2.6056414 -4.148921 0.25676021 28 9
2.4085386 -3.8380511 -0.88077438 16 2
2.6246486 -4.1840482 0.43211815 28 10
2.4339778 -3.8831029 -0.72585601 10 3
2.5868361 -4.1301723 0.59837854 18 11
2.457967 -3.9274662 -0.56888616 17 4
2.7354596 -4.3725529 0.81690085 33 12
2.4691627 -3.9499521 -0.40754023 15 5
2.7489202 -4.4009008 1.0086164 33 13
2.4995692 -4.0032554 -0.24733976 16 6
2.4498625 -3.9266963 1.0685174 4 14
2.5379043 -4.0709753 -0.083736651 19 7
3.7200935 -5.9696116 1.8847204 3 15
2.3180635 -3.7430282 -1.1796973 13 0
2.5556266 -4.1282358 0.084748887 24 8
1.608484 -2.6002951 -0.70589644 45 1
2.5916374 -4.1929436 0.25833032 12 9
2.3785899 -3.8497615 -0.87962949 12 2
2.6092944 -4.2264566 0.43455851 23 10
2.3957572 -3.8836086 -0.72272736 11 3
2.6371257 -4.2765455 0.61690265 15 11
2.4231994 -3.9326999 -0.56717998 17 4
2.665781 -4.3297772 0.80532473 23 12
2.4258635 -3.9416425 -0.40492558 21 5
2.6913903 -4.3765039 0.9986943 33 13
2.4656303 -4.0125313 -0.24681638 17 6
2.4509482 -3.9901984 1.0811148 7 14
2.497915 -4.0698466 -0.083352692 16 7
2.614799 -4.2636223 1.3401651 12 15
2.2868481 -3.7508729 -1.1771091 10 0
2.519778 -4.1361713 0.084539458 28 8
1.5872507 -2.606468 -0.70454669 24 1
2.5456908 -4.1836352 0.25665554 18 9
2.3469009 -3.8599737 -0.87810302 13 2
2.5880034 -4.2581911 0.43595302 21 10
2.3593583 -3.8850434 -0.71991152 13 3
2.5776215 -4.2477889 0.61007798 15 11
2.3750949 -3.9155762 -0.56230521 17 4
2.6375365 -4.3516612 0.80595046 33 12
2.3993187 -3.960186 -0.4050999 19 5
2.6689053 -4.4086223 1.0017474 33 13
2.4292884 -4.015975 -0.24597903 19 6
2.4260564 -4.0122147 1.0824645 6 14
2.4632375 -4.0769167 -0.083143272 17 7
2.5270603 -4.1858501 1.310142 16 15
2.2536476 -3.7551515 -1.1734856 11 0
2.483336 -4.1395082 0.084260218 28 8
1.563004 -2.6074564 -0.70184726 7 1
2.5058632 -4.1820207 0.25550416 15 9
2.3114958 -3.8606994 -0.87466848 16 2
2.5377553 -4.2419591 0.4324668 21 10
2.3257623 -3.8891459 -0.7177214 12 3
2.5455935 -4.2601233 0.60934675 17 11
2.3385427 -3.9167218 -0.56011152 17 4
2.6706214 -4.4746799 0.82534832 13 12
2.3634493 -3.9631498 -0.40370542 18 5
2.5677137 -4.3090901 0.975034 18 13
2.3988299 -4.0272698 -0.245665 15 6
2.404964 -4.0407758 1.0856137 3 14
2.4214275 -4.0716705 -0.082689509 14 7
2.5212142 -4.241148 1.3220477 9 15
2.2132931 -3.7454569 -1.1657211 10 0
2.4462426 -4.1429691 0.083980985 28 8
1.5650303 -2.6515994 -0.71084529 3 1
2.4735622 -4.194252 0.25519016 14 9
2.2675431 -3.8479881 -0.86818099 12 2
2.4906204 -4.2282338 0.42932916 25 10
2.2915401 -3.8933709 -0.71553135 13 3
2.5228353 -4.2897692 0.61105299 15 11
2.3108222 -3.9308379 -0.5598678 15 4
2.4041998 -4.092948 0.75182414 21 12
2.3263302 -3.9619641 -0.40196225 16 5
2.5065322 -4.2722807 0.9628222 12 13
2.3555048 -4.0180731 -0.24409491 16 6
2.4099174 -4.112536 1.1004605 7 14
2.3815317 -4.0673499 -0.082270645 23 7
2.8085961 -4.8005643 1.4902802 4 15
2.1793215 -3.7474573 -1.16158 10 0
2.4079363 -4.1422358 0.083631933 35 8
1.5621411 -2.6894226 -0.71804374 3 1
2.4459586 -4.2127185 0.25529483 18 9
2.245239 -3.8701258 -0.86970741 12 2
2.4540467 -4.2334528 0.42810899 26 10
2.24914 -3.8815317 -0.71052545 13 3
2.482636 -4.2879448 0.60837179 14 11
2.2793479 -3.9400015 -0.55889291 11 4
2.3930957 -4.138288 0.7571429 10 12
2.2886457 -3.9608576 -0.40021914 16 5
2.4943144 -4.3202801 0.9696914 22 13
2.3151217 -4.0115252 -0.24273418 12 6
2.5885003 -4.4888401 1.1962898 9 14
2.3480866 -4.0752139 -0.082096115 17 7
2.7565718 -4.7860899 1.4799274 9 15
2.1556826 -3.7655573 -1.1626152 10 0
2.3600943 -4.1259651 0.082968742 18 8
1.5467005 -2.7050686 -0.71939349 3 1
2.4055903 -4.2106156 0.25414345 15 9
2.2113528 -3.8737714 -0.8670361 15 2
2.4123373 -4.2275624 0.42584294 28 10
2.2141604 -3.8834107 -0.70802242 13 3
2.437901 -4.2792997 0.60471576 15 11
2.2426527 -3.9381747 -0.55645543 11 4
2.3367934 -4.1068211 0.74838257 22 12
2.2589691 -3.9732747 -0.39987054 15 5
2.4241087 -4.2654691 0.95366341 9 13
2.2831151 -4.0206428 -0.2423155 20 6
2.5772943 -4.5423951 1.2057376 8 14
2.311415 -4.0754471 -0.081781976 15 7
2.461164 -4.3430157 1.3375769 9 15
2.1236534 -3.7704158 -1.1595093 11 0
2.3243675 -4.1301422 0.082724407 24 8
1.5230008 -2.7073083 -0.71714395 3 1
2.359499 -4.1977086 0.25236401 12 9
2.1688728 -3.861727 -0.8609302 15 2
2.3808141 -4.2408261 0.42549434 17 10
2.1831293 -3.8918822 -0.70677096 13 3
2.3934081 -4.2702403 0.60105962 13 11
2.1976404 -3.9225631 -0.55206817 11 4
2.3717496 -4.2367978 0.76903194 14 12
2.2263124 -3.9802535 -0.39899898 16 5
2.3444507 -4.193181 0.93381923 27 13
2.238431 -4.0068426 -0.24053608 23 6
2.3963981 -4.2931261 1.135103 1 14
2.2702401 -4.0687838 -0.081328213 11 7
2.3564689 -4.2267919 1.2966834 12 15
2.0869803 -3.7665617 -1.1538154 11 0
2.2867599 -4.1305237 0.082410261 17 8
1.5238783 -2.7536814 -0.72659194 3 1
2.3185391 -4.1931047 0.25110796 16 9
2.1285689 -3.8527162 -0.8555876 11 2
2.3203278 -4.2015328 0.41991636 23 10
2.1520889 -3.9001102 -0.7055195 13 3
2.2216878 -4.0295649 0.56498629 12 11
2.1577461 -3.9152086 -0.54889959 14 4
2.3487833 -4.2653646 0.771222 17 12
2.194629 -3.9887166 -0.39830172 16 5
2.3151197 -4.209446 0.93381923 18 13
2.2075181 -4.0171204 -0.24022207 19 6
2.332603 -4.2482572 1.1189066 7 14
2.2138777 -4.0336957 -0.080315977 10 7
2.2711687 -4.1415081 1.2656252 11 15
2.0495403 -3.7606843 -1.1476036 10 0
2.2540429 -4.1393623 0.082270645 16 8
1.5046172 -2.7642527 -0.72659194 3 1
2.2806213 -4.193398 0.25016591 22 9
2.0922461 -3.8502321 -0.85177141 15 2
2.3023508 -4.2386384 0.42200807 26 10
2.1182127 -3.9028864 -0.70332944 15 3
2.1916094 -4.0414867 0.5644989 38 11
2.1322529 -3.9336674 -0.54938704 18 4
2.2107625 -4.0819054 0.73524207 33 12
2.1477647 -3.968895 -0.3948155 15 5
2.3193026 -4.2876716 0.94755751 14 13
2.1784699 -4.0306773 -0.2401174 21 6
2.2797391 -4.221571 1.107659 5 14
2.1894629 -4.0560923 -0.080455594 18 7
2.2091868 -4.0960512 1.2469902 11 15
2.0113726 -3.7527657 -1.1408744 10 0
2.2071533 -4.1215038 0.081607454 12 8
1.4935595 -2.7901523 -0.73064101 4 1
2.2437551 -4.195128 0.24932852 18 9
2.0616148 -3.8578191 -0.85024494 15 2
2.2586229 -4.2282476 0.41939342 24 10
2.0741715 -3.8862107 -0.69769776 11 3
2.2567496 -4.2318482 0.58887273 12 11
2.1000698 -3.9396985 -0.54816836 11 4
2.444077 -4.5889087 0.82347113 21 12
2.1001012 -3.9447317 -0.39098063 18 5
2.2164752 -4.1668286 0.91740966 25 13
2.1409044 -4.0281506 -0.23907068 14 6
2.4584918 -4.6276474 1.2097868 3 14
2.1564052 -4.0624471 -0.080281071 15 7
2.2737687 -4.2871618 1.3003069 13 15
1.9806207 -3.7581711 -1.1382862 9 0
2.159476 -4.099278 0.080874451 15 8
1.4849364 -2.8212044 -0.73603982 4 1
2.2049179 -4.1908603 0.24817713 20 9
2.0316534 -3.8648117 -0.84871852 15 2
2.2244167 -4.2350936 0.41852185 21 10
2.0421617 -3.889745 -0.69582063 11 3
2.2380359 -4.2664475 0.59155381 12 11
2.0669854 -3.9437139 -0.5467059 11 4
2.3174472 -4.4234605 0.79093277 7 12
2.0715868 -3.9575319 -0.39080635 20 5
2.1281898 -4.0691218 0.89260459 33 13
2.099556 -4.0160804 -0.23750059 12 6
2.5632658 -4.9072466 1.2781719 1 14
2.1289165 -4.079175 -0.080315977 17 7
2.3338871 -4.4738188 1.3520708 13 15
1.946993 -3.7561295 -1.1336274 10 0
2.1216085 -4.0964975 0.080525406 20 8
1.4567395 -2.8139408 -0.7315408 3 1
2.1719368 -4.1990552 0.24775843 11 9
2.0001161 -3.8701799 -0.84681034 13 2
2.1873085 -4.2342048 0.41695309 15 10
2.0095208 -3.8933749 -0.69394338 16 3
2.1945488 -4.2555037 0.58789778 12 11
2.0294013 -3.9386373 -0.54402483 14 4
2.1408887 -4.1567926 0.74056083 7 12
2.0420845 -3.968354 -0.39045769 26 5
2.1715469 -4.2235594 0.92313397 25 13
2.0614254 -4.0110993 -0.23634921 13 6
2.2449834 -4.3720193 1.1346531 7 14
2.1003866 -4.0939384 -0.080315977 23 7
2.3369775 -4.5570436 1.3722585 12 15
1.9139277 -3.7579155 -1.130004 13 0
2.082979 -4.0916057 0.080141447 14 8
1.448052 -2.846873 -0.73738956 3 1
2.1291654 -4.1895618 0.24629304 13 9
1.9632677 -3.8647952 -0.84261262 15 2
2.1470339 -4.2302051 0.41503564 16 10
1.9789289 -3.9023695 -0.69300479 14 3
2.1513236 -4.2441611 0.58424169 12 11
1.9919897 -3.933229 -0.54134369 17 4
2.0977104 -4.1455674 0.7358678 11 12
2.0089355 -3.9718466 -0.38941187 20 5
2.1995652 -4.3525114 0.94793916 21 13
2.0290692 -4.0186167 -0.23593052 12 6
2.1397736 -4.2397084 1.0964113 8 14
2.0591497 -4.0835047 -0.079827309 23 7
2.3095241 -4.5840011 1.3753644 4 15
1.8789988 -3.7539103 -1.1248276 11 0
2.0572248 -4.1135612 0.080281071 23 8
1.4316273 -2.8638854 -0.73918921 3 1
2.0927255 -4.1900296 0.24545565 14 9
1.9276723 -3.8629346 -0.83917803 13 2
2.1049993 -4.2201304 0.41259527 15 10
1.9393016 -3.8913383 -0.68862462 13 3
2.1226678 -4.2630014 0.58472919 15 11
1.9593724 -3.9384961 -0.54012495 13 4
2.0836709 -4.1901798 0.74118662 28 12
1.97337 -3.9718459 -0.38801736 15 5
2.1875679 -4.406826 0.95633471 33 13
2.0018528 -4.0344734 -0.23603518 11 6
2.085145 -4.2060246 1.0838141 14 14
2.0183377 -4.0748396 -0.079373546 17 7
1.8435656 -3.749923 -1.1196512 11 0
2.0169919 -4.1044912 0.079827309 19 8
1.4153913 -2.8828032 -0.74143869 3 1
2.0538929 -4.1869664 0.24440894 14 9
1.905843 -3.8868749 -0.84146774 12 2
2.0694878 -4.22435 0.41154939 16 10
1.8966433 -3.8749533 -0.6833058 16 3
2.085876 -4.2634506 0.58277923 13 11
1.9222397 -3.9324608 -0.53744388 11 4
2.0527668 -4.203207 0.74087369 35 12
1.9289865 -3.9515073 -0.38470542 19 5
1.9992532 -4.0990763 0.88649869 16 13
1.9633075 -4.0289454 -0.2348838 15 6
2.0941317 -4.2993178 1.1040598 20 14
1.9819659 -4.072648 -0.0790594 13 7
1.8119286 -3.7481537 -1.1155102 11 0
1.9777004 -4.0947165 0.079373546 16 8
1.4021721 -2.9044111 -0.74458802 3 1
2.0226083 -4.1933007 0.24399024 16 9
1.8708192 -3.8820715 -0.83765155 13 2
2.0371027 -4.2290077 0.41067785 15 10
1.8623358 -3.869647 -0.68017709 16 3
2.0490654 -4.2614498 0.5805856 15 11
1.8969761 -3.9469125 -0.5376876 13 4
2.157383 -4.4927397 0.78936839 21 12
1.8992885 -3.9570289 -0.3840082 18 5
1.9966416 -4.1635818 0.89756554 23 13
1.9227353 -4.0130587 -0.23320904 16 6
2.0714638 -4.3254147 1.1072091 14 14
1.9488698 -4.0730767 -0.078815073 12 7
2.1338377 -4.463655 1.3256712 7 15
1.7848887 -3.7589664 -1.1149925 14 0
1.9540697 -4.1171165 0.079548068 22 8
1.3902107 -2.9317374 -0.74908704 3 1
1.985464 -4.1889229 0.24294353 13 9
1.8435115 -3.892941 -0.8372699 13 2
2.0058248 -4.2395239 0.41032922 18 10
1.8376423 -3.8858056 -0.68080288 14 3
2.0149233 -4.2645288 0.5791232 9 11
1.8583595 -3.936723 -0.53451896 12 4
2.0947208 -4.4394345 0.77747941 24 12
1.8733163 -3.9737966 -0.38435683 18 5
1.997641 -4.2413597 0.91130376 18 13
1.8894203 -4.0134039 -0.23247635 20 6
2.1100585 -4.4861345 1.1445509 8 14
1.9101808 -4.0648651 -0.078396209 15 7
2.0910859 -4.4518476 1.3179066 10 15
1.7559937 -3.7640259 -1.112922 10 0
1.9244351 -4.1288457 0.079513162 25 8
1.3726918 -2.9464319 -0.75043672 3 1
1.9384731 -4.1646571 0.24074543 12 9
1.8104937 -3.893255 -0.83459854 16 2
1.9735619 -4.245852 0.409632 18 10
1.8096377 -3.8967488 -0.68049002 13 3
1.9792538 -4.2658868 0.57741702 17 11
1.8231686 -3.931272 -0.5320816 17 4
1.9590394 -4.2281156 0.73805791 21 12
1.842038 -3.977416 -0.38348526 20 5
1.950588 -4.2156601 0.90290827 15 13
1.8479468 -3.9974899 -0.2308016 12 6
2.0925527 -4.5286975 1.1517494 6 14
1.8631911 -4.0360146 -0.077593401 11 7
3.030869 -6.5714459 1.9390724 15 15
1.7240422 -3.7638986 -1.1092985 12 0
1.8946213 -4.1382127 0.07944335 21 8
1.3585736 -2.9701202 -0.75403595 3 1
1.9026059 -4.1614075 0.23980337 14 9
1.7676374 -3.8697727 -0.82696623 15 2
1.9314644 -4.232338 0.40701729 16 10
1.7806119 -3.9035845 -0.67955142 16 3
1.9477018 -4.2738414 0.57668579 7 11
1.7948562 -3.9420979 -0.53183788 14 4
1.8933941 -4.1604447 0.72397882 37 12
1.8043302 -3.9684141 -0.38139355 21 5
1.9787589 -4.3560863 0.93000305 23 13
1.8256482 -4.0208874 -0.23142964 18 6
2.0471995 -4.5130262 1.1441011 9 14
1.8258897 -4.0288887 -0.07720945 8 7
2.0024037 -4.4204249 1.3003069 1 15
1.6864942 -3.7491198 -1.1015339 10 0
1.8583087 -4.134923 0.079129212 17 8
1.3463103 -2.9970751 -0.75853497 3 1
1.8710545 -4.1691217 0.23948936 14 9
1.7341527 -3.8676877 -0.82391334 15 2
1.8871294 -4.2108421 0.40370542 15 10
1.7476661 -3.9032996 -0.67736137 13 3
1.9137642 -4.2782736 0.57546705 10 11
1.7598796 -3.9361019 -0.52940047 17 4
2.0165727 -4.5144444 0.78311098 21 12
1.7400432 -3.8990397 -0.37354952 28 5
1.951462 -4.3748326 0.93114793 18 13
1.7967198 -4.0317097 -0.23132494 21 6
2.1377068 -4.8013687 1.2133859 3 14
1.806554 -4.0594935 -0.077558495 22 7
1.9628615 -4.4148788 1.2946129 12 15
1.2202433 -2.7640481 -0.80958605 59 0
1.8180984 -4.1221805 0.078640543 17 8
1.3253543 -3.0064008 -0.75853497 3 1
1.8378782 -4.1729431 0.23896599 14 9
1.7007831 -3.8653235 -0.82086033 15 2
1.8544782 -4.2166185 0.40300813 25 10
1.7140162 -3.9009373 -0.67485833 18 3
1.877467 -4.276989 0.5735172 12 11
1.7187986 -3.9173894 -0.52525693 21 4
1.8692213 -4.2642703 0.73743218 7 12
1.7375567 -3.9676688 -0.37895316 19 5
1.9468514 -4.4477005 0.94374132 9 13
1.7517245 -4.0057268 -0.22912684 20 6
1.9995919 -4.5768847 1.1530992 6 14
1.772568 -4.0591784 -0.077314161 38 7
2.4603739 -5.6396213 1.6486773 24 15
1.2001491 -2.7707269 -0.80906838 38 0
1.781334 -4.1164203 0.078291491 24 8
1.308975 -3.0263119 -0.76123434 6 1
1.8007783 -4.1673379 0.23791927 17 9
1.670644 -3.8698936 -0.81933385 15 2
1.8249959 -4.2294621 0.40300813 16 10
1.6843947 -3.9073663 -0.67391974 18 3
1.8334292 -4.257174 0.56912988 12 11
1.6961173 -3.940233 -0.52671933 22 4
1.8292608 -4.2536254 0.73336488 21 12
1.7136571 -3.986726 -0.37965041 22 5
1.8793437 -4.3763976 0.92580527 8 13
1.7111179 -3.9884908 -0.22745208 38 6
1.9292237 -4.4990478 1.1301541 7 14
1.7394618 -4.0604258 -0.077104732 23 7
1.9519562 -4.5608487 1.3292947 4 15
1.2072177 -2.8412683 -0.82718569 16 0
1.7407671 -4.0990005 0.077733018 32 8
1.2893379 -3.0389645 -0.76213419 3 1
1.7653532 -4.16295 0.23697723 20 9
1.6320107 -3.8522518 -0.81322795 16 2
1.7977539 -4.2476044 0.40353107 16 10
1.6531419 -3.9078252 -0.67204249 22 3
1.805182 -4.2713838 0.56937367 10 11
1.6639353 -3.9410062 -0.52525693 21 4
