# .PCD v0.7 - Point Cloud Data file format
VERSION 0.7
FIELDS x y z intensity ring
SIZE 4 4 4 4 2
TYPE F F F F U
COUNT 1 1 1 1 1
WIDTH 1296
HEIGHT 1
VIEWPOINT 0 0 0 1 0 0 0
POINTS 1296
DATA ascii
37.401867 11.142874 -2.0452893 15 6
44.827045 13.34651 10.7981 6 14
39.053818 11.612769 -0.71118557 8 7
47.605301 14.137494 13.306405 8 15
4.6815553 1.3769699 -1.3075538 11 0
44.354919 13.029119 0.80692953 21 8
5.5739851 1.636287 -1.3411582 15 1
47.330147 13.876168 2.5848732 8 9
6.9016395 2.0207982 -1.3978667 16 2
47.461018 13.887556 4.3264112 10 10
8.9703255 2.6214104 -1.4801831 7 3
47.64555 13.905476 6.0941987 6 11
12.192607 3.5561345 -1.5594403 2 4
48.104256 14.012023 7.9356084 7 12
19.804255 5.7611637 -1.8044724 2 5
48.231087 14.021576 9.7633152 7 13
38.846321 11.278545 -2.1199205 11 6
48.342773 14.017453 11.620522 7 14
42.003437 12.171334 -0.76333338 15 7
49.038944 14.191485 13.679105 9 15
4.6966257 1.3458495 -1.3091067 10 0
48.289829 13.819536 0.87673914 8 8
5.5908937 1.5989408 -1.342508 13 1
48.616543 13.885501 2.6497695 9 9
6.9250183 1.9752589 -1.3997749 14 2
48.859734 13.927294 4.444943 20 10
9.0112057 2.5652118 -1.4839375 9 3
49.036068 13.940528 6.2594538 7 11
12.226685 3.47364 -1.5606589 2 4
49.580582 14.067275 8.1627512 7 12
19.94367 5.6510177 -1.8135366 2 5
49.721874 14.079239 10.044949 7 13
39.898502 11.282634 -2.1729891 12 6
50.067291 14.139327 12.011036 8 14
42.310623 11.940821 -0.76738232 15 7
50.546257 14.246018 14.071475 9 15
4.7133503 1.3151048 -1.3111774 10 0
49.756672 13.86424 0.90159136 8 8
5.613184 1.5630066 -1.3452073 19 1
50.136246 13.94172 2.7272267 9 9
6.9253979 1.9231879 -1.3971035 13 2
50.315014 13.963056 4.5683556 10 10
9.034606 2.5038218 -1.4848762 9 3
50.551765 13.990757 6.4403076 8 11
12.258291 3.3903139 -1.5616339 2 4
50.972351 14.078431 8.3755016 8 12
20.067146 5.5349565 -1.8212065 2 5
51.234669 14.122016 10.3304 7 13
41.969341 11.552417 -2.2813246 21 6
51.660511 14.200571 12.369159 8 14
50.316212 13.821627 -0.91080624 8 7
52.067841 14.283222 14.46695 10 15
4.7112303 1.2791303 -1.3080715 11 0
51.245716 13.894349 0.92679262 9 8
5.644649 1.5293869 -1.3501562 20 1
51.566483 13.95234 2.79966 10 9
6.9462371 1.8768411 -1.39863 12 2
9.0785675 2.4478872 -1.4892563 9 3
52.124161 14.034913 6.6279864 9 11
12.241405 3.2938204 -1.5565153 21 4
52.643257 14.145128 8.6336193 8 12
20.136087 5.4029875 -1.8239954 2 5
52.830059 14.165668 10.631878 8 13
42.463764 11.3702 -2.303829 14 6
53.622166 14.337917 12.814562 18 14
47.138805 12.595554 -0.85167748 6 7
53.797649 14.354662 14.919365 11 15
4.736856 1.2506469 -1.3127302 12 0
52.888355 13.944113 0.95471644 9 8
5.6589575 1.4909356 -1.3510561 26 1
53.211716 13.999574 2.8836069 11 9
6.9914503 1.8367819 -1.4051175 11 2
53.465061 14.036303 4.8360977 11 10
9.0591288 2.3749292 -1.4833118 7 3
53.776379 14.077885 6.8254151 9 11
12.287148 3.2143075 -1.5594403 36 4
54.422619 14.216619 8.9089441 18 12
20.165606 5.2602577 -1.823298 8 5
54.54628 14.218418 10.957017 8 13
46.66489 12.146584 -2.5270944 9 6
55.033653 14.30444 13.127693 9 14
47.17527 12.253063 -0.85076988 19 7
4.7267585 1.2127482 -1.3075538 11 0
54.654224 14.002319 0.98480439 10 8
5.6560125 1.4480116 -1.3479067 16 1
55.072903 14.078861 2.9790676 12 9
6.9888854 1.7840428 -1.4020646 15 2
55.318577 14.110812 4.9947214 11 10
8.9663763 2.2838345 -1.4654782 10 3
55.485527 14.11218 7.0296683 10 11
56.180561 14.257643 9.1802015 9 12
20.327375 5.1511698 -1.8346283 11 5
56.448421 14.294167 11.31879 8 13
46.746609 11.820038 -2.5269895 18 6
55.24033 13.936934 -0.99443811 10 7
62.527668 15.752293 17.277725 17 15
4.742609 1.1815878 -1.3096244 11 0
56.372952 14.024002 1.0139848 11 8
5.6565275 1.4061394 -1.3456572 15 1
67.27346 16.698343 3.6326392 21 9
7.02213 1.7404064 -1.4062624 12 2
9.001277 2.2259283 -1.4686069 9 3
67.423485 16.648167 8.5271988 31 11
9.1064644 2.2468812 -1.1516654 2 4
20.349298 5.0058012 -1.8334082 2 5
65.934464 16.207264 13.197878 13 13
47.262482 11.600038 -2.550436 19 6
67.674614 16.584921 16.08625 13 14
67.110535 16.434267 -1.2060311 16 7
4.7507429 1.1484472 -1.3096244 11 0
5.6737847 1.36844 -1.3474568 15 1
65.334023 15.733583 3.5218964 19 9
7.0322008 1.6908813 -1.4058808 10 2
9.0127563 2.1621115 -1.4679812 9 3
67.439621 16.153475 8.5147676 30 11
9.0929699 2.1763203 -1.1480093 32 4
9.1666784 2.1871927 -0.82449329 70 5
66.003983 15.736543 13.189481 13 13
51.809193 12.333138 -2.7910769 11 6
67.669304 16.08367 16.057905 26 14
52.552021 12.480898 -0.94281393 26 7
4.7473588 1.11261 -1.3065187 12 0
5.6869946 1.3296863 -1.3483566 14 1
67.268585 15.703424 3.6201832 42 9
7.0304508 1.6386232 -1.4032094 12 2
9.0430241 2.1027129 -1.4704841 9 3
67.461792 15.661612 8.5035553 30 11
9.121479 2.115922 -1.1497154 13 4
67.501564 15.633603 10.974192 33 12
9.1991959 2.1271884 -0.82606214 3 5
67.474197 15.590048 13.461194 13 13
51.839535 11.958594 -2.788146 11 6
67.709686 15.594674 16.04126 13 14
67.107384 15.443656 -1.2019821 33 7
67.757942 15.568437 18.628761 21 15
4.7550101 1.0794401 -1.3065187 12 0
5.7037411 1.2916727 -1.3501562 20 1
7.0455494 1.590366 -1.4039726 12 2
9.0555573 2.0390954 -1.4701713 6 3
69.016243 15.515537 8.6856289 15 11
10.424022 2.3415074 -1.3118018 10 4
69.205032 15.519919 11.233248 18 12
20.476889 4.5846305 -1.8358486 2 5
52.514332 11.728717 -2.8199663 11 6
57.676888 12.850038 -1.0314373 11 7
4.7586565 1.0453886 -1.3054833 12 0
5.699295 1.2489017 -1.3470069 13 1
7.0660696 1.5432379 -1.4058808 10 2
9.081151 1.9783533 -1.4720485 4 3
10.397437 2.259408 -1.3064394 32 4
72.300064 15.684693 11.717569 20 12
10.445029 2.26211 -0.9350068 31 5
57.081154 12.330946 -3.0605025 13 6
57.909847 12.478233 -1.0340202 22 7
4.773397 1.0137489 -1.3075538 11 0
5.7021551 1.2078739 -1.3456572 14 1
7.080513 1.4946808 -1.406644 11 2
9.0618811 1.9079878 -1.4667298 6 3
8.945879 1.8802984 1.1224167 0 11
8.9228945 1.8738459 -1.1194919 12 4
75.172493 15.759111 12.16497 21 12
8.9180021 1.8663193 -0.79712647 9 5
8.9075394 1.8592622 -0.47688529 12 6
8.9311266 1.8593062 -0.15923576 10 7
4.7879291 0.98194999 -1.3096244 11 0
8.94312 1.8308799 0.15934047 32 8
5.712359 1.1684237 -1.3461071 14 1
8.9547062 1.8283676 0.47897872 16 9
7.0946226 1.4460007 -1.4074073 11 2
8.965064 1.8255934 0.80043828 10 10
8.9026957 1.8096569 -1.4388845 8 3
8.9743519 1.820961 1.1243666 14 11
8.9085217 1.8059849 -1.1160794 11 4
8.9132376 1.8004639 -0.79555762 10 5
8.9222612 1.7974252 -0.47698995 13 6
8.924283 1.7929708 -0.1588867 12 7
4.7738209 0.94437599 -1.3039304 11 0
8.9596071 1.7691797 0.15941028 39 8
5.7337599 1.1311557 -1.3492564 12 1
8.9554939 1.763492 0.47835067 16 9
7.1006918 1.3956749 -1.406644 11 2
8.9599953 1.7595057 0.79886949 10 10
8.9112339 1.7467002 -1.4382586 8 3
8.9751568 1.7559768 1.1229043 28 11
8.9111719 1.7418437 -1.1148609 12 4
8.9079895 1.7347664 -0.79398882 10 5
8.9267502 1.7335693 -0.47657129 13 6
8.9228401 1.7279626 -0.15864237 13 7
4.7840929 0.91174877 -1.3049657 10 0
8.9501305 1.7024763 0.15902632 12 8
5.7453456 1.0918266 -1.3501562 20 1
8.9695482 1.7013043 0.47845533 16 9
7.114121 1.3467991 -1.4074073 11 2
8.9661865 1.6958038 0.79834664 10 10
8.8960361 1.6793157 -1.4338784 8 3
8.9523773 1.6850975 -1.1185169 12 4
8.9335909 1.6751049 -0.79520899 11 5
8.9680834 1.6767123 -0.47814137 15 6
8.9582767 1.6700251 -0.15906124 13 7
4.7903409 0.87832952 -1.3049657 10 0
8.9657326 1.6406666 0.15909614 14 8
5.7528276 1.0516927 -1.3501562 18 1
8.9988928 1.6418658 0.47939742 16 9
7.1426649 1.3006175 -1.4112234 10 2
8.9895697 1.6353019 0.79939252 10 10
8.8958817 1.6150515 -1.4320012 8 3
88.263222 15.992452 11.013821 33 11
8.9678297 1.6232641 -1.1190044 11 4
8.9333038 1.6105748 -0.79416311 10 5
8.9422216 1.6073489 -0.47615257 13 6
8.9539709 1.6046219 -0.15878199 13 7
4.8039665 0.84620571 -1.3070362 10 0
8.9631824 1.5756106 0.1588518 10 8
5.7446742 1.0088081 -1.3465569 15 1
8.9904623 1.5755539 0.47835067 15 9
7.1477027 1.2500476 -1.4104601 11 2
8.9968414 1.5718173 0.79904383 9 10
8.9030466 1.5522327 -1.4313755 8 3
8.9322767 1.5509001 -1.1131548 10 4
8.9286242 1.5454509 -0.79276866 9 5
8.9394474 1.5425041 -0.47541988 11 6
8.9553699 1.5388144 -0.15860747 11 7
4.8327575 0.81566578 -1.3132479 10 0
8.9601603 1.5106746 0.15860747 16 8
5.7536688 0.96799785 -1.3470069 15 1
8.9739304 1.5065498 0.47688529 22 9
7.1523829 1.1994673 -1.4096969 12 2
8.9921379 1.5047663 0.79764932 10 10
8.8983402 1.4858817 -1.4288726 8 3
8.9252615 1.4855742 -1.110961 13 4
8.9313335 1.4817796 -0.79207134 11 5
8.9325209 1.4755657 -0.4744778 16 6
8.9441891 1.4726828 -0.15822351 17 7
4.8345203 0.78128821 -1.3122126 10 0
8.9746876 1.447155 0.15867728 16 8
5.7622104 0.92811316 -1.3474568 14 1
8.9862013 1.4441847 0.47698995 23 9
7.16466 1.148877 -1.4104601 11 2
8.9768486 1.4378606 0.79538327 10 10
8.9045944 1.4230998 -1.4282467 8 3
8.937623 1.4219803 -1.1112047 15 4
8.9377718 1.4172064 -0.79172277 14 5
8.9564142 1.4153554 -0.47521055 17 6
8.9525242 1.4083314 -0.15818861 19 7
4.8418961 0.74697 -1.3127302 11 0
8.9786434 1.383551 0.15857257 19 8
5.7764082 0.88804317 -1.3492564 14 1
9.0002537 1.3804494 0.47719929 23 9
7.1705656 1.0985329 -1.4100785 12 2
8.986908 1.3735869 0.79538327 10 10
8.9047871 1.3578547 -1.4266826 10 3
8.9453707 1.3592511 -1.110961 13 4
8.9415388 1.3538797 -0.7911998 12 5
8.9643373 1.3509309 -0.47510585 16 6
8.9660931 1.3463949 -0.15825842 19 7
4.8487802 0.71427649 -1.3132479 10 0
8.9682989 1.317927 0.15822351 14 8
5.7803912 0.8484208 -1.3488065 13 1
9.0133944 1.3197333 0.47740865 19 9
7.1916585 1.0504324 -1.4127499 10 2
8.9980211 1.3126707 0.79555762 10 10
8.8923206 1.2940809 -1.4232409 10 3
8.9448195 1.2953451 -1.1097424 10 4
8.9271088 1.2880087 -0.7891081 9 5
8.9377413 1.2847619 -0.47322178 12 6
8.9594374 1.2815019 -0.15797918 11 7
4.8728991 0.68223977 -1.3184243 11 0
8.9614382 1.2530733 0.15794428 12 8
5.7921042 0.80784315 -1.3501562 15 1
8.9968901 1.2516235 0.4760479 16 9
7.1988163 1.0001996 -1.4127499 10 2
8.9894218 1.2457873 0.79398882 10 10
8.8993959 1.2301452 -1.4229281 10 3
8.9261131 1.2290759 -1.1063299 15 4
8.9299612 1.2248421 -0.78858513 14 5
8.9467058 1.2207763 -0.47322178 20 6
8.9661837 1.2186525 -0.15794428 20 7
4.8947787 0.6504944 -1.323083 11 0
8.9721575 1.1891775 0.15797918 16 8
5.8091946 0.7689212 -1.3528557 17 1
8.9796677 1.1853892 0.47468719 24 9
7.190218 0.94661045 -1.4096969 11 2
8.9939489 1.1824838 0.7936402 10 10
8.8901396 1.1656744 -1.4201121 10 3
8.9287748 1.1643964 -1.1055988 13 4
8.9483767 1.1621882 -0.78945673 12 5
8.958972 1.1587948 -0.47343111 20 6
8.9548407 1.1519096 -0.15759523 20 7
4.8878069 0.6140067 -1.3199772 12 0
8.9861946 1.1272535 0.1580839 16 8
5.8338847 0.72975069 -1.3573546 16 1
9.0037756 1.1230795 0.47552454 23 9
7.1927547 0.89590484 -1.4089336 11 2
9.0021811 1.1180943 0.7936402 10 10
8.8962927 1.1017854 -1.4197993 10 3
8.9504766 1.1037383 -1.1073049 14 4
8.9424295 1.097993 -0.78823656 12 5
8.9690151 1.0949068 -0.47353578 22 6
8.9765606 1.0910496 -0.15783957 25 7
4.8881373 0.57941592 -1.318942 11 0
8.9920444 1.0626905 0.158049 18 8
5.8620605 0.69174796 -1.3627534 20 1
9.0133801 1.0604273 0.47562921 26 9
7.2028813 0.8448692 -1.4096969 11 2
8.9998732 1.0540569 0.79276866 10 10
8.8919954 1.0382762 -1.4179221 10 3
8.9500771 1.0403086 -1.1063299 11 4
8.9421406 1.0330597 -0.78753924 11 5
8.9685049 1.0313476 -0.47311705 13 6
8.9680653 1.0265398 -0.15756033 16 7
4.8997431 0.54613221 -1.3210124 11 0
8.9793701 0.99767572 0.15769994 13 8
5.8744946 0.65166569 -1.3645531 19 1
9.0106373 0.99637419 0.47510585 16 9
7.2183604 0.79564184 -1.411605 9 2
9.0030508 0.99076426 0.79241997 10 10
8.8872452 0.97488493 -1.4160448 10 3
8.9393616 0.97586536 -1.1041363 13 4
8.929327 0.96845841 -0.78579617 11 5
8.9556293 0.96656734 -0.47207037 18 6
8.957118 0.96198398 -0.15724619 14 7
4.9226503 0.51391816 -1.3261888 13 0
8.9741821 0.93372625 0.15749051 21 8
5.8730865 0.61003131 -1.3632034 17 1
9.0014801 0.93180293 0.47426847 31 9
7.229598 0.74583322 -1.4127499 10 2
8.9998388 0.92687082 0.79154849 11 10
8.8859749 0.91200984 -1.4147935 10 3
8.9281826 0.91161829 -1.1019428 16 4
8.9319057 0.90569431 -0.78544754 11 5
8.9581842 0.90362078 -0.47186103 27 6
8.9755535 0.90062594 -0.15745561 25 7
4.937655 0.48066211 -1.3292947 12 0
8.9844627 0.87143803 0.15756033 15 8
5.890779 0.57033187 -1.3663527 17 1
8.9898748 0.86721212 0.47332644 19 9
7.2463546 0.6964699 -1.4150395 10 2
9.0060911 0.86401743 0.79154849 10 10
8.8921251 0.8499518 -1.4147935 11 3
8.948163 0.85057628 -1.1036489 12 4
8.9518957 0.84463006 -0.7866677 11 5
8.9563208 0.84031683 -0.47144234 15 6
8.969676 0.83683258 -0.15724619 19 7
4.9370427 0.44583166 -1.3282595 12 0
9.0042696 0.80994749 0.15780467 22 8
5.9101448 0.5305866 -1.3699518 16 1
9.0215712 0.80674249 0.47468719 31 9
7.254952 0.64620876 -1.4158028 11 2
9.015872 0.80147487 0.79189706 11 10
8.9017782 0.7881965 -1.4154192 11 3
8.9579754 0.78687465 -1.1041363 20 4
8.9397106 0.78055382 -0.78509891 15 5
8.9858456 0.77984172 -0.47269842 27 6
8.9893808 0.77382624 -0.15749051 29 7
4.9343305 0.41001159 -1.3267065 10 0
8.9997396 0.74624419 0.15763015 15 8
5.9332113 0.48988453 -1.3744509 19 1
9.0131798 0.74101937 0.47395447 20 9
7.2925496 0.59827632 -1.4222903 13 2
9.0114479 0.7361272 0.79102546 10 10
8.883563 0.72255498 -1.4116647 10 3
8.9533567 0.72351325 -1.1029177 11 4
8.946928 0.71827906 -0.78527319 10 5
8.9613333 0.71314394 -0.47112834 15 6
8.9626694 0.70852816 -0.15693204 12 7
4.9467039 0.37628615 -1.3292947 11 0
8.9769335 0.67971069 0.15714148 18 8
5.9326005 0.4481574 -1.3735511 18 1
9.0101652 0.67748266 0.47353578 26 9
7.310348 0.54710233 -1.4249617 11 2
8.9945107 0.67156994 0.7891081 10 10
8.8844519 0.66022986 -1.411039 11 3
8.95819 0.66099364 -1.1029177 22 4
8.9339561 0.65293515 -0.78370446 18 5
8.9700775 0.65084946 -0.47133768 30 6
8.9813595 0.64694107 -0.15717638 28 7
4.9627008 0.34267637 -1.332918 10 0
8.9874439 0.61743444 0.15724619 23 8
5.9297523 0.40633228 -1.3722014 17 1
9.0027208 0.61374402 0.47290775 34 9
7.3335772 0.49738163 -1.4287778 12 2
9.014884 0.60983157 0.79050261 13 10
8.884902 0.59792334 -1.4104134 11 3
8.9586248 0.59817308 -1.1024302 10 4
8.9661293 0.59238732 -0.78614479 10 5
8.948493 0.58651674 -0.46997693 15 6
8.9836607 0.58409816 -0.15714148 17 7
4.959188 0.30766293 -1.3313652 9 0
9.0015163 0.55528659 0.15742071 15 8
5.9499502 0.36600173 -1.3762506 15 1
9.01476 0.55136597 0.47332644 17 9
7.3290324 0.44569483 -1.4272513 11 2
9.0288658 0.54748392 0.79137415 10 10
8.8967476 0.53635591 -1.4116647 11 3
8.9705086 0.53608918 -1.1034052 16 4
8.970046 0.52977753 -0.78614479 17 5
8.9942398 0.52648109 -0.47217503 26 6
8.9994974 0.52206099 -0.1573509 30 7
4.9534993 0.27260682 -1.3292947 9 0
9.0091658 0.49264896 0.15749051 20 8
5.9562521 0.32466361 -1.3771503 18 1
9.0243721 0.48874164 0.47364044 28 9
7.3476481 0.39536503 -1.4303043 11 2
9.0245094 0.4840104 0.79067689 11 10
8.8963299 0.47402591 -1.411039 11 3
59.74902 3.1626832 7.3465281 12 11
8.9561911 0.47251317 -1.1012114 9 4
8.9635773 0.46662399 -0.78527319 9 5
8.9657831 0.46203205 -0.47050032 11 6
8.9569902 0.45687702 -0.15654808 10 7
4.9533525 0.23792556 -1.3287771 10 0
8.9824247 0.42831677 0.15696694 12 8
5.9564271 0.28298077 -1.3767005 18 1
9.005619 0.42469713 0.47248909 16 9
7.3619962 0.34460995 -1.4325941 11 2
8.9938335 0.41942206 0.78771359 10 10
8.8954763 0.41171935 -1.4104134 10 3
48.220646 2.2149839 5.9269943 6 11
8.9355469 0.40732729 -1.0982866 13 4
50.142654 2.276962 7.9500008 7 12
8.9108858 0.40152809 -0.78039253 11 5
8.9647989 0.39925435 -0.47029093 22 6
8.9660244 0.39303333 -0.15665281 24 7
4.9626489 0.20278959 -1.3308476 10 0
8.9692116 0.36494678 0.15668771 22 8
5.9582996 0.24035031 -1.3767005 21 1
9.020401 0.36072233 0.47311705 34 9
7.3642225 0.29320163 -1.4325941 11 2
9.01054 0.35560295 0.78893375 11 10
8.8863506 0.34759527 -1.4085361 11 3
8.9480915 0.34531829 -1.0995053 11 4
49.833935 1.9057115 7.8986897 7 12
8.9293995 0.33991495 -0.78178698 10 5
8.9334965 0.33382562 -0.46851152 13 6
8.9545603 0.329918 -0.15640847 14 7
4.9735975 0.16846818 -1.3334358 9 0
8.9815874 0.3010903 0.15686224 12 8
5.9617796 0.19881546 -1.3771503 15 1
9.0187082 0.29760754 0.47290775 13 9
7.3700566 0.2406251 -1.4333572 10 2
9.0207682 0.29294753 0.78963101 10 10
8.8925104 0.28567097 -1.4091618 13 3
58.445366 1.8571584 7.179811 11 11
8.9463158 0.28271076 -1.0990179 16 4
49.7631 1.5551908 7.8855491 14 12
8.9495268 0.27656281 -0.78335583 11 5
8.9775324 0.2727235 -0.47070965 31 6
9.0006189 0.26870811 -0.15717638 25 7
4.9707899 0.13363798 -1.3324004 9 0
9.0054579 0.2389631 0.15724619 19 8
5.9610744 0.1571382 -1.3767005 18 1
9.0325441 0.23494942 0.47353578 34 9
7.3754816 0.18927076 -1.4341204 11 2
9.0464954 0.23057275 0.79172277 11 10
8.8962622 0.22363648 -1.4094746 15 3
49.371948 1.2238806 6.0639753 6 11
8.9599781 0.22054414 -1.1004803 14 4
48.978882 1.1884778 7.7597766 6 12
8.9532318 0.21411996 -0.78353012 16 5
8.9612484 0.20961724 -0.4697676 20 6
8.9862823 0.20549537 -0.15689714 23 7
4.9773965 0.099047378 -1.3339534 10 0
9.0089064 0.17612642 0.15728109 13 8
5.9795618 0.115858 -1.3807496 19 1
9.0219841 0.17165671 0.47290775 15 9
7.3687716 0.13762893 -1.4325941 11 2
9.0199957 0.16689466 0.78928244 10 10
8.903532 0.16163097 -1.4104134 13 3
49.57975 0.88273877 6.088593 13 11
8.9474068 0.15774138 -1.0987741 12 4
50.526546 0.87313378 8.0038137 7 12
8.9365788 0.1513101 -0.78196126 12 5
8.952507 0.14689125 -0.46924424 17 6
8.9555063 0.14225043 -0.15633865 14 7
4.9586501 0.064049058 -1.3287771 10 0
8.9919205 0.11300195 0.15696694 25 8
5.988019 0.0742094 -1.3825492 19 1
9.0209656 0.10864316 0.47280309 35 9
7.3852582 0.086365521 -1.4356469 10 2
9.0089874 0.10378144 0.78823656 11 10
8.8965425 0.099380404 -1.4091618 12 3
49.638298 0.53716528 6.0951738 6 11
8.9423332 0.09520945 -1.0980428 21 4
49.978336 0.51467514 7.9162107 7 12
8.9294491 0.088838048 -0.78126407 19 5
8.9752846 0.084594451 -0.47039565 36 6
8.9762774 0.079903737 -0.15668771 31 7
4.9782944 0.029541863 -1.3339534 10 0
8.9664946 0.050078563 0.15651318 12 8
5.9864421 0.032389939 -1.3820993 21 1
9.0155125 0.045631967 0.47248909 16 9
7.3915706 0.034835868 -1.4367918 9 2
9.0035152 0.040857192 0.78771359 10 10
8.9009695 0.037289195 -1.4097875 12 3
49.529675 0.19018473 6.0815248 6 11
8.9666023 0.032869462 -1.1009678 11 4
50.901234 0.1688007 8.0620079 7 12
8.9577446 0.026579343 -0.78370446 11 5
8.9656696 0.021908695 -0.46987227 12 6
8.9786167 0.017239399 -0.15672261 13 7
4.9725833 -0.0052072788 -1.3324004 9 0
9.0046206 -0.01257283 0.15717638 22 8
5.988471 -0.0094066756 -1.3825492 19 1
9.0375805 -0.017350931 0.47364044 38 9
7.3975234 -0.016784476 -1.4379367 10 2
9.0314751 -0.022068102 0.79015392 11 10
8.8970633 -0.024845351 -1.4091618 12 3
8.9527178 -0.029688444 -1.0992615 20 4
50.913021 -0.18660681 8.0638847 7 12
8.9517336 -0.035934754 -0.78318143 21 5
46.465897 -0.19463703 9.032135 11 13
8.9855757 -0.040775526 -0.47091895 35 6
9.0085125 -0.04559657 -0.15724619 31 7
4.9782214 -0.039968576 -1.3339534 10 0
9.0063124 -0.075452872 0.15721127 21 8
5.9941058 -0.051263519 -1.383899 17 1
9.0192642 -0.080284208 0.47269842 27 9
7.4050784 -0.068500735 -1.4394631 11 2
9.0271158 -0.085081071 0.78980529 10 10
8.9045734 -0.08703468 -1.4104134 7 3
8.9463367 -0.092127651 -1.0985304 11 4
50.732704 -0.54014659 8.0357265 7 12
8.9691963 -0.098625429 -0.78475034 11 5
45.578033 -0.50913274 8.8600254 11 13
8.9571133 -0.10318309 -0.46945357 13 6
8.9679842 -0.10800461 -0.15654808 15 7
4.9700947 -0.074605882 -1.331883 10 0
8.9975681 -0.13820359 0.15707165 18 8
6.0033441 -0.093260027 -1.3861483 17 1
9.0045061 -0.14302607 0.4719657 20 9
7.4044199 -0.12019586 -1.4394631 10 2
9.0043879 -0.1477401 0.78788787 11 10
8.9076996 -0.14926389 -1.411039 13 3
8.9415054 -0.15451349 -1.0980428 17 4
24.921432 -0.43935621 3.9477808 16 12
8.9324312 -0.16059464 -0.78161269 17 5
46.690277 -0.84758812 9.0771656 5 13
8.9761438 -0.16608198 -0.47050032 31 6
58.212166 -1.0974035 13.441725 10 14
8.9770079 -0.17080002 -0.15672261 30 7
4.9655895 -0.10921662 -1.3308476 10 0
8.9923849 -0.20092523 0.15700185 24 8
6.0064435 -0.13525641 -1.3870482 18 1
9.0192623 -0.20625067 0.47280309 35 9
7.411252 -0.17206739 -1.4409896 10 2
9.007122 -0.21069165 0.78823656 11 10
8.9064407 -0.21144724 -1.411039 12 3
56.739315 -1.3668616 6.9687333 10 11
8.9600544 -0.21741426 -1.1004803 11 4
24.949354 -0.61410612 3.9527867 19 12
8.9470654 -0.22178657 -0.78300714 11 5
59.036041 -1.4840502 11.47907 9 13
8.9647818 -0.2284883 -0.46997693 13 6
8.9616032 -0.23310269 -0.15647829 11 7
4.9782238 -0.14427179 -1.334471 9 0
8.9848127 -0.26195452 0.15689714 13 8
5.9956131 -0.17689829 -1.3847986 21 1
9.0276299 -0.26793382 0.47332644 16 9
7.4138331 -0.22262764 -1.4417528 11 2
9.0074224 -0.27362809 0.78841084 10 10
8.9008446 -0.27194545 -1.4104134 12 3
50.982609 -1.5754728 6.262866 7 11
8.9741917 -0.2804575 -1.1024302 17 4
24.841927 -0.78068894 3.9365175 17 12
8.9472895 -0.28430623 -0.78318143 13 5
57.748787 -1.8551855 11.231018 8 13
8.9889698 -0.29034206 -0.47133768 31 6
9.0077257 -0.29724315 -0.157316 28 7
4.9809875 -0.17829208 -1.3355063 10 0
8.9987535 -0.32525131 0.15717638 23 8
5.9884276 -0.21749252 -1.383449 19 1
9.0315275 -0.33117107 0.47364044 35 9
7.4199457 -0.2746706 -1.4432793 11 2
9.033226 -0.3359696 0.79085118 11 10
8.9066257 -0.33437431 -1.4116647 11 3
45.705711 -1.7318698 5.6159835 15 11
8.9641399 -0.34123388 -1.1014552 16 4
24.997734 -0.96031606 3.9621725 14 12
8.963006 -0.34745729 -0.78475034 12 5
46.329102 -1.8040787 9.012291 5 13
8.9707584 -0.35246208 -0.47050032 23 6
43.907658 -1.7404871 10.144843 10 14
9.011487 -0.35878807 -0.15742071 29 7
25.477968 -1.0233009 6.8323054 14 15
4.9796214 -0.2130613 -1.3355063 9 0
9.0082502 -0.38858312 0.15738581 14 8
5.9828696 -0.25912538 -1.3825492 19 1
9.015028 -0.39360464 0.47290775 19 9
7.4178472 -0.3264645 -1.4432793 12 2
9.0306606 -0.3990247 0.79085118 10 10
8.9080219 -0.39672142 -1.4122906 12 3
30.359213 -1.3626754 3.731396 4 11
8.9436913 -0.40300235 -1.0992615 13 4
25.000286 -1.1352563 3.963737 9 12
8.9563799 -0.40983972 -0.78440166 12 5
26.028866 -1.1956209 5.0648341 34 13
8.9561081 -0.41452658 -0.46987227 21 6
25.35284 -1.1823056 5.8595247 4 14
8.9728069 -0.4200078 -0.15679242 16 7
25.684401 -1.2112457 6.8897634 21 15
4.970295 -0.24743591 -1.3334358 9 0
9.0053177 -0.45146257 0.15738581 23 8
5.9945393 -0.30157241 -1.3856986 17 1
9.0180445 -0.45683447 0.47322178 35 9
7.4016628 -0.37754238 -1.4406079 13 2
9.0097466 -0.46114376 0.78928244 11 10
8.9168701 -0.45951092 -1.4141676 11 3
29.776039 -1.5448629 3.6609554 12 11
8.950491 -0.46750894 -1.1004803 17 4
25.285681 -1.3251665 4.0103545 6 12
8.9314165 -0.47120193 -0.78248423 16 5
25.992197 -1.3803898 5.0594916 9 13
8.9789248 -0.47842294 -0.47123301 32 6
23.903969 -1.2820402 5.5265975 17 14
8.9815521 -0.48485133 -0.15700185 30 7
25.748621 -1.3944955 6.9094334 42 15
4.9703259 -0.28310585 -1.3339534 10 0
8.9899683 -0.51363564 0.15717638 12 8
6.001955 -0.34501952 -1.3879479 16 1
9.0205259 -0.52169991 0.47353578 16 9
7.4066868 -0.42966095 -1.4421345 12 2
9.0181503 -0.52630031 0.79032826 10 10
8.9133539 -0.52330637 -1.4141676 11 3
38.804859 -2.2850442 4.7728915 5 11
8.9668255 -0.53115702 -1.1029177 10 4
25.28738 -1.5067762 4.0122313 8 12
8.9617186 -0.53556347 -0.78544754 10 5
26.191616 -1.5744193 5.1003246 18 13
8.9792576 -0.54290307 -0.47144234 13 6
24.355442 -1.476843 5.6332245 15 14
8.9779491 -0.5475421 -0.15700185 12 7
24.822077 -1.5225317 6.6635551 13 15
4.9643722 -0.3175514 -1.332918 10 0
9.0040226 -0.57910782 0.15749051 20 8
5.9994001 -0.38691232 -1.3879479 13 1
9.0425749 -0.58634192 0.47489652 31 9
7.413218 -0.48328918 -1.4440426 11 2
9.0301609 -0.59028524 0.79172277 11 10
8.9055414 -0.58526099 -1.4135419 10 3
30.488073 -2.0143266 3.7516263 16 11
8.9827061 -0.59505594 -1.105355 17 4
25.32552 -1.6865588 4.0200534 13 12
8.9596453 -0.59981108 -0.78562188 21 5
25.931215 -1.7405334 5.0518594 10 13
8.9991608 -0.60718977 -0.47269842 27 6
24.513403 -1.6625597 5.6723657 16 14
8.9998436 -0.61196971 -0.15745561 26 7
25.163548 -1.7198908 6.7582831 14 15
4.9716697 -0.35288516 -1.3355063 9 0
9.0097322 -0.64266461 0.15766504 19 8
5.9907222 -0.42836931 -1.3865983 12 1
9.0203323 -0.64816791 0.47395447 24 9
7.4116211 -0.53517246 -1.4444242 12 2
9.0278072 -0.65345657 0.79189706 10 10
8.9091196 -0.64799184 -1.4147935 10 3
30.338638 -2.2172832 3.7350519 4 11
8.9565544 -0.65615666 -1.1026739 13 4
31.154318 -2.2932971 4.94771 9 12
8.9671602 -0.6632278 -0.7866677 12 5
25.162689 -1.8654946 4.9045544 2 13
8.9588518 -0.66732985 -0.47081429 16 6
25.004513 -1.8713213 5.7888904 10 14
8.9873772 -0.67418683 -0.157316 19 7
24.912056 -1.8775196 6.6940956 10 15
4.9806404 -0.38848642 -1.3386122 9 0
8.9990463 -0.70507967 0.15756033 18 8
6.0050697 -0.47155467 -1.3906474 16 1
9.0036402 -0.71018302 0.47332644 27 9
7.3998761 -0.58628154 -1.4428977 12 2
9.0150805 -0.71583521 0.7911998 10 10
8.9201317 -0.71142936 -1.4172964 11 3
29.095591 -2.330754 3.5839338 5 11
8.9497776 -0.71850985 -1.1024302 15 4
25.36842 -2.0455511 4.031004 7 12
8.948411 -0.72468793 -0.78544754 15 5
25.168621 -2.0427048 4.908371 12 13
8.975872 -0.73164266 -0.4719657 22 6
25.072414 -2.0525167 5.807786 1 14
8.9744787 -0.73625958 -0.15717638 23 7
24.986908 -2.0586882 6.7179074 21 15
4.9701076 -0.42259341 -1.3365415 9 0
9.001874 -0.76856768 0.15769994 16 8
6.015223 -0.51462895 -1.3937967 15 1
9.006423 -0.7737062 0.47374511 26 9
7.3877792 -0.63725293 -1.4413712 12 2
9.0058937 -0.77841139 0.79085118 10 10
8.9228201 -0.774369 -1.418548 11 3
26.644188 -2.3216929 3.2838917 14 11
8.9564085 -0.78200901 -1.1038926 11 4
25.150831 -2.2048359 3.9987781 9 12
8.959012 -0.78853893 -0.78684205 10 5
25.13419 -2.216639 4.9045544 11 13
8.9645758 -0.79375923 -0.47165167 13 6
25.115707 -2.2326806 5.8212838 12 14
8.9651356 -0.79853988 -0.15710656 11 7
24.785282 -2.2163875 6.6676965 26 15
4.9612656 -0.45674944 -1.3349887 10 0
9.0122194 -0.83286542 0.15797918 11 8
6.0095429 -0.55643058 -1.3933468 13 1
9.0326214 -0.83952099 0.47541988 16 9
7.3929238 -0.68972522 -1.4432793 12 2
9.0280123 -0.84386075 0.79329151 10 10
8.907362 -0.83571994 -1.4169836 8 3
26.216249 -2.4689326 3.2331939 18 11
8.9783983 -0.84712756 -1.1073049 15 4
25.022732 -2.369751 3.9809449 6 12
8.9671717 -0.85238475 -0.78806221 13 5
25.018429 -2.3825612 4.8850923 11 13
9.0005703 -0.86031485 -0.4738498 20 6
24.620367 -2.3619983 5.7101574 9 14
9.0011444 -0.86512607 -0.15783957 14 7
29.261158 -2.8226833 7.8768992 12 15
4.9694896 -0.49251732 -1.3380945 10 0
9.0081749 -0.89595973 0.1580141 13 8
5.9958167 -0.59740525 -1.3910973 12 1
9.0424385 -0.90414935 0.47625723 26 9
7.3957424 -0.74210447 -1.4448059 10 2
9.0298309 -0.90766412 0.79398882 10 10
8.9150686 -0.89927197 -1.4191736 10 3
27.604574 -2.7942355 3.4067359 15 11
8.9841166 -0.91098911 -1.1087674 14 4
31.844578 -3.2402697 5.0697289 10 12
8.9709129 -0.9159779 -0.78893375 12 5
25.716007 -2.6302762 5.0247645 15 13
8.9883823 -0.9225173 -0.47353578 22 6
18.590092 -1.9145408 4.3145609 23 14
9.0068197 -0.92917556 -0.158049 19 7
28.994776 -3.0014331 7.8106413 21 15
4.9601674 -0.52658683 -1.3365415 9 0
9.0017004 -0.95882636 0.1580141 13 8
5.9895616 -0.6390422 -1.3906474 21 1
9.0359068 -0.96725488 0.47625723 16 9
7.3962379 -0.79434687 -1.4459506 12 2
9.0232744 -0.97068161 0.79398882 10 10
8.9164295 -0.96233642 -1.4204252 10 3
25.699648 -2.7827988 3.1739655 7 11
8.9479351 -0.97047675 -1.1051114 13 4
27.687412 -3.0127048 4.4111395 11 12
8.9543962 -0.97750288 -0.78806221 12 5
19.418646 -2.1232579 3.7970994 25 13
8.9578991 -0.98263174 -0.4722797 18 6
18.537533 -2.0400133 4.3055634 18 14
8.9782486 -0.98962176 -0.15766504 19 7
28.900148 -3.1957116 7.7909713 17 15
4.9678879 -0.56250638 -1.3396474 9 0
8.9888268 -1.020969 0.15790938 14 8
5.9888272 -0.68128181 -1.3915472 18 1
8.9991684 -1.0269167 0.47468719 24 9
7.3846602 -0.84529275 -1.4448059 11 2
9.0024223 -1.0320634 0.79276866 10 10
8.9271564 -1.026592 -1.4232409 8 3
9.0022535 -1.0384119 1.1126672 15 11
8.952774 -1.0342877 -1.1065738 14 4
25.621044 -2.9689872 4.0851297 12 12
8.9612083 -1.0416023 -0.78928244 11 5
19.479404 -2.2676263 3.8119822 17 13
8.966691 -1.0469983 -0.47311705 17 6
18.561548 -2.1739123 4.3145609 30 14
8.9711208 -1.0522772 -0.15766504 21 7
29.834528 -3.5100305 8.0492725 20 15
4.9484954 -0.59532875 -1.3355063 9 0
9.0013332 -1.0860929 0.15825842 13 8
5.9916635 -0.72400987 -1.3933468 15 1
9.0135889 -1.0923604 0.47583854 22 9
7.3785791 -0.89682645 -1.4448059 11 2
9.0009298 -1.0956087 0.79329151 10 10
9.2138948 -1.1247951 -1.4701713 1 3
9.0164604 -1.1038874 1.1153483 6 11
8.9453344 -1.0967642 -1.1065738 8 4
27.705387 -3.4067025 4.4211512 3 12
8.9519329 -1.1023312 -0.7891081 8 5
19.161089 -2.3662655 3.7528315 36 13
8.9532175 -1.1088352 -0.47280309 11 6
18.463163 -2.289892 4.2952156 32 14
8.949666 -1.1131536 -0.15742071 12 7
18.401251 -2.2952585 4.9688087 28 15
4.9308043 -0.62815213 -1.331883 10 0
24.97377 -3.1859238 0.43945158 11 8
5.9825969 -0.7653271 -1.392447 17 1
25.292322 -3.240021 1.3363464 13 9
7.3684087 -0.94652939 -1.4440426 12 2
9.1471949 -1.1782739 0.80688787 20 10
8.8024406 -1.1354271 -1.4057202 20 3
19.056942 -2.4649189 2.3593907 39 11
13.46131 -1.74593 -1.6666852 1 4
23.612873 -3.0667765 3.7713227 19 12
9.8785276 -1.2865033 -0.87155735 78 5
19.105165 -2.4948921 3.745199 12 13
26.939369 -3.5227211 -1.4238522 5 6
18.348185 -2.4058113 4.2722702 15 14
26.65254 -3.5041413 -0.46922541 3 7
4.928329 -0.66195726 -1.3324004 9 0
24.588251 -3.3113527 0.43306401 12 8
5.9617991 -0.80394775 -1.3888478 14 1
24.829695 -3.3571067 1.3131093 15 9
7.3694034 -0.99900192 -1.445569 12 2
9.1863461 -1.246941 0.81107134 21 10
8.7355795 -1.1888601 -1.3963342 1 3
18.935026 -2.5836766 2.3464727 23 11
13.429127 -1.8371737 -1.664248 1 4
20.246202 -2.7733848 3.2366295 36 12
9.9008875 -1.359774 -0.87434638 7 5
18.929749 -2.6065173 3.7142882 30 13
25.768541 -3.5527632 -1.363247 7 6
18.745974 -2.5912154 4.3689995 14 14
27.364271 -3.7922385 -0.48220998 6 7
18.645313 -2.5872509 5.0438657 38 15
4.9387679 -0.69937336 -1.3365415 9 0
24.08342 -3.4147139 0.42458215 4 8
5.9443173 -0.84494323 -1.3861483 15 1
24.97508 -3.5589273 1.322111 13 9
7.3719678 -1.0518118 -1.4474771 12 2
25.210146 -3.6058931 2.2280493 23 10
9.3447475 -1.33994 -1.4952009 5 3
19.077654 -2.7389359 2.3664591 30 11
2.8804653 -0.41456819 -0.35732093 7 4
17.408493 -2.5117037 2.7857852 35 12
22.487782 -3.2485518 -1.987848 3 5
19.723257 -2.8562214 3.8738043 25 13
24.777908 -3.5970414 -1.3121672 7 6
19.223047 -2.7940605 4.4846244 20 14
26.169638 -3.8130729 -0.46161616 7 7
4.9356761 -0.73411942 -1.3370593 10 0
24.891035 -3.7111077 0.43927708 15 8
5.9382734 -0.88642138 -1.3861483 15 1
25.591589 -3.8292549 1.3561294 24 9
7.3448367 -1.1016251 -1.443661 13 2
23.702694 -3.5593102 2.0969672 16 10
9.3566532 -1.4083798 -1.4986424 5 3
18.837721 -2.8422117 2.3391602 9 11
2.8794637 -0.43496391 -0.35756469 78 4
17.497955 -2.649441 2.8029931 11 12
19.485449 -2.9608128 3.8310633 9 13
23.685968 -3.6075413 -1.2556443 13 6
19.300806 -2.9465435 4.5075688 22 14
24.948429 -3.8131897 -0.44053364 7 7
38.745224 -5.9357734 10.502877 4 15
4.920887 -0.76707095 -1.334471 9 0
25.097656 -3.9212132 0.44339585 27 8
5.9300156 -0.92755532 -1.3856986 17 1
25.623428 -4.0171037 1.3592696 18 9
7.3330879 -1.1522648 -1.4428977 12 2
28.9028 -4.5467324 2.5597641 5 10
9.3661051 -1.4767433 -1.5017711 6 3
18.603699 -2.9398799 2.312593 10 11
2.8724351 -0.45443517 -0.35707721 69 4
17.715105 -2.8089666 2.8408504 7 12
2.9436738 -0.46781221 -0.26076996 66 5
18.644159 -2.9662888 3.6696386 27 13
22.810125 -3.6372588 -1.2105308 9 6
22.491459 -3.594496 5.2584558 23 14
24.004995 -3.8406804 -0.4243378 4 7
27.916023 -4.4764199 7.5756335 12 15
4.9268517 -0.80327147 -1.3375769 9 0
23.169167 -3.7857924 0.4097825 4 8
5.9291649 -0.96987545 -1.3870482 16 1
24.926605 -4.0863552 1.3237858 20 9
7.3093672 -1.2008849 -1.4398447 12 2
24.924641 -4.0994353 2.2099209 20 10
17.744463 -2.9312136 2.2082727 34 11
2.8829026 -0.47674447 -0.35878339 41 4
20.637743 -3.4202566 3.3132823 11 12
2.9128196 -0.48378125 -0.25832963 25 5
18.555214 -3.0851061 3.6562822 11 13
21.933096 -3.6546021 -1.1653125 10 6
18.44857 -3.0806119 4.3181605 12 14
23.178804 -3.8746428 -0.41020137 3 7
18.929174 -3.1710541 5.1427345 6 15
4.9287419 -0.83894426 -1.3396474 9 0
19.012459 -3.2430289 0.33665693 9 8
5.9030399 -1.0079647 -1.3825492 15 1
25.143553 -4.3023829 1.3368697 18 9
6.8963876 -1.1825378 -1.3600866 23 2
23.884123 -4.0997515 2.1201506 13 10
2.8111594 -0.4835507 -0.45178279 54 3
17.919191 -3.0887403 2.2326467 15 11
2.8775475 -0.49652156 -0.35853964 10 4
17.393864 -3.0075684 2.7957971 10 12
2.9191871 -0.50580537 -0.25920117 7 5
18.500341 -3.2088661 3.6497946 21 13
21.072718 -3.6626201 -1.1209316 12 6
18.455414 -3.2143471 4.3249092 10 14
18.299133 -3.190419 -0.32423082 6 7
18.750526 -3.2758632 5.1002884 15 15
4.9189606 -0.87265772 -1.3386122 9 0
24.437105 -4.344111 0.43323854 4 8
5.8920221 -1.0484681 -1.3816494 14 1
19.499271 -3.4768605 1.0380315 1 9
23.907873 -4.2758632 2.1248569 3 10
2.8096592 -0.50351274 -0.45209566 79 3
18.672865 -3.3530498 2.3294108 21 11
2.8603349 -0.51414007 -0.35683349 9 4
17.323841 -3.1201725 2.7879753 14 12
2.9136238 -0.52581877 -0.25902686 7 5
17.984831 -3.2489455 3.5524819 22 13
20.376461 -3.6883371 -1.0852385 12 6
19.815008 -3.5938528 4.6492887 25 14
18.778133 -3.4091799 -0.33313155 10 7
22.230114 -4.0439043 6.0542951 9 15
4.9165478 -0.90767848 -1.3396474 9 0
18.660543 -3.4517903 0.33124667 11 8
5.8845587 -1.0895762 -1.3816494 16 1
19.582527 -3.6329424 1.0437884 19 9
6.6031866 -1.2274047 -1.3055153 1 2
23.342695 -4.3431711 2.07727 5 10
2.8080177 -0.52347744 -0.45240852 83 3
23.898119 -4.4637775 2.9850681 17 11
2.8449678 -0.53190738 -0.35537103 9 4
18.437475 -3.45381 2.9710038 10 12
2.9098818 -0.54614675 -0.25902686 7 5
17.755257 -3.3356371 3.5116489 7 13
19.716234 -3.7111666 -1.0514294 14 6
18.349369 -3.4605157 4.3109622 7 14
20.650093 -3.8981428 -0.3668147 13 7
18.983894 -3.590476 5.176899 15 15
4.9025021 -0.9405241 -1.3375769 9 0
19.154421 -3.6816263 0.34046155 3 8
5.8844633 -1.1321039 -1.383449 17 1
19.237019 -3.7079477 1.0267268 11 9
2.8317034 -0.54683793 -0.56059688 1 2
2.8042948 -0.54306823 -0.45240852 81 3
23.667601 -4.5919423 2.9602065 13 11
2.8626208 -0.55591863 -0.35805216 74 4
18.523438 -3.6039469 2.9888372 15 12
2.8942649 -0.56416094 -0.25798097 7 5
17.9223 -3.4967289 3.5494292 10 13
19.111595 -3.735692 -1.0205512 12 6
18.408909 -3.6050119 4.3307576 18 14
18.510883 -3.628336 -0.3292571 3 7
18.658854 -3.6641033 5.0951118 2 15
4.8920274 -0.97397226 -1.3365415 9 0
17.74766 -3.5398901 0.31588855 13 8
5.8955264 -1.1769724 -1.3879479 14 1
19.414343 -3.8828924 1.0376127 14 9
2.754667 -0.55193686 -0.54609537 79 2
3.9655917 -0.7952829 0.35385233 0 10
2.7965617 -0.56185424 -0.45178279 74 3
21.741446 -4.3759475 2.7230489 6 11
2.8528321 -0.57471371 -0.35732093 62 4
17.467695 -3.5252781 2.822391 2 12
2.8863502 -0.58356315 -0.25763237 9 5
17.499132 -3.5411594 3.4704344 10 13
18.595278 -3.7764926 4.3806968 26 14
18.547634 -3.7769299 5.0718184 10 15
4.8926768 -1.0096629 -1.3386122 9 0
4.1280732 -0.85338014 0.073579341 31 8
18.264198 -3.7856581 0.97753114 1 9
2.754591 -0.5719527 -0.54685861 11 2
3.8409495 -0.79821932 0.34321931 2 10
2.7887032 -0.5805589 -0.45115703 81 3
21.12738 -4.4060435 2.6499274 8 11
2.8487504 -0.59461612 -0.35732093 74 4
17.289907 -3.6151993 2.7976742 7 12
2.9651632 -0.62269622 -0.15878731 1 6
18.156548 -3.819566 4.2835183 9 14
4.1053495 -0.86438447 -0.073230296 33 7
18.341238 -3.8684485 5.0226426 22 15
4.8911767 -1.0450063 -1.3401651 10 0
4.0672631 -0.87046075 0.072602011 38 8
5.543148 -1.1873361 -1.3087653 0 1
2.763967 -0.59405708 -0.54952991 11 2
3.8099616 -0.8195675 0.34095326 5 10
2.7845824 -0.60001343 -0.45115703 76 3
21.002966 -4.5333281 2.6382277 17 11
2.8484104 -0.61532778 -0.35780841 76 4
17.569296 -3.801826 2.8471076 21 12
2.8837624 -0.62507218 -0.25815532 63 5
17.517056 -3.8001242 3.4841723 31 13
2.9295163 -0.63659573 -0.15711255 53 6
18.759712 -4.0834193 4.4324355 0 14
3.9839368 -0.86791033 -0.071170911 47 7
18.661074 -4.0721836 5.117888 9 15
4.8818755 -1.0787106 -1.3396474 9 0
4.0025144 -0.88587028 0.071554869 36 8
2.6960139 -0.59719819 -0.63751125 1 1
3.8762832 -0.86006105 0.20808777 27 9
2.7425041 -0.60950524 -0.54609537 10 2
3.8274851 -0.8513369 0.343045 7 10
17.419487 -3.8873324 2.1914546 16 11
2.8381221 -0.63439542 -0.35707721 66 4
17.544254 -3.9248204 2.8474207 4 12
2.9104352 -0.65215957 -0.26094431 15 5
17.562206 -3.9417129 3.4986739 20 13
2.9347441 -0.65922058 -0.15763591 9 6
3.9464118 -0.88936228 -0.070612431 59 7
30.585663 -6.898386 8.4012671 5 15
4.8702645 -1.112756 -1.3386122 9 0
3.941649 -0.90131015 0.070577532 46 8
2.6764748 -0.61299455 -0.63391209 72 1
3.8388824 -0.88063186 0.20641303 20 9
2.7420089 -0.62951505 -0.54685861 10 2
3.7960527 -0.87289929 0.34077895 7 10
2.7854466 -0.64153492 -0.45272139 57 3
17.432545 -4.0182109 2.1965733 35 11
2.8529665 -0.65865916 -0.35951459 10 4
17.313637 -4.0035338 2.8145692 9 12
2.8669899 -0.66347808 -0.25745806 7 5
17.318142 -4.0141296 3.4555511 10 13
2.9377339 -0.68201083 -0.15805461 8 6
3.8544099 -0.89694929 -0.069076627 47 7
17.504772 -4.0799298 4.8161054 3 15
4.8454552 -1.1427386 -1.3339534 10 0
3.9059067 -0.92259741 0.070053965 48 8
2.6778197 -0.63300973 -0.63526177 98 1
3.8559632 -0.91293234 0.20766909 38 9
2.7240622 -0.64594936 -0.54418731 67 2
3.8034365 -0.90259951 0.34199914 6 10
2.7770565 -0.66005176 -0.45209566 79 3
2.8462491 -0.67859721 -0.35927087 93 4
17.208408 -4.1059694 2.8020544 21 12
2.8718576 -0.68629205 -0.25832963 8 5
17.489454 -4.185935 3.4956212 21 13
2.9251316 -0.70064229 -0.15763591 8 6
21.737267 -5.214644 5.1608272 10 14
3.8459485 -0.92404044 -0.069041722 88 7
21.277575 -5.1161494 5.8638043 16 15
4.8465385 -1.1796666 -1.3365415 9 0
3.8605127 -0.94037771 0.069355868 69 8
2.6675417 -0.65076983 -0.63391209 37 1
3.8764946 -0.94713807 0.2091345 37 9
2.7366498 -0.66914767 -0.54762185 95 2
3.8084915 -0.93263638 0.343045 6 10
2.7665067 -0.67849529 -0.45115703 87 3
20.42968 -5.0142298 2.5828991 48 11
2.8298762 -0.69560796 -0.35780841 76 4
17.14406 -4.2205043 2.796423 19 12
2.8998837 -0.71442676 -0.2612929 63 5
17.274914 -4.2623124 3.4586041 15 13
2.9122875 -0.71963954 -0.15721723 8 6
18.811621 -4.6519213 4.4738264 16 14
3.8219345 -0.94654107 -0.068727575 61 7
21.484175 -5.3287349 5.9310975 1 15
2.619591 -0.65702373 -0.72365808 6 0
3.8265321 -0.96115839 0.068867192 84 8
2.6667135 -0.67032689 -0.63481188 8 1
3.9220822 -0.98734242 0.21196064 57 9
3.8443885 -0.96992463 0.34687987 3 10
2.7731936 -0.70069593 -0.45303425 78 3
20.549154 -5.1997352 2.6026418 9 11
2.8211024 -0.71437258 -0.35732093 74 4
22.142351 -5.6152139 3.6180167 10 12
2.8792484 -0.73123598 -0.25989842 70 5
17.092516 -4.3441219 3.4280748 31 13
2.9110634 -0.74093866 -0.15742657 10 6
17.646723 -4.4980931 4.2043352 10 14
3.7958567 -0.96825725 -0.06837853 86 7
24.111814 -6.1594715 6.6682143 10 15
2.6037171 -0.67239743 -0.72055227 66 0
3.7945609 -0.98134017 0.068413429 63 8
2.6544225 -0.68697459 -0.63301229 8 1
3.8918929 -1.0086863 0.21070457 73 9
2.7269168 -0.70776796 -0.54762185 10 2
16.075172 -4.1752872 1.4530605 17 10
2.7682343 -0.72003919 -0.45303425 76 3
20.742874 -5.4031138 2.6318905 17 11
2.8160465 -0.73404998 -0.35732093 76 4
20.435932 -5.33459 3.3451951 11 12
2.8586524 -0.74728769 -0.25850391 65 5
17.088362 -4.4702992 3.4334173 53 13
17.810926 -4.6726093 4.2511249 23 14
3.7773995 -0.991687 -0.068169102 71 7
18.963865 -4.9856906 5.2540269 7 15
2.5896242 -0.68807793 -0.71796405 93 0
3.7856851 -1.0072929 0.06837853 67 8
2.6495619 -0.7054891 -0.63301229 9 1
3.8307209 -1.0214242 0.20777377 46 9
2.7067347 -0.72273636 -0.5445689 9 2
16.047558 -4.2879248 1.4532349 26 10
17.439226 -4.6728263 2.2168036 4 11
2.8185225 -0.75574815 -0.35829589 72 4
29.076773 -7.8074174 4.768436 2 12
2.859138 -0.76877844 -0.25902686 76 5
2.9312904 -0.78982526 -0.15910132 88 6
17.740244 -4.786685 4.2421269 10 14
2.9537573 -0.79753786 -0.053404365 23 7
16.80076 -4.5426316 4.6634021 22 15
2.5791667 -0.70461255 -0.71641117 83 0
3.7650588 -1.0300035 0.068134196 63 8
2.6539698 -0.72654182 -0.63526177 10 1
3.7637849 -1.0317734 0.20452894 44 9
2.716769 -0.74577278 -0.54762185 10 2
13.581121 -3.7306654 1.2322079 10 10
2.757911 -0.75861961 -0.45303425 9 3
17.656889 -4.8635178 2.2487333 4 11
2.8265741 -0.77909893 -0.36000207 61 4
18.184887 -5.0191979 2.9878986 10 12
2.8460197 -0.78659719 -0.25832963 76 5
19.368738 -5.3568673 3.9062419 12 13
2.9083817 -0.80547237 -0.15815927 66 6
18.108255 -5.0218639 4.3384061 33 14
2.9538984 -0.81974363 -0.053509079 59 7
16.60298 -4.6137762 4.617332 3 15
2.5741847 -0.72260112 -0.71641117 86 0
3.7385254 -1.0508521 0.067785151 20 8
2.6394534 -0.742414 -0.63301229 81 1
2.7190545 -0.76685268 -0.54914832 9 2
13.570086 -3.8297167 1.2336023 9 10
2.7373402 -0.77355725 -0.4505313 9 3
16.470718 -4.6607437 2.1017587 25 11
2.813426 -0.79664963 -0.35902712 13 4
19.126242 -5.4229989 3.1487131 15 12
2.871125 -0.81515318 -0.26111859 20 5
19.145794 -5.4393744 3.8688433 10 13
18.92551 -5.3910728 4.5431113 7 14
22.245529 -6.3494 6.1987162 4 15
2.5765023 -0.74269497 -0.71848166 86 0
3.0259936 -0.8734082 0.054975081 6 8
2.6323338 -0.76028174 -0.63256234 105 1
3.1081884 -0.89889574 0.16956852 3 9
2.7211778 -0.7880007 -0.5506748 14 2
12.123078 -3.5129042 1.1042633 9 10
2.7489474 -0.79760265 -0.45334715 34 3
16.260498 -4.7241106 2.0790913 44 11
2.8135142 -0.81793392 -0.35975835 93 4
20.664036 -6.0151916 3.4087074 27 12
2.8596261 -0.83350503 -0.26059568 70 5
18.809566 -5.4860511 3.8085477 15 13
2.8795977 -0.84096217 -0.15721723 8 6
19.543926 -5.7150435 4.7010269 8 14
2.9479225 -0.86259139 -0.053613789 9 7
16.879917 -4.9456291 4.7130952 30 15
2.5786648 -0.7628563 -0.72055227 81 0
3.7810094 -1.1199861 0.068832293 30 8
2.6306989 -0.77974796 -0.63346219 81 1
3.4158499 -1.0137665 0.18673471 6 9
2.6967912 -0.80138636 -0.54685861 64 2
12.103988 -3.5991564 1.1047862 5 10
2.7414188 -0.81621063 -0.45303425 85 3
16.375505 -4.8817501 2.0981028 12 11
2.7906153 -0.83244884 -0.35756469 69 4
20.570435 -6.1440425 3.40026 9 12
2.8346486 -0.84773976 -0.25885254 63 5
18.699337 -5.5958433 3.7940462 9 13
2.887049 -0.86505783 -0.15794992 35 6
18.751333 -5.625669 4.5197167 7 14
2.9399133 -0.88257557 -0.053578887 9 7
16.278854 -4.8931828 4.554698 32 15
2.5658815 -0.77859616 -0.71848166 83 0
12.268309 -3.7273972 0.22380966 11 8
2.6270554 -0.79866129 -0.63391209 73 1
12.132947 -3.6932116 0.66466671 9 9
2.6986425 -0.8224833 -0.54838508 10 2
12.535944 -3.8230543 1.146621 5 10
2.7451003 -0.83821362 -0.45459861 73 3
16.454926 -5.0307751 2.1127272 21 11
2.7904303 -0.85365278 -0.35829589 71 4
20.536482 -6.2903924 3.4018242 15 12
2.8305662 -0.86809266 -0.25902686 71 5
18.564096 -5.6968775 3.7745838 11 13
2.8962128 -0.88988483 -0.15878731 67 6
18.594259 -5.7203407 4.4913731 1 14
2.9298582 -0.90190178 -0.053509079 9 7
16.310759 -5.027194 4.5733323 22 15
2.5585389 -0.79591644 -0.71796405 23 0
10.537045 -3.281924 0.19263966 7 8
12.173599 -3.7986476 0.66833019 14 9
2.6984565 -0.84305972 -0.54952991 11 2
16.354052 -5.1125131 1.4990788 8 10
16.193989 -5.0748882 2.0837224 14 11
2.7994027 -0.87835288 -0.36024579 73 4
19.165257 -6.0170498 3.1815646 16 12
2.8206356 -0.88663751 -0.25867823 73 5
18.743834 -5.8991199 3.8196149 11 13
2.9013598 -0.91368192 -0.15941535 84 6
20.287893 -6.3967481 4.9111314 9 14
16.682379 -5.2695379 4.6877308 9 15
2.5601399 -0.81655264 -0.7200346 88 0
10.498636 -3.3505421 0.19236042 2 8
2.619215 -0.8369056 -0.63481188 9 1
12.634994 -4.0420618 0.6952309 19 9
2.6868958 -0.86008215 -0.54838508 10 2
17.59775 -5.6398568 1.616739 12 10
2.7386191 -0.87874717 -0.45553723 8 3
17.354574 -5.5719442 2.2380087 21 11
2.8026516 -0.90091228 -0.3614645 38 4
2.8219628 -0.90875047 -0.25937548 71 5
18.687246 -6.025012 3.8165617 40 13
2.8605351 -0.92337632 -0.15753125 79 6
18.933529 -6.1153631 4.5935001 3 14
16.693867 -5.4048452 4.7017069 14 15
2.5580497 -0.83560544 -0.72106987 89 0
10.035346 -3.2819951 0.18429741 1 8
2.6096044 -0.85395849 -0.63391209 81 1
12.137663 -3.9765804 0.66937697 11 9
2.6993272 -0.88540578 -0.55220127 9 2
13.035473 -4.2782836 1.2003088 5 10
2.7192812 -0.89352834 -0.45334715 7 3
17.474543 -5.7487168 2.2587266 10 11
2.7830949 -0.91611159 -0.35975835 8 4
21.37653 -7.0447865 3.5648291 9 12
2.82674 -0.93266612 -0.26042137 69 5
18.881491 -6.2334909 3.8650272 11 13
2.8540192 -0.94332391 -0.15753125 79 6
18.926285 -6.2629347 4.6024985 8 14
11.9102 -3.9435349 -0.2189928 7 7
19.606192 -6.4993167 5.5345864 1 15
2.5576501 -0.85528141 -0.72262281 83 0
12.01273 -4.0217347 0.221122 27 8
2.6017315 -0.87153709 -0.63346219 105 1
11.456312 -3.8421235 0.63326514 16 9
2.6744685 -0.89797997 -0.54838508 10 2
9.0882139 -3.0532255 0.83878684 10 10
2.7298274 -0.91815805 -0.45616296 8 3
15.620411 -5.2598839 2.0237625 4 11
2.7691071 -0.93298364 -0.35878339 8 4
14.661491 -4.9455342 2.4507027 1 12
18.824495 -6.3607554 3.8623557 8 13
26.569681 -8.9985094 6.4763408 3 14
11.624809 -3.9393039 -0.21424575 37 7
16.900339 -5.733603 4.7819409 16 15
2.5406501 -0.86936355 -0.71951699 78 0
11.624924 -3.9823682 0.21449009 11 8
2.6066442 -0.89347041 -0.63616157 79 1
13.626263 -4.6759424 0.75499856 4 9
2.6514237 -0.91088837 -0.54495054 67 2
14.276437 -4.9074116 1.3207581 3 10
2.723351 -0.93719333 -0.45616296 8 3
14.11563 -4.8631573 1.8331589 7 11
2.7662795 -0.95358664 -0.35927087 24 4
21.724239 -7.4972243 3.6399176 6 12
2.8247416 -0.97594643 -0.26146722 110 5
17.855583 -6.1725817 3.6723101 1 13
2.8613315 -0.99026555 -0.15868263 53 6
18.855412 -6.5329571 4.6069975 22 14
11.447763 -3.9686193 -0.21148828 12 7
16.796022 -5.8292794 4.7638235 25 15
2.5308721 -0.88580287 -0.71848166 78 0
10.8948 -3.8174398 0.20150548 10 8
2.6150551 -0.91680413 -0.63976079 93 1
9.9598665 -3.4957037 0.55319113 4 9
2.6635225 -0.93588465 -0.54876673 91 2
9.0747719 -3.1903915 0.8415758 1 10
2.7130153 -0.95487124 -0.45553723 32 3
15.26461 -5.3785124 1.9872018 8 11
2.7782762 -0.97947574 -0.36170825 97 4
14.808955 -5.2266793 2.4873083 29 12
2.7859235 -0.98435897 -0.25850391 71 5
18.706085 -6.6131511 3.8566318 10 13
18.796484 -6.6598768 4.6038485 19 14
11.255804 -3.9903114 -0.20845154 11 7
8.1398706 -2.8888764 2.3143599 31 15
2.533721 -0.90670449 -0.72106987 62 0
10.801995 -3.8698015 0.20028383 10 8
2.5994186 -0.93175042 -0.63751125 84 1
9.9089012 -3.5557065 0.55172575 9 9
2.6606193 -0.95578414 -0.54952991 74 2
10.891609 -3.9147797 1.0125754 8 10
2.6951308 -0.96977532 -0.45366001 8 3
15.482552 -5.5771141 2.0205939 32 11
2.7676356 -0.99750155 -0.36122078 83 4
14.785111 -5.334631 2.4894984 6 12
2.7995965 -1.0112298 -0.26042137 67 5
22.616241 -8.1735735 4.674439 8 13
10.705271 -3.8731403 -0.59662998 14 6
24.222496 -8.7732029 5.9477057 14 14
11.005825 -3.988399 -0.20433277 22 7
8.0977116 -2.937726 2.3081484 21 15
11.105206 -4.0661259 0.20642707 6 8
2.5855315 -0.94719356 -0.63571167 73 1
10.680768 -3.9170632 0.59621125 9 9
10.645199 -3.9103434 0.992181 10 10
2.6994188 -0.99265778 -0.45553723 9 3
14.470819 -5.3270922 1.8933623 13 11
2.7587416 -1.0161127 -0.36097702 27 4
14.651133 -5.4021835 2.4732292 18 12
2.7887304 -1.0293701 -0.26007274 69 5
18.619295 -6.8764052 3.8581581 23 13
10.481271 -3.8750598 -0.58563942 13 6
18.652319 -6.9034038 4.591701 5 14
10.657045 -3.9463904 -0.19836405 15 7
8.1041765 -3.0042596 2.3159127 21 15
2.5408862 -0.94898754 -0.7267639 9 0
9.2828817 -3.4707272 0.17298825 5 8
2.5918007 -0.96955013 -0.638861 44 1
9.3464413 -3.5000701 0.5230456 9 9
2.6563797 -0.99582267 -0.55143803 9 2
10.873907 -4.0785713 1.0160617 8 10
2.7036953 -1.0151752 -0.45741442 9 3
13.250572 -4.9805627 1.7381008 6 11
2.7461872 -1.0327709 -0.36024579 8 4
14.822926 -5.580431 2.5085835 19 12
2.8040318 -1.0567598 -0.26216447 69 5
10.412108 -3.9261031 2.1630108 10 13
10.307034 -3.8905928 -0.57737035 13 6
17.079102 -6.4536543 4.2151327 5 14
10.469075 -3.9580219 -0.19536224 24 7
8.1106415 -3.0696104 2.3236775 14 15
2.5287838 -0.96463734 -0.72521096 63 0
10.373696 -3.9613295 0.19382644 12 8
2.5849688 -0.98762047 -0.638861 98 1
9.2770071 -3.5481114 0.52053344 1 9
2.6493628 -1.0143433 -0.55143803 10 2
13.382964 -5.1265216 1.2538224 6 10
2.7039199 -1.0368549 -0.45866591 9 3
14.401554 -5.5282388 1.8940935 6 11
2.7426162 -1.053341 -0.36073327 8 4
