# .PCD v0.7 - Point Cloud Data file format
VERSION 0.7
FIELDS x y z intensity ring
SIZE 4 4 4 4 2
TYPE F F F F U
COUNT 1 1 1 1 1
WIDTH 1302
HEIGHT 1
VIEWPOINT 0 0 0 1 0 0 0
POINTS 1302
DATA ascii
52.001965 -0.88046145 6.3859539 7 11
8.9316092 -0.15278314 -1.0968242 16 4
51.091267 -0.89180136 8.0932951 7 12
8.9404278 -0.15917751 -0.78230995 16 5
8.9721785 -0.16444215 -0.47029093 31 6
8.9810352 -0.16930859 -0.15679242 31 7
30.187347 -0.57962668 8.0901661 2 15
4.9636774 -0.10830782 -1.33033 9 0
8.9984188 -0.19948874 0.15710656 24 8
5.9986739 -0.13403395 -1.3852487 19 1
9.0133076 -0.20454055 0.47248909 35 9
7.391654 -0.17032161 -1.4371735 11 2
9.0051661 -0.20907338 0.78806221 12 10
8.9163513 -0.21012548 -1.4126034 12 3
56.789402 -1.3482336 6.9748268 10 11
8.9541388 -0.21570702 -1.099749 11 4
55.621857 -1.3593689 8.8122673 9 12
8.9451122 -0.22017597 -0.78283286 11 5
57.338615 -1.4313663 11.148971 8 13
8.9648218 -0.22692364 -0.46997693 13 6
26.283867 -0.66990536 6.0700793 4 14
8.9656429 -0.23164189 -0.15654808 12 7
4.9666867 -0.14220232 -1.3313652 9 0
9.0008497 -0.2608498 0.15717638 13 8
5.9995704 -0.17491899 -1.3856986 20 1
9.0256805 -0.26629928 0.47322178 17 9
7.4020972 -0.22098218 -1.4394631 12 2
9.0075169 -0.27048388 0.78841084 10 10
8.9028664 -0.2704519 -1.4107262 12 3
50.874027 -1.5543423 6.2494607 7 11
8.9683352 -0.27714095 -1.1016989 16 4
24.982246 -0.78073424 3.9587312 9 12
8.9453974 -0.28112042 -0.78300714 13 5
9.0009985 -0.28915796 -0.4719657 30 6
9.001832 -0.29390308 -0.15721127 28 7
4.9694653 -0.17614277 -1.3324004 10 0
8.9968672 -0.32203859 0.15714148 23 8
5.9962935 -0.21568237 -1.3852487 19 1
9.0476103 -0.32859838 0.4744778 34 9
7.4121938 -0.2717928 -1.4417528 12 2
9.0293608 -0.33266971 0.79050261 12 10
8.904768 -0.3311919 -1.4113519 11 3
45.688461 -1.7152454 5.61379 15 11
8.9741764 -0.33847883 -1.1026739 15 4
25.596174 -0.97435796 4.056972 3 12
8.9531717 -0.34394616 -0.78387874 15 5
46.292458 -1.7864685 9.0050402 5 13
8.988842 -0.35003006 -0.47144234 30 6
43.906315 -1.7250839 10.144392 10 14
9.0056181 -0.35540593 -0.157316 30 7
4.9719748 -0.21099544 -1.3334358 9 0
8.996398 -0.38492569 0.15717638 14 8
5.9907475 -0.25737152 -1.3843488 18 1
9.0131702 -0.39037135 0.47280309 17 9
7.4218841 -0.32404643 -1.4440426 11 2
9.0208464 -0.39543611 0.78997964 10 10
8.9022388 -0.39335033 -1.4113519 12 3
30.540152 -1.3601148 3.753576 4 11
8.9497805 -0.40014634 -1.0999928 13 4
25.555201 -1.1515162 4.0516534 15 12
8.9525423 -0.40653256 -0.78405303 12 5
58.387417 -2.6615684 11.36115 8 13
8.9602423 -0.41158354 -0.4700816 20 6
24.058723 -1.1135396 5.5603399 19 14
8.9749508 -0.41696849 -0.15682732 17 7
24.882051 -1.164703 6.6744261 14 15
4.9838877 -0.24636863 -1.3370593 10 0
9.0034781 -0.44821963 0.1573509 23 8
5.9888048 -0.2991882 -1.3843488 17 1
9.0102253 -0.45328513 0.47280309 34 9
7.401794 -0.37495872 -1.4406079 13 2
9.0178661 -0.45840332 0.78997964 11 10
8.9111128 -0.45609543 -1.4132291 11 3
30.079891 -1.5500998 3.6982474 16 11
8.944787 -0.46251485 -1.099749 16 4
25.580074 -1.3316413 4.056972 10 12
8.9534655 -0.46923125 -0.78440166 14 5
49.152847 -2.5845938 9.5675449 13 13
8.9751005 -0.47507745 -0.47102362 32 6
24.250801 -1.2921525 5.6066804 15 14
8.9798088 -0.48004183 -0.15696694 30 7
25.052717 -1.3480361 6.7225661 15 15
4.9666152 -0.28028563 -1.332918 10 0
9.0021257 -0.51117772 0.15738581 13 8
5.9904613 -0.34121194 -1.3852487 17 1
9.0148163 -0.51663393 0.47322178 16 9
7.3970361 -0.42651039 -1.4402263 11 2
9.0124559 -0.5212332 0.78980529 10 10
8.9234867 -0.51921302 -1.415732 11 3
26.943197 -1.5771266 3.3138714 14 11
8.9651203 -0.52634561 -1.1026739 10 4
25.621426 -1.513218 4.0651064 17 12
8.9678717 -0.53278971 -0.78597051 10 5
29.565214 -1.7616757 5.7570891 15 13
8.9755535 -0.53796244 -0.47123301 13 6
24.369574 -1.469162 5.6363735 12 14
8.962266 -0.54187572 -0.15672261 11 7
24.95978 -1.5178604 6.7003074 15 15
4.964427 -0.31668493 -1.332918 10 0
9.0160961 -0.57830435 0.15769994 23 8
6.0072465 -0.3863655 -1.3897476 14 1
9.0426769 -0.58476359 0.47489652 34 9
7.3956699 -0.480849 -1.4406079 12 2
9.0282764 -0.58857954 0.79154849 11 10
8.9115582 -0.58409441 -1.4144807 10 3
30.522097 -2.0112243 3.7557697 16 11
8.9788475 -0.59322643 -1.1048675 18 4
25.653006 -1.7038708 4.0719895 14 12
8.9597502 -0.59824729 -0.78562188 18 5
39.571125 -2.649123 7.709065 18 13
9.0072374 -0.60615551 -0.47311705 27 6
25.215584 -1.705762 5.8347807 12 14
8.9959612 -0.6101284 -0.15738581 27 7
25.048206 -1.7076154 6.7272248 10 15
4.9601688 -0.3511987 -1.3324004 9 0
9.0078506 -0.64095014 0.15763015 20 8
5.9966273 -0.42773965 -1.3879479 13 1
9.0403652 -0.64802146 0.47500119 24 9
7.3999662 -0.5330326 -1.4421345 12 2
9.0279217 -0.65188092 0.79189706 10 10
8.8993816 -0.64572215 -1.4132291 10 3
29.929197 -2.1821079 3.684598 12 11
8.9883461 -0.65690851 -1.1065738 14 4
31.142897 -2.2869914 4.9458327 26 12
8.9652891 -0.66151613 -0.78649336 12 5
25.454742 -1.8826801 4.9614158 19 13
8.9589682 -0.6657663 -0.47081429 15 6
25.047594 -1.8701495 5.7987885 13 14
8.9815111 -0.6721704 -0.15721127 19 7
24.89312 -1.8717231 6.68892 19 15
4.9807086 -0.38761711 -1.3386122 9 0
8.9951811 -0.70319724 0.15749051 20 8
5.993495 -0.46959329 -1.3879479 13 1
9.009738 -0.70908177 0.47364044 24 9
7.3999782 -0.58499002 -1.4428977 12 2
9.0132198 -0.71410441 0.79102546 10 10
8.910409 -0.70908892 -1.415732 11 3
26.042738 -2.0816252 3.207845 7 11
8.9558382 -0.71742332 -1.1031613 14 4
25.431782 -2.0461926 4.0410156 5 12
8.9386082 -0.72232372 -0.784576 12 5
27.178659 -2.2010665 5.3002925 11 13
8.9740086 -0.72991413 -0.47186103 23 6
25.167944 -2.0559151 5.8298311 15 14
8.9766006 -0.73485631 -0.15721127 23 7
24.879446 -2.0454628 6.68892 17 15
4.9624815 -0.42107266 -1.334471 9 0
9.0040007 -0.7671662 0.15773484 18 8
5.9920125 -0.51158983 -1.3883979 12 1
9.0045681 -0.77196378 0.47364044 28 9
7.3839779 -0.63562673 -1.4406079 13 2
9.0238943 -0.77838045 0.79241997 10 10
8.9170504 -0.77230024 -1.4176092 11 3
33.669132 -2.9279041 4.1496515 4 11
8.9545679 -0.78027362 -1.1036489 10 4
25.220093 -2.2064722 4.0097289 6 12
8.9651022 -0.7874983 -0.78736496 9 5
25.347746 -2.2310145 4.9461508 10 13
8.964715 -0.79219455 -0.47165167 12 6
25.30827 -2.2453465 5.8658237 12 14
8.9632835 -0.79679811 -0.15707165 11 7
29.347956 -2.619235 7.8950167 6 15
4.9690394 -0.45659062 -1.3370593 10 0
9.0063896 -0.83074141 0.15787446 11 8
5.999938 -0.55448508 -1.3910973 14 1
9.0268002 -0.83739096 0.47510585 13 9
7.3871799 -0.68788886 -1.4421345 12 2
9.0241919 -0.84191495 0.79294294 10 10
8.9311094 -0.83637553 -1.420738 10 3
29.849268 -2.8058183 3.6811857 8 11
8.9805231 -0.8457467 -1.1075487 15 4
25.156876 -2.3780248 4.0022197 11 12
8.9593868 -0.85006684 -0.78736496 12 5
25.01298 -2.3776374 4.8839474 16 13
8.9987307 -0.85855418 -0.47374511 22 6
24.719715 -2.3671751 5.7331028 9 14
8.9893513 -0.86240923 -0.15763015 13 7
29.277033 -2.8190575 7.8810401 14 15
4.9541965 -0.49012849 -1.3339534 10 0
9.0083313 -0.89438754 0.1580141 13 8
6.0036774 -0.59713018 -1.392897 15 1
9.0425968 -0.90257114 0.47625723 24 9
7.384151 -0.73963952 -1.4425161 11 2
9.0280066 -0.90588933 0.79381454 10 10
8.9250526 -0.89870554 -1.420738 10 3
28.967838 -2.9271224 3.5749156 11 11
8.9803257 -0.9090212 -1.1082799 13 4
25.167177 -2.5563884 4.0065999 8 12
8.9571981 -0.9129979 -0.78771359 12 5
25.478189 -2.6014585 4.9782071 3 13
9.0084133 -0.92298436 -0.47458252 21 6
24.508734 -2.519762 5.6881123 21 14
9.0049925 -0.92739868 -0.1580141 21 7
29.014515 -2.9983585 7.8158178 21 15
4.9583383 -0.52551746 -1.3360239 10 0
9.0038567 -0.9574666 0.158049 13 8
5.9993625 -0.63902891 -1.392897 21 1
9.0440187 -0.96652675 0.47667596 19 9
7.3846636 -0.79180008 -1.443661 12 2
9.0214624 -0.968894 0.79381454 10 10
8.918561 -0.9609918 -1.420738 10 3
25.725792 -2.7810872 3.177134 9 11
8.9579716 -0.9699834 -1.1063299 14 4
24.206078 -2.6296215 3.8564227 14 12
8.9367409 -0.97399712 -0.78649336 10 5
19.231657 -2.0994155 3.7604637 22 13
8.966012 -0.98193806 -0.47269842 18 6
18.965982 -2.083813 4.4049916 11 14
8.968483 -0.98696113 -0.15749051 19 7
28.950632 -3.1961792 7.8044295 12 15
4.9564681 -0.56033713 -1.3365415 10 0
8.9830437 -1.0187243 0.15780467 13 8
5.9773283 -0.67891699 -1.3888478 19 1
9.0052996 -1.0260242 0.47500119 24 9
7.3789558 -0.84333509 -1.443661 12 2
9.0045815 -1.0307187 0.79294294 10 10
8.9135971 -1.0234565 -1.4210509 8 3
9.0004625 -1.0366136 1.1124234 22 11
8.9509811 -1.0324976 -1.1063299 14 4
25.380201 -2.9365895 4.0466475 19 12
8.9455557 -1.0382006 -0.78788787 10 5
19.550005 -2.2723866 3.8257205 11 13
8.9609232 -1.0447395 -0.47280309 16 6
18.453537 -2.1579974 4.2893667 33 14
8.9812365 -1.0518745 -0.15783957 20 7
18.538078 -2.1777236 5.0014195 37 15
4.9562716 -0.59538668 -1.3375769 9 0
8.9856396 -1.0826083 0.15797918 13 8
5.9763122 -0.72109663 -1.3897476 15 1
9.0058489 -1.0898274 0.47541988 23 9
7.3728886 -0.89482898 -1.443661 12 2
9.0090332 -1.0949993 0.79398882 10 10
9.2238951 -1.1243819 -1.4717356 1 3
9.0107403 -1.101591 1.1146171 11 11
8.951437 -1.0959266 -1.1073049 9 4
27.406002 -3.3650341 4.3732824 13 12
8.9677525 -1.1042793 -0.79050261 9 5
19.2901 -2.3787796 3.7780182 20 13
8.9633217 -1.1084982 -0.47332644 11 6
18.548256 -2.3004453 4.315011 37 14
8.9716892 -1.1143028 -0.15780467 13 7
18.549261 -2.3104327 5.0086665 6 15
4.950078 -0.62972945 -1.3370593 10 0
25.273296 -3.2241344 0.44472221 22 8
5.974998 -0.76329511 -1.3906474 17 1
9.5388527 -1.2219552 0.5039953 16 9
7.3586731 -0.94527876 -1.4421345 12 2
9.180995 -1.180999 0.80985117 18 10
8.8122358 -1.1366906 -1.4072846 15 3
19.100254 -2.470521 2.364753 29 11
13.447835 -1.7417955 -1.6649791 1 4
23.842066 -3.0965433 3.8079281 13 12
9.8844547 -1.2872753 -0.87208033 78 5
19.304173 -2.5174532 3.7841241 22 13
26.965113 -3.5260875 -1.4252129 7 6
19.018658 -2.4937236 4.4283862 8 14
26.647203 -3.4987085 -0.46912068 3 7
35.140457 -4.6263294 9.4971056 3 15
4.928329 -0.66195726 -1.3324004 10 0
24.835978 -3.3447144 0.4374271 6 8
5.9695239 -0.80498946 -1.3906474 15 1
24.831673 -3.3573742 1.3132139 13 9
7.3635669 -0.99821073 -1.4444242 12 2
25.19582 -3.4200432 2.2245631 4 10
8.7375364 -1.1891265 -1.3966471 1 3
18.982229 -2.5901172 2.3523221 13 11
13.415359 -1.8352901 -1.6625416 7 4
20.467354 -2.8036788 3.2719836 17 12
22.531626 -3.0944619 -1.9897656 6 5
18.991983 -2.6150868 3.7264998 33 13
25.8279 -3.5609469 -1.3663872 7 6
25.342102 -3.5029838 5.9063148 10 14
27.384079 -3.7949834 -0.48255906 8 7
18.792654 -2.6076961 5.0837235 3 15
4.9196401 -0.69666475 -1.3313652 9 0
24.109158 -3.4183631 0.42503592 4 8
5.9481759 -0.84549171 -1.3870482 15 1
28.273191 -4.0289054 1.4967039 15 9
7.3525319 -1.0490388 -1.443661 12 2
25.287069 -3.6168957 2.2348475 19 10
9.3115063 -1.3351735 -1.489882 4 3
19.130705 -2.7465527 2.37304 14 11
13.404183 -1.9291843 -1.6627855 11 4
17.49843 -2.5246799 2.8001773 14 12
22.446369 -3.2425697 -1.9841876 6 5
19.47261 -2.8199244 3.8245757 6 13
24.783838 -3.5979025 -1.3124813 7 6
18.810354 -2.7340758 4.3883452 16 14
26.16766 -3.8127847 -0.46158126 9 7
35.214912 -5.1435771 9.5359297 10 15
4.929944 -0.73326677 -1.3355063 9 0
24.887079 -3.7105179 0.43920726 18 8
5.9228549 -0.88411975 -1.3825492 16 1
25.601467 -3.8307328 1.3566527 24 9
7.3409534 -1.1010426 -1.4428977 13 2
23.765743 -3.5687778 2.102545 5 10
9.3429785 -1.4063215 -1.4964522 5 3
18.761171 -2.830662 2.3296547 15 11
12.467861 -1.883361 -1.5482283 17 4
17.61319 -2.666889 2.8214524 20 12
12.486762 -1.8951334 -1.1049604 1 5
19.310759 -2.9342687 3.7967176 11 13
23.658325 -3.6033311 -1.254179 13 6
24.746799 -3.777952 5.7794423 12 14
24.991919 -3.8198366 -0.44130155 7 7
38.754772 -5.9372358 10.505465 4 15
4.9361572 -0.76945132 -1.3386122 9 0
25.079876 -3.9184349 0.44308168 24 8
5.9223146 -0.92635071 -1.383899 17 1
25.64316 -4.0201969 1.3603163 15 9
7.3214512 -1.1504364 -1.4406079 12 2
19.004795 -2.989666 1.6831516 18 10
9.3719597 -1.4776664 -1.5027097 6 3
17.756651 -2.8060238 2.2072978 20 11
9.8682375 -1.5612099 -1.226737 1 4
12.481098 -1.9835113 -1.1056577 5 5
18.78376 -2.9884992 3.6971154 9 13
22.81407 -3.6378877 -1.2107401 6 6
22.472214 -3.5914204 5.2539568 21 14
24.070156 -3.8511057 -0.42548966 7 7
18.950851 -3.0388269 5.1427345 11 15
4.9268517 -0.80327147 -1.3375769 9 0
25.480162 -4.163404 0.45065603 9 8
5.9214721 -0.96861714 -1.3852487 15 1
24.944345 -4.0892634 1.3247278 15 9
7.3054924 -1.2002484 -1.4390815 12 2
24.930538 -4.1004057 2.210444 6 10
9.3633642 -1.5433797 -1.5030226 6 3
17.628908 -2.9121251 2.193892 18 11
9.7787571 -1.6171093 -1.2169874 21 4
20.166136 -3.342098 3.2375681 28 12
11.702381 -1.9436125 -1.0378506 1 5
18.491304 -3.0744801 3.6436887 5 13
21.933096 -3.6546021 -1.1653125 12 6
18.571587 -3.1011539 4.3469543 27 14
23.11372 -3.8637631 -0.40904951 11 7
18.921555 -3.1697774 5.1406641 16 15
4.9211235 -0.83764756 -1.3375769 10 0
19.034142 -3.2467272 0.33704087 9 8
5.9184074 -1.0105888 -1.3861483 15 1
20.643225 -3.5323195 1.0975897 11 9
6.8944526 -1.182206 -1.359705 21 2
23.88216 -4.0994143 2.1199763 13 10
9.3504152 -1.6083754 -1.5027097 6 3
17.512293 -3.0186031 2.1819489 17 11
9.7672291 -1.6853379 -1.2169874 25 4
17.596298 -3.0425708 2.8283353 10 12
9.8529921 -1.7072207 -0.87486929 2 5
18.639614 -3.2330232 3.6772711 2 13
21.094364 -3.6663823 -1.1220829 12 6
20.052719 -3.492547 4.6992278 11 14
22.130739 -3.8584523 -0.39212066 4 7
18.744818 -3.2748659 5.0987353 16 15
4.9189606 -0.87265772 -1.3386122 9 0
24.446949 -4.345861 0.43341306 4 8
5.8881855 -1.0477853 -1.3807496 15 1
19.638874 -3.5017529 1.0454632 14 9
23.896107 -4.2737589 2.1238112 3 10
9.3428469 -1.6743106 -1.5033354 6 3
17.942129 -3.221833 2.2382526 8 11
9.8079786 -1.7629666 -1.2235683 12 4
17.197475 -3.0974128 2.7676389 6 12
9.8800478 -1.7830423 -0.8783555 11 5
19.885902 -3.5923727 3.927994 17 13
20.407907 -3.6940293 -1.0869132 12 6
19.891706 -3.6077635 4.6672845 24 14
18.799776 -3.4131091 -0.3335155 15 7
18.998993 -3.4561279 5.1743107 10 15
4.9317455 -0.91048425 -1.3437886 9 0
18.686104 -3.4565184 0.33170044 6 8
5.876894 -1.0881571 -1.3798498 17 1
19.439175 -3.6063476 1.0361474 9 9
6.444911 -1.1979843 -1.2742226 6 2
23.348574 -4.3442645 2.0777929 5 10
9.3251038 -1.7384083 -1.5023967 6 3
23.902023 -4.4645066 2.9855554 12 11
20.926611 -3.9200888 3.3721018 9 12
9.9476452 -1.8670428 -0.88550234 13 5
22.187315 -4.1682773 4.3882256 10 13
19.708382 -3.7096887 -1.0510107 14 6
18.380009 -3.4662941 4.3181605 4 14
20.677605 -3.9033358 -0.36730337 13 7
22.294353 -4.2165923 6.0796599 10 15
4.9138861 -0.94270802 -1.3406827 9 0
19.168167 -3.6842685 0.3407059 3 8
5.8825502 -1.1317358 -1.3829991 17 1
19.278204 -3.7158866 1.0289251 6 9
6.3072386 -1.2180079 -1.2486541 38 2
31.13653 -6.0184965 2.7745159 3 10
9.3166199 -1.8042184 -1.5030226 6 3
23.663704 -4.5911865 2.9597192 10 11
13.093225 -2.5426939 -1.6376804 7 4
18.569973 -3.6130011 2.9963462 14 12
18.278847 -3.5629814 -1.6292894 10 5
17.59087 -3.4320655 3.4837909 18 13
19.115517 -3.7364585 -1.0207607 14 6
18.55234 -3.6330998 4.3645 12 14
19.866867 -3.894124 -0.35337633 12 7
18.638002 -3.6600087 5.0894179 14 15
4.8920274 -0.97397226 -1.3365415 9 0
17.788841 -3.5481038 0.31662154 24 8
5.8840609 -1.1746835 -1.3852487 17 1
19.257666 -3.8515565 1.0292389 6 9
6.3216815 -1.2666391 -1.2532336 7 2
30.060356 -6.0284791 2.6823051 5 10
9.3057337 -1.8696051 -1.5033354 6 3
17.518484 -3.5259829 2.1941359 40 11
13.079047 -2.6348228 -1.6381679 7 4
17.558304 -3.5499432 -1.5672345 10 5
17.529921 -3.5473897 3.4765401 14 13
18.372543 -3.7245808 -0.98245066 12 6
18.362286 -3.7291746 4.325809 47 14
18.39888 -3.7399499 -0.3277213 37 7
18.746399 -3.8174052 5.1261706 7 15
4.8851085 -1.0081011 -1.3365415 9 0
17.791054 -3.6778738 0.31711021 22 8
18.242685 -3.781199 0.97637963 3 9
7.2238336 -1.4999291 -1.4341204 12 2
22.602884 -4.6972914 2.0197473 7 10
9.3079252 -1.937746 -1.5058383 5 3
21.172075 -4.4153647 2.6555333 11 11
13.037016 -2.7212 -1.6352429 7 4
17.761698 -3.7138472 2.8740144 18 12
17.084578 -3.5784914 -1.5271429 8 5
17.683424 -3.7071459 3.5120304 21 13
17.701067 -3.7172952 -0.94790894 16 6
18.167988 -3.8219726 4.2862172 11 14
18.270567 -3.8468821 -0.32590625 10 7
18.34691 -3.8696446 5.0241957 10 15
4.8722844 -1.0409698 -1.3349887 10 0
17.168543 -3.6743491 0.30646425 12 8
5.5660148 -1.192234 -1.3141642 0 1
18.28224 -3.9227099 0.97993857 1 9
7.1978307 -1.5470237 -1.4310676 10 2
19.427687 -4.1791239 1.7385828 2 10
9.2748613 -1.9985193 -1.5027097 6 3
21.049538 -4.5433803 2.6440775 29 11
12.975014 -2.802927 -1.6298808 7 4
17.55385 -3.7984836 2.8446045 27 12
16.558756 -3.589206 -1.4823449 10 5
17.607229 -3.8196864 3.5021083 50 13
17.243357 -3.7470508 -0.92477638 14 6
17.626741 -3.8368063 4.1647434 13 14
17.549643 -3.8232324 -0.31351504 12 7
19.049885 -4.1570292 5.2245216 22 15
4.8705568 -1.0762097 -1.3365415 9 0
15.344271 -3.3961236 0.27431691 1 8
5.395833 -1.1952394 -1.2759224 11 1
17.794245 -3.9481473 0.95523596 11 9
7.194521 -1.5989395 -1.4325941 10 2
22.326998 -4.9661322 2.0010958 22 10
9.2414007 -2.0589249 -1.499581 5 3
17.522173 -3.9102478 2.2043729 24 11
12.912508 -2.8839214 -1.6245185 7 4
17.623291 -3.9425018 2.8602481 11 12
16.113352 -3.6106203 -1.4446936 9 5
17.886644 -4.0112514 3.5631676 24 13
16.751038 -3.762723 -0.89975989 16 6
17.536787 -3.9456534 4.1498966 16 14
17.091387 -3.8485758 -0.30580106 10 7
17.755892 -4.0047193 4.8771863 33 15
4.8629251 -1.110186 -1.3365415 9 0
15.240263 -3.4848878 0.27288583 8 8
5.2486844 -1.2011451 -1.2430795 0 1
17.382734 -3.9843709 0.93461567 4 9
7.1640487 -1.6447345 -1.4287778 11 2
19.548029 -4.4914613 1.7547936 19 10
9.2056265 -2.1185181 -1.4961394 7 3
17.260386 -3.9785283 2.1748805 33 11
12.872717 -2.9695342 -1.622081 7 4
17.281616 -3.9929521 2.8092504 8 12
15.70924 -3.6354284 -1.4107028 8 5
17.227036 -3.9898441 3.4372332 28 13
15.169827 -3.5189669 -0.816127 1 6
18.230122 -4.2355747 4.3208599 11 14
16.898546 -3.9293058 -0.30283415 11 7
17.671055 -4.1154346 4.8616571 23 15
4.8510962 -1.1440688 -1.3355063 10 0
14.689478 -3.4697382 0.26346153 8 8
5.2020245 -1.2297065 -1.2340814 0 1
17.46067 -4.1339636 0.94037253 13 9
7.144455 -1.6941448 -1.4272513 10 2
9.1979179 -2.1861644 -1.4973909 7 3
17.316442 -4.1221647 2.1856048 23 11
12.811984 -3.0546081 -1.6172063 8 4
17.337145 -4.1366863 2.8230169 37 12
15.225496 -3.6384592 -1.3695654 9 5
17.176323 -4.11099 3.4330356 15 13
15.777454 -3.7790952 -0.85025001 14 6
19.41592 -4.6577663 4.6096969 7 14
15.024086 -3.6097374 -0.2697095 2 7
21.279453 -5.116601 5.8643222 16 15
4.8409081 -1.1782962 -1.3349887 10 0
14.536666 -3.5409691 0.26115781 19 8
5.2006655 -1.2687472 -1.2358811 3 1
17.217224 -4.2066584 0.92885864 42 9
7.1343603 -1.7444471 -1.4276329 9 2
27.91152 -6.8350682 2.5140944 2 10
9.15518 -2.2453396 -1.4930108 7 3
20.715006 -5.08426 2.6189725 24 11
12.794201 -3.1449249 -1.6176938 7 4
14.836029 -3.6550624 -1.3367947 9 5
17.269196 -4.2609015 3.4574592 23 13
14.575009 -3.6015515 -0.7868188 1 6
17.778723 -4.3964958 4.2281799 6 14
15.842879 -3.923651 -0.2848931 13 7
21.463551 -5.3236194 5.9254036 1 15
4.8269424 -1.2106531 -1.3334358 9 0
15.065638 -3.7842267 0.27114061 9 8
5.6755071 -1.4266419 -1.3510561 2 1
17.323013 -4.3608842 0.93618566 11 9
7.1159835 -1.7940146 -1.4264882 11 2
27.820621 -7.0190377 2.5102596 2 10
9.1048088 -2.3004892 -1.4873791 7 3
20.916723 -5.2927446 2.6491959 5 11
12.714204 -3.2195494 -1.6103816 7 4
18.255379 -4.6294928 2.9828928 3 12
14.454175 -3.6708927 -1.3047214 9 5
17.094418 -4.344605 3.4284561 47 13
14.81081 -3.7697227 -0.80094957 11 6
18.037613 -4.5977297 4.2974648 19 14
14.731955 -3.7578661 -0.26538128 9 7
24.093096 -6.1546898 6.6630378 6 15
4.8165021 -1.2438385 -1.332918 10 0
13.782388 -3.5643678 0.24848737 1 8
5.7257795 -1.4818534 -1.3654529 18 1
12.907241 -3.3452508 0.69878972 4 9
7.0937843 -1.8411832 -1.4245801 10 2
16.100241 -4.181798 1.4553264 15 10
9.0694084 -2.3590236 -1.4842504 6 3
20.723663 -5.3981099 2.6294532 11 11
12.672208 -3.3032248 -1.6079443 7 4
20.502829 -5.3520522 3.3561454 13 12
14.075442 -3.6794975 -1.2728225 11 5
14.434428 -3.7814162 -0.78200394 13 6
17.859936 -4.6854663 4.2628226 26 14
14.964538 -3.9286649 -0.27005854 15 7
18.993757 -4.9935493 5.2623091 7 15
4.8077011 -1.2774336 -1.332918 10 0
12.959063 -3.4481399 0.23407167 8 8
5.7134118 -1.5212891 -1.365003 18 1
12.927959 -3.4471135 0.70119721 6 9
7.0598927 -1.8850909 -1.4203823 10 2
16.068731 -4.293582 1.4551523 28 10
9.0489016 -2.4212608 -1.4836246 7 3
25.542379 -6.8440599 3.2468433 9 11
12.625831 -3.3854432 -1.6050195 7 4
28.216354 -7.5763865 4.6273322 6 12
13.703083 -3.6845493 -1.2414464 12 5
20.518515 -5.5209556 4.1302519 7 13
14.12612 -3.8062301 -0.76672184 15 6
17.774109 -4.7958226 4.2502251 10 14
14.60855 -3.9444244 -0.26412472 12 7
16.828732 -4.5501947 4.6711664 18 15
4.7893486 -1.3084208 -1.33033 11 0
13.10441 -3.5849609 0.23714329 19 8
5.6988926 -1.5601096 -1.3641032 17 1
12.96907 -3.5552359 0.70475608 17 9
7.0295215 -1.9296546 -1.4169476 9 2
13.656049 -3.7512474 1.239006 7 10
9.0508242 -2.4896135 -1.4867533 7 3
17.681768 -4.8703709 2.2519019 6 11
12.54639 -3.4582074 -1.5979509 7 4
19.184582 -5.2951231 3.1521549 7 12
13.367843 -3.6946712 -1.2133822 15 5
19.620403 -5.4264712 3.9569972 9 13
13.793159 -3.8199968 -0.75007898 15 6
18.196516 -5.0463405 4.3595514 27 14
14.176014 -3.9340205 -0.25679472 18 7
4.4118257 -1.2384466 -1.2278377 1 0
12.909656 -3.6287405 0.23407167 15 8
5.6822343 -1.5982741 -1.3627534 18 1
13.099653 -3.6895483 0.71323448 14 9
7.0064311 -1.976018 -1.4150395 11 2
13.458872 -3.7983303 1.2234924 11 10
9.0104122 -2.5462928 -1.482999 7 3
16.623528 -4.7039838 2.1212578 36 11
12.499022 -3.539223 -1.595026 7 4
26.042023 -7.3838792 4.2872434 3 12
13.038895 -3.7019277 -1.1858411 8 5
31.653452 -8.992835 6.3962998 4 13
13.404999 -3.8134561 -0.73040068 15 6
12.630882 -3.600385 -0.22925481 10 7
16.856445 -4.8112283 4.6970482 6 15
4.3028331 -1.2403221 -1.1998851 1 0
12.655377 -3.6527872 0.229918 13 8
5.6540885 -1.6330377 -1.3587044 17 1
11.95885 -3.458529 0.6524201 3 9
6.9698358 -2.0183303 -1.4104601 11 2
12.115423 -3.5106859 1.1035661 7 10
8.9620619 -2.6003277 -1.4779931 6 3
16.319593 -4.7412796 2.0866473 33 11
12.372981 -3.5970249 -1.5821079 10 4
20.654551 -6.0124307 3.4071431 26 12
12.614872 -3.6768999 -1.1495842 13 5
20.111914 -5.8658967 4.0722456 12 13
13.055965 -3.8128843 -0.71281582 11 6
19.156752 -5.6018257 4.6078973 6 14
12.67837 -3.7098169 -0.23058119 7 7
16.883625 -4.9467154 4.7141304 29 15
4.3051844 -1.2736193 -1.202991 1 0
12.125306 -3.5916793 0.22073804 16 8
5.6369448 -1.6708093 -1.3573546 14 1
12.066529 -3.5811419 0.65964246 1 9
6.957458 -2.0674987 -1.4108418 9 2
12.096348 -3.5968847 1.1040889 6 10
8.928544 -2.6583211 -1.47549 6 3
16.316532 -4.8641696 2.0905468 13 11
12.058425 -3.597064 -1.5450597 8 4
20.593147 -6.150826 3.4040143 9 12
12.375103 -3.7009408 -1.1300614 10 5
18.823473 -5.6329913 3.8192329 19 13
12.726739 -3.8133628 -0.69627762 15 6
18.747601 -5.6245489 4.5188169 8 14
13.215245 -3.9672778 -0.24084321 13 7
16.284405 -4.8948512 4.5562506 29 15
4.3109765 -1.3081312 -1.207132 1 0
12.304663 -3.7384424 0.22447285 20 8
5.6251431 -1.7101215 -1.3573546 17 1
12.163518 -3.7025173 0.66634142 11 9
6.967268 -2.1234608 -1.4158028 10 2
12.12621 -3.6980989 1.109144 1 10
8.8304186 -2.6963594 -1.4623495 9 3
16.468216 -5.0348382 2.1144333 21 11
11.793839 -3.6079895 -1.5143486 7 4
20.534595 -6.289814 3.4015114 12 12
12.162292 -3.7299945 -1.1129788 11 5
18.95636 -5.8172541 3.854342 7 13
12.503161 -3.8416977 -0.68549639 13 6
18.584946 -5.7174759 4.4891233 5 14
11.379239 -3.5028851 -0.20782326 2 7
16.259066 -5.0112615 4.5588388 30 15
4.7112536 -1.4655881 -1.3220477 9 0
10.510316 -3.2735989 0.192151 5 8
5.6093459 -1.7481906 -1.3564548 17 1
12.164066 -3.7956727 0.66780686 14 9
6.9335341 -2.1661952 -1.4119867 12 2
16.348347 -5.1107292 1.4985558 6 10
8.8603954 -2.773283 -1.4704841 7 3
16.241344 -5.0897284 2.0898156 15 11
11.582737 -3.6320298 -1.4904622 10 4
24.368843 -7.6507478 4.0453959 1 12
11.862254 -3.7287767 -1.087878 14 5
19.907871 -6.2616506 4.0565991 3 13
12.241718 -3.8551016 -0.67262173 15 6
20.286036 -6.3961625 4.9106817 9 14
12.592175 -3.9727142 -0.23047648 16 7
16.695274 -5.2736111 4.6913543 7 15
4.6990666 -1.4978563 -1.3215301 10 0
10.483396 -3.3456781 0.19208118 5 8
5.5951486 -1.7867156 -1.356005 18 1
12.64521 -4.0428977 0.69575429 17 9
6.9201121 -2.2151456 -1.4123683 10 2
17.598732 -5.6367855 1.616739 12 10
8.8220072 -2.8290398 -1.4673554 7 3
17.347015 -5.5695167 2.2370338 16 11
11.341643 -3.6435869 -1.462676 10 4
21.979261 -7.0694652 3.6568124 10 12
11.619736 -3.7418778 -1.0680065 14 5
18.921875 -6.097014 3.864264 3 13
11.93509 -3.8503287 -0.65723503 13 6
18.833389 -6.0830193 4.5692058 8 14
11.94763 -3.8612821 -0.21916732 9 7
16.705839 -5.4055004 4.704813 14 15
4.6921678 -1.5318241 -1.3225653 10 0
11.809311 -3.8598776 0.2168636 16 8
5.5714254 -1.8220987 -1.3533056 17 1
12.147846 -3.9775696 0.6699003 13 9
6.8951511 -2.2603447 -1.4104601 10 2
13.019181 -4.2704196 1.19874 2 10
8.7288475 -2.866523 -1.4551535 13 3
17.40954 -5.7239656 2.2501957 17 11
11.066386 -3.6427233 -1.4305025 11 4
21.083191 -6.9440355 3.5157087 8 12
11.343562 -3.740546 -1.0449973 10 5
19.261806 -6.3590474 3.9428773 12 13
11.657586 -3.8508639 -0.64341831 13 6
10.919784 -3.6113729 2.6553223 23 14
11.879827 -3.9334781 -0.21843432 10 7
16.436632 -5.4454451 4.6395903 1 15
4.6829185 -1.5659739 -1.323083 9 0
12.002054 -4.015831 0.22091258 22 8
5.5416136 -1.8563491 -1.3492564 13 1
11.435482 -3.8351378 0.63211375 13 9
6.8792033 -2.3084264 -1.4104601 10 2
9.118432 -3.0633774 0.8415758 7 10
8.6837721 -2.9207251 -1.4510862 23 3
17.103878 -5.7560911 2.2158287 4 11
10.882666 -3.6666508 -1.4100285 8 4
14.685824 -4.953742 2.4547698 3 12
11.115182 -3.7514732 -1.0263461 15 5
14.621021 -4.9404111 2.9998991 3 13
11.461349 -3.877223 -0.63410246 15 6
11.023516 -3.7312541 2.6868153 28 14
11.632384 -3.9418707 -0.21438536 34 7
16.984491 -5.7621522 4.8057523 12 15
4.6718721 -1.5986283 -1.323083 9 0
5.535893 -1.8975189 -1.3510561 17 1
10.970152 -3.7644806 0.60782987 3 9
6.8420844 -2.3505766 -1.4062624 13 2
9.106245 -3.1301992 0.8424474 1 10
8.6575661 -2.9793491 -1.4501476 12 3
14.106246 -4.8599243 1.8319401 22 11
10.672885 -3.6791368 -1.386142 10 4
21.718636 -7.4952903 3.638979 10 12
10.892203 -3.7632496 -1.0082177 13 5
17.892696 -6.185411 3.6799426 0 13
11.184862 -3.8709192 -0.62028581 14 6
11.044409 -3.826628 2.6985128 9 14
11.442095 -3.9666541 -0.21138355 11 7
16.806973 -5.8330798 4.7669296 20 15
4.6533041 -1.6286521 -1.3210124 9 0
10.923108 -3.8273585 0.20202905 11 8
5.5188327 -1.9348305 -1.3501562 17 1
9.9843655 -3.5043025 0.55455184 10 9
6.8199506 -2.3963332 -1.4051175 11 2
10.283363 -3.6152928 0.9536581 1 10
8.664506 -3.0495543 -1.4548407 8 3
15.27397 -5.3818102 1.9884202 9 11
10.433514 -3.6783144 -1.3583559 8 4
14.786602 -5.2187901 2.4835539 21 12
10.642116 -3.7602117 -0.98747456 12 5
18.761614 -6.6327825 3.8680801 7 13
10.941041 -3.872277 -0.60824853 14 6
18.761583 -6.6475105 4.5953002 12 14
11.252034 -3.988975 -0.20838173 11 7
16.718504 -5.9334722 4.7534709 21 15
4.6454582 -1.6624002 -1.3220477 9 0
10.980836 -3.933871 0.20359977 6 8
5.5235353 -1.9798874 -1.3546553 16 1
10.563103 -3.7904601 0.58815157 13 9
6.8049026 -2.4445505 -1.4054991 12 2
10.302874 -3.7031698 0.95784163 7 10
8.6151247 -3.099937 -1.4501476 7 3
15.48442 -5.5777869 2.0208375 18 11
10.209625 -3.6797175 -1.3325195 10 4
14.773963 -5.3306084 2.4876211 6 12
10.388864 -3.7525148 -0.96638286 12 5
22.619934 -8.1749077 4.6752024 12 13
10.720295 -3.8785763 -0.5974673 14 6
24.213335 -8.7698851 5.945456 8 14
11.005825 -3.988399 -0.20433277 17 7
10.238822 -3.714488 2.9184437 15 15
4.626482 -1.6921364 -1.3199772 9 0
9.4433689 -3.4576509 0.1755363 3 8
5.505919 -2.0170596 -1.3537554 13 1
9.4506798 -3.465941 0.52754653 4 9
6.7839856 -2.4906449 -1.4047359 13 2
10.93695 -4.0175138 1.0193735 9 10
8.5654631 -3.1497793 -1.4454547 7 3
14.470819 -5.3270922 1.8933623 13 11
9.9601555 -3.6685715 -1.3032708 9 4
14.686347 -5.4151678 2.4791737 21 12
10.188585 -3.7607882 -0.95017189 12 5
18.621134 -6.8770843 3.8585396 27 13
10.475652 -3.8729825 -0.58532542 13 6
11.162883 -4.1314907 2.7480021 15 14
10.658922 -3.9470851 -0.19839896 17 7
15.701163 -5.8205013 4.486887 6 15
4.6290331 -1.7298037 -1.3241183 9 0
10.825575 -4.0496702 0.20174982 13 8
5.4807529 -2.0513504 -1.3510561 16 1
9.3776255 -3.5136142 0.52482504 18 9
6.7590795 -2.535187 -1.4032094 12 2
10.865734 -4.0776687 1.0153644 9 10
8.539566 -3.2081108 -1.4448289 7 3
13.242271 -4.9800801 1.7371258 4 11
9.8265429 -3.6974697 -1.289134 10 4
14.84968 -5.5934625 2.5132763 24 12
10.007348 -3.7734799 -0.93570399 11 5
18.550631 -6.998601 3.8539605 41 13
10.308223 -3.8930967 -0.57747501 13 6
18.490656 -6.990725 4.563807 5 14
10.473996 -3.9619718 -0.19546695 25 7
8.01616 -3.0354512 2.2967603 10 15
4.6132345 -1.7607003 -1.323083 9 0
10.359929 -3.9581437 0.1935821 11 8
5.4681187 -2.0902586 -1.351506 14 1
10.520577 -4.0258355 0.59034967 8 9
6.7265487 -2.5766935 -1.4001565 13 2
13.402534 -5.1367006 1.2557399 9 10
8.4948311 -3.2591588 -1.4410745 7 3
14.378351 -5.5222116 1.8911686 6 11
9.6114845 -3.6933534 -1.2642727 7 4
14.791833 -5.6899037 2.5101478 6 12
9.8301563 -3.785259 -0.92158478 9 5
16.258953 -6.2640295 3.3868597 40 13
10.070221 -3.8837559 -0.56564707 13 6
10.729609 -4.1423631 2.6553223 2 14
10.33789 -3.9932055 -0.19344248 21 7
7.9136896 -3.0599878 2.2734666 12 15
4.6026301 -1.7935649 -1.3236006 10 0
10.432643 -4.0696149 0.19546695 15 8
5.4425001 -2.1241312 -1.3488065 11 1
10.497795 -4.1013646 0.59066367 24 9
6.6955976 -2.6185851 -1.3974851 11 2
10.759501 -4.2101045 1.0108323 9 10
8.4571562 -3.3126204 -1.4385715 7 3
8.3491678 -3.2753658 -1.1012114 23 4
14.676363 -5.7634263 2.4973202 18 12
9.6131611 -3.7770371 -0.90363067 10 5
16.408493 -6.4535546 3.4273117 37 13
9.8848972 -3.8917718 -0.55674994 12 6
9.8906908 -3.8960464 2.454216 23 14
10.159076 -4.0058637 -0.19061519 12 7
7.958621 -3.1414039 2.2926192 0 15
4.5864062 -1.8242254 -1.3225653 11 0
9.58533 -3.814466 0.18007393 11 8
5.4438319 -2.1685653 -1.3528557 17 1
9.4621916 -3.7712033 0.53382683 13 9
6.6721482 -2.661917 -1.3963403 12 2
9.4753485 -3.7841153 0.89264911 7 10
8.4105644 -3.3605804 -1.4345042 7 3
13.747908 -5.4987707 1.818047 17 11
8.3039846 -3.3247194 -1.0982866 10 4
14.161859 -5.6729426 2.4162872 13 12
9.4164267 -3.7758374 -0.88759404 10 5
16.031445 -6.4348502 3.357857 7 13
9.7006397 -3.895699 -0.54785281 12 6
19.766277 -7.9459925 4.9183297 21 14
9.9917278 -4.0207009 -0.18799733 10 7
9.9710464 -4.0144014 2.8801384 18 15
4.5631418 -1.8510447 -1.3194594 10 0
8.7747421 -3.5630536 0.16530919 7 8
5.416307 -2.2004354 -1.3497064 17 1
9.742754 -3.9620652 0.55120236 13 9
6.6406732 -2.7032506 -1.393669 11 2
9.1319942 -3.7192628 0.86266756 9 10
8.3631191 -3.4095209 -1.4304368 8 3
13.93525 -5.6868701 1.8480269 26 11
8.2462425 -3.3669086 -1.0936555 7 4
14.059738 -5.7462621 2.4056494 8 12
9.2964563 -3.8013864 -0.87870419 11 5
19.761057 -8.0884886 4.1504774 10 13
8.49224 -3.4794588 -0.48096749 1 6
19.405203 -7.9546971 4.8418465 15 14
8.5747747 -3.5185199 -0.16178381 3 7
9.9070387 -4.0692344 2.8697855 10 15
4.5536785 -1.8843333 -1.3204948 10 0
9.539217 -3.9493225 0.18021354 15 8
5.3936119 -2.2352102 -1.3479067 15 1
9.4351254 -3.9120154 0.53529221 10 9
6.6348124 -2.7536571 -1.3963403 13 2
9.0690079 -3.767637 0.85918134 10 10
8.2649298 -3.435282 -1.4176092 10 3
13.892552 -5.7800674 1.8475394 17 11
8.5340652 -3.554136 -1.1350911 8 4
14.260992 -5.9421191 2.4469483 11 12
9.1005154 -3.7956352 -0.86266756 9 5
15.731038 -6.5675354 3.3135893 20 13
8.4204426 -3.517168 -0.478246 1 6
15.230166 -6.3677931 3.811121 5 14
8.5629139 -3.5837007 -0.16202815 23 7
10.174914 -4.2604322 2.9557135 8 15
4.5404119 -1.9160779 -1.3204948 10 0
9.5125542 -4.01826 0.18024845 11 8
5.3689008 -2.269017 -1.3456572 12 1
9.4216051 -3.9856567 0.53612959 13 9
6.5896282 -2.7903469 -1.3909976 10 2
8.9397488 -3.7873344 0.84941983 5 10
8.2474108 -3.497421 -1.4188608 10 3
13.406806 -5.6908517 1.7883109 7 11
8.7849455 -3.7307978 -1.1718956 10 4
13.643637 -5.7998128 2.3480816 6 12
8.9814548 -3.821655 -0.85395193 9 5
10.540234 -4.4870958 2.2267411 27 13
9.1575775 -3.9022603 -0.52168489 11 6
19.310528 -8.2366381 4.8467956 9 14
9.3322325 -3.9824595 -0.17710702 10 7
10.186805 -4.351346 2.9681368 23 15
4.5145035 -1.9423842 -1.3168714 9 0
9.0214434 -3.885247 0.17145245 10 8
5.3547192 -2.3072143 -1.3461071 13 1
8.6893101 -3.7476027 0.49593559 31 9
6.5609746 -2.8323922 -1.3890896 11 2
9.0466137 -3.9073226 0.86214459 3 10
8.1792774 -3.5360999 -1.4113519 15 3
14.000747 -6.0586638 1.873132 5 11
8.636632 -3.7391946 -1.1555651 13 4
13.51219 -5.8556485 2.3324382 6 12
8.7754288 -3.8065624 -0.83686942 9 5
14.953441 -6.489531 3.1685743 12 13
9.0165358 -3.9167595 -0.51519525 11 6
15.115392 -6.5723596 3.8052719 1 14
9.2015142 -4.0028424 -0.17515235 12 7
4.5061402 -1.9761815 -1.3184243 10 0
9.0215645 -3.9601896 0.17197601 24 8
5.3366971 -2.3437572 -1.3456572 13 1
8.3594217 -3.674751 0.47856 24 9
6.5428381 -2.8789179 -1.3894712 12 2
8.6088228 -3.7897663 0.82292449 29 10
8.1471615 -3.5899296 -1.4101005 10 3
10.636133 -4.6910934 1.427334 9 11
8.5104303 -3.7553215 -1.1421596 11 4
8.6593504 -3.8282588 -0.82832819 11 5
10.480147 -4.6354113 2.2275043 25 13
8.8008652 -3.8963315 -0.50441402 17 6
13.588594 -6.0216365 3.4314034 0 14
8.9576321 -3.9713461 -0.17103358 9 7
16.692039 -7.4073524 4.8932328 6 15
4.4904704 -2.0068038 -1.3179066 9 0
8.9918728 -4.0222592 0.1719411 22 8
5.3077536 -2.3753848 -1.342508 13 1
8.2515402 -3.6962786 0.4738498 11 9
6.5172062 -2.9221151 -1.3883264 11 2
8.6439638 -3.8775001 0.8288511 12 10
8.0912647 -3.6329644 -1.4047817 8 3
13.43859 -6.0395417 1.8090287 20 11
8.3192511 -3.7405648 -1.1199794 14 4
13.214753 -5.9472637 2.2952068 17 12
8.4961681 -3.8272445 -0.81525475 11 5
10.866363 -4.8972206 2.316803 37 13
8.6532898 -3.9034739 -0.49750566 12 6
13.652791 -6.1644711 3.4583974 5 14
8.8440361 -3.9950936 -0.16939306 21 7
16.585356 -7.4990315 4.8771863 9 15
4.4886589 -2.0437076 -1.3215301 10 0
8.9490166 -4.0783014 0.17166187 22 8
5.2733097 -2.4042974 -1.3380089 13 1
8.0529194 -3.6750202 0.46390596 48 9
6.4966474 -2.9675422 -1.3883264 11 2
8.0368023 -3.6727507 0.77307147 10 10
8.0046291 -3.6614258 -1.3941442 8 3
13.15785 -6.0241346 1.7768552 8 11
8.1684046 -3.7415116 -1.1031613 11 4
11.118684 -5.0975742 1.9372847 15 12
8.3569717 -3.8349452 -0.80444747 10 5
13.873979 -6.369586 2.9674616 9 13
8.5405312 -3.9245942 -0.49258608 13 6
13.487261 -6.2034469 3.4273543 29 14
8.6597033 -3.9848497 -0.16639124 9 7
16.592255 -7.6421127 4.8947859 12 15
4.4830441 -2.0790579 -1.3241183 11 0
8.8260078 -4.0968966 0.16984682 9 8
5.2634659 -2.4443364 -1.3398085 14 1
7.9419427 -3.6915827 0.45898637 8 9
6.4579711 -3.0045431 -1.3845102 10 2
8.4715729 -3.9431612 0.8175208 8 10
7.8839712 -3.6730061 -1.3775622 10 3
13.239611 -6.1737323 1.7936732 40 11
8.0647297 -3.7623589 -1.0926807 11 4
13.164435 -6.1470704 2.3011513 6 12
8.1729612 -3.8198009 -0.78928244 11 5
10.371879 -4.8497162 2.2255962 14 13
8.3754444 -3.91978 -0.484631 12 6
13.521271 -6.3338265 3.44715 36 14
8.5357046 -4.0002327 -0.16454129 12 7
8.7362328 -4.0979295 2.5856025 19 15
4.4526987 -2.1028798 -1.3194594 14 0
8.670639 -4.0985923 0.16740347 13 8
5.2445116 -2.4801891 -1.3393586 14 1
8.152463 -3.8588758 0.47269842 42 9
6.3871598 -3.0260191 -1.3738248 7 2
7.6876731 -3.6438005 0.74430996 23 10
7.7349906 -3.6695352 -1.3559741 8 3
10.990547 -5.2186956 1.4938745 9 11
7.8858576 -3.7461669 -1.0719628 11 4
8.0471468 -3.8296757 -0.77969521 12 5
13.211144 -6.2900748 2.8441992 31 13
8.2523155 -3.9326174 -0.47908339 15 6
13.279726 -6.334105 3.3967609 27 14
7.3146329 -3.4904683 -0.1414692 4 7
7.3407207 -3.5060632 2.179774 31 15
4.4344277 -2.1322398 -1.3184243 13 0
7.4237447 -3.5728068 0.14380784 6 8
5.2270689 -2.5167418 -1.3393586 13 1
8.256669 -3.9789922 0.48033947 17 9
6.3535013 -3.0645649 -1.3711535 8 2
7.9958048 -3.858439 0.77673197 9 10
7.6255817 -3.6830668 -1.3412693 7 3
12.724977 -6.1514945 1.7354196 25 11
7.7737331 -3.7596433 -1.0602634 13 4
10.483197 -5.0745487 1.8446754 13 12
7.9233918 -3.838851 -0.77028245 11 5
13.016745 -6.3093653 2.8117616 14 13
7.2884474 -3.5359366 -0.42454931 16 6
8.7141848 -4.2313805 2.2364633 34 14
7.3116717 -3.551934 -0.14188807 47 7
7.178813 -3.4904907 2.1388805 14 15
4.4263744 -2.1665428 -1.3204948 10 0
7.3662968 -3.6087112 0.14317955 25 8
5.2041221 -2.5505993 -1.3380089 15 1
7.3912964 -3.6257586 0.43145767 8 9
6.340764 -3.1131723 -1.3730617 10 2
7.8577981 -3.8597045 0.76592463 11 10
6.4669108 -3.1793113 -1.141346 8 3
10.084819 -4.9623461 1.3800485 4 11
6.5041676 -3.2018571 -0.89013374 32 4
13.147991 -6.4781671 2.3214879 6 12
7.7677407 -3.8306258 -0.75773197 9 5
11.722326 -5.7833557 2.5408127 5 13
7.9620061 -3.9316106 -0.46537137 13 6
8.6984081 -4.2990208 2.2400625 9 14
8.0843792 -3.9973049 -0.15742071 11 7
9.4103251 -4.6570048 2.8133633 7 15
4.4128704 -2.1982532 -1.3210124 12 0
5.1687503 -2.5781703 -1.3335099 13 1
7.8607888 -3.9243846 0.46045178 15 9
6.2978005 -3.1468322 -1.3684822 10 2
7.7807617 -3.8895233 0.76104391 15 10
6.4162917 -3.2102387 -1.1363401 22 3
9.9487562 -4.9819655 1.3661555 41 11
10.285949 -5.1575575 1.8224617 11 12
6.4960828 -3.2600892 -0.63588828 18 5
7.7933798 -3.9162538 -0.45710227 13 6
7.9616017 -4.0060096 -0.15557076 11 7
13.477149 -6.7871437 4.0432711 2 15
4.3819089 -2.2211461 -1.3163538 10 0
7.9803734 -4.0486746 0.15619904 28 8
5.1575766 -2.6177197 -1.3353095 13 1
7.6960869 -3.9095161 0.45239204 16 9
6.2511773 -3.1782656 -1.3631396 10 2
7.6752801 -3.9040031 0.75337422 9 10
6.4025259 -3.2594352 -1.1379044 40 3
9.903121 -5.0458922 1.364693 25 11
10.251451 -5.2301383 1.8227745 10 12
7.5715437 -3.866221 -0.74378711 12 5
11.248809 -5.7463999 2.4553304 39 13
7.6662655 -3.9196501 -0.45124069 11 6
7.8408799 -4.0141077 -0.15375571 22 7
13.173262 -6.749805 3.9661431 30 15
4.359427 -2.2481413 -1.3142831 10 0
7.9661288 -4.1116257 0.15647829 11 8
5.1339808 -2.65098 -1.3339597 13 1
7.6295714 -3.9429758 0.45008928 58 9
6.2253489 -3.2200251 -1.3623763 10 2
7.6478376 -3.9574912 0.75337422 10 10
6.3918939 -3.3104126 -1.1400945 11 3
7.7016692 -3.992166 1.0651382 16 11
8.5928917 -4.4598417 1.5333707 23 12
7.4488926 -3.8693898 -0.73437428 13 5
11.105635 -5.7713766 2.4328148 34 13
7.2205429 -3.7555737 -0.42653811 28 6
7.6388535 -3.97823 -0.15033503 17 7
12.894549 -6.7210612 3.8962622 17 15
4.3299398 -2.2713418 -1.310142 10 0
7.6734233 -4.0286374 0.15127745 15 8
5.1049972 -2.68132 -1.3312603 13 1
7.3508201 -3.8641779 0.43522584 31 9
6.1783934 -3.2506099 -1.3570337 11 2
7.1439924 -3.7602286 0.70631009 10 10
7.017025 -3.6965275 -1.256169 7 3
7.6648307 -4.0412068 1.0639194 25 11
7.3019075 -3.858006 -0.72252107 12 5
10.824548 -5.7240481 2.3801515 16 13
7.4448395 -3.9385128 -0.44140148 15 6
7.6066575 -4.0309176 -0.15026523 23 7
9.8757219 -5.235548 2.995054 6 15
4.3169847 -2.3040869 -1.3111774 10 0
7.6627522 -4.0915284 0.15162651 29 8
5.075367 -2.7122705 -1.3285609 13 1
7.3388324 -3.925158 0.43616793 61 9
6.1538177 -3.2927372 -1.356652 8 2
7.1660819 -3.83759 0.71119088 23 10
6.8789649 -3.6869228 -1.2361453 7 3
7.5629539 -4.0552201 1.0536824 19 11
7.0770245 -3.7978482 -0.98616678 11 4
10.114358 -5.4323659 1.8183944 11 12
7.1449199 -3.8391042 -0.70962203 10 5
10.844841 -5.8320227 2.3935082 40 13
7.3320484 -3.9462507 -0.43637723 13 6
11.470268 -6.1761026 3.0075955 9 14
7.4357414 -4.0070829 -0.14743793 13 7
9.8005981 -5.2859073 2.9836662 5 15
4.2940025 -2.3304827 -1.3091067 10 0
7.485672 -4.0660801 0.1486945 13 8
5.0460348 -2.742054 -1.3258615 13 1
7.4059963 -4.0278249 0.44182017 30 9
6.1197524 -3.3310571 -1.3543624 8 2
7.2336044 -3.9389772 0.7206037 17 10
6.8131638 -3.7131155 -1.2289493 8 3
7.5790515 -4.1339493 1.0600196 40 11
6.9492717 -3.7920129 -0.97202998 9 4
10.122996 -5.5284081 1.8268418 9 12
7.0700622 -3.8643329 -0.70491564 10 5
10.95717 -5.9914203 2.4274724 29 13
7.2167163 -3.9493992 -0.43114361 16 6
11.406978 -6.2477255 3.0026467 10 14
7.3391924 -4.021421 -0.14607665 21 7
9.7346611 -5.3384075 2.9748662 8 15
4.2894673 -2.3669367 -1.3127302 10 0
7.2768021 -4.0186677 0.1450993 30 8
5.0199456 -2.7734456 -1.3240619 13 1
7.2745733 -4.022409 0.43564454 35 9
6.0826063 -3.3660944 -1.3513094 9 2
7.2163877 -3.9951706 0.72164959 12 10
6.6920428 -3.7079332 -1.2117414 7 3
7.5361185 -4.1790586 1.0580697 30 11
6.8410439 -3.7951746 -0.96057427 10 4
10.158417 -5.6401768 1.8402953 6 12
6.9697661 -3.8729513 -0.69759458 13 5
10.937382 -6.0801692 2.4324331 20 13
7.0807595 -3.939482 -0.42465398 12 6
10.82166 -6.0257325 2.8595779 27 14
7.1938939 -4.0073595 -0.14373802 23 7
12.346282 -6.8831458 3.7875581 22 15
4.2660995 -2.3930445 -1.3106596 10 0
7.152667 -4.0155306 0.14317955 15 8
5.005559 -2.8112867 -1.3254116 13 1
7.0582795 -3.9674039 0.42433998 18 9
6.04527 -3.4007761 -1.3482565 9 2
7.1779027 -4.0395899 0.7206037 23 10
6.619523 -3.7283874 -1.203294 8 3
6.84445 -3.8582232 0.96471781 4 11
6.7555923 -3.8096886 -0.95228714 10 4
10.223732 -5.7701836 1.8593802 0 12
6.8159194 -3.8499825 -0.68486983 11 5
6.9383435 -3.9239275 -0.41774565 13 6
10.665702 -6.0368214 2.8294344 14 14
11.854215 -6.7177205 3.6509016 16 15
4.2341847 -2.4141569 -1.3060009 10 0
6.3949919 -3.6491182 0.12851952 3 8
4.9807329 -2.8432648 -1.3240619 12 1
7.1084485 -4.0611672 0.42905018 37 9
6.0316067 -3.4487441 -1.3505462 8 2
6.7534828 -3.8630614 0.68068635 7 10
6.4270415 -3.6793122 -1.1729457 10 3
9.6989603 -5.5568948 1.3724926 5 11
6.5876069 -3.7758121 -0.93230057 11 4
10.380249 -5.9544525 1.8953601 29 12
6.6955695 -3.8439057 -0.675457 17 5
10.817373 -6.2127309 2.4248009 33 13
6.8397851 -3.9314625 -0.41345412 11 6
10.38681 -5.9750934 2.766448 16 14
6.9777884 -4.0156479 -0.14052677 20 7
12.086593 -6.9613309 3.7373471 21 15
4.2155566 -2.4426897 -1.3054833 11 0
6.3814697 -3.7006967 0.12876385 11 8
4.9439058 -2.8681881 -1.3195629 12 1
6.9918351 -4.0595493 0.42371196 21 9
5.9836178 -3.476959 -1.3452035 9 2
7.010561 -4.0753312 0.70944774 27 10
6.3568063 -3.6982641 -1.1648113 10 3
7.0009189 -4.0762682 0.99469769 7 11
6.5147729 -3.794733 -0.92571962 13 4
6.6203856 -3.8624432 -0.67057627 12 5
10.222673 -5.9664698 2.3007751 18 13
6.7500863 -3.9428518 -0.40968591 20 6
6.8563709 -4.0097504 -0.13864191 23 7
11.992682 -7.0191941 3.723371 9 15
4.2000656 -2.4730401 -1.3060009 10 0
6.9205632 -4.0781507 0.14021264 18 8
4.9069743 -2.8927364 -1.3150638 12 1
7.0011678 -4.1305885 0.42601472 11 9
5.9524364 -3.5146544 -1.343677 9 2
7.1689258 -4.2346263 0.72844774 37 10
6.3087263 -3.7294843 -1.160744 8 3
6.3828664 -3.7763205 0.91060776 13 11
6.4266229 -3.8037224 -0.91694498 14 4
12.129955 -7.1850705 2.2329459 4 12
6.5349884 -3.8740234 -0.66464967 12 5
10.542138 -6.2520008 2.3824413 12 13
6.6399546 -3.9409492 -0.40466166 12 6
5.9996114 -3.5651412 -0.1218178 10 7
4.1760669 -2.4983344 -1.3039304 10 0
6.8112864 -4.0780859 0.13857211 23 8
4.8933473 -2.9309282 -1.3168634 13 1
6.8025675 -4.0777049 0.41565222 11 9
5.9075522 -3.5440044 -1.3390976 9 2
6.7445588 -4.0477347 0.68818176 10 10
6.2249603 -3.7388549 -1.1501063 8 3
6.6285672 -3.9844201 0.949606 13 11
6.2910352 -3.7830245 -0.90134573 9 4
7.3049064 -4.3961749 1.3503424 3 12
6.4316559 -3.8721716 -0.65680563 15 5
10.288034 -6.1987948 2.334739 24 13
6.5438652 -3.9459543 -0.40047479 19 6
10.342244 -6.2388401 2.7884934 18 14
6.6233907 -3.9986386 -0.13504672 19 7
7.058723 -4.2648177 2.2097969 44 15
4.1486182 -2.5214076 -1.3008245 10 0
6.566371 -3.9924157 0.1341392 12 8
4.8694372 -2.9629927 -1.3159637 13 1
6.2031331 -3.7760139 0.3805871 7 9
5.8899994 -3.5882194 -1.3406241 9 2
6.4269404 -3.9184039 0.65854877 28 10
6.1285362 -3.7379386 -1.1369658 8 3
6.5216579 -3.9808369 0.93815029 3 11
6.2000985 -3.7875276 -0.89208364 20 4
6.3449769 -3.8805943 -0.6507048 17 5
9.933053 -6.0798311 2.2637579 21 13
6.4385023 -3.9424286 -0.39565986 13 6
7.5003462 -4.5962181 2.0308583 33 14
6.5458789 -4.0144629 -0.13403448 23 7
7.0212979 -4.3077145 2.2072091 50 15
4.1330037 -2.5506024 -1.3013422 10 0
6.3120575 -3.898406 0.12949686 17 8
4.84584 -2.9940205 -1.3150638 13 1
6.7236147 -4.157454 0.41429147 11 9
5.8481107 -3.6189208 -1.336808 8 2
6.0613103 -3.752316 0.62368649 7 10
6.0351224 -3.7390182 -1.124451 8 3
6.5595059 -4.0670657 0.9476561 4 11
6.1606789 -3.8212717 -0.89013374 13 4
6.2456346 -3.8784964 -0.64320934 15 5
9.9081154 -6.1576653 2.2675743 42 13
6.3497672 -3.9493074 -0.39189169 14 6
7.5747814 -4.7130518 2.0596519 17 14
6.4606867 -4.0229874 -0.13284773 24 7
7.0238447 -4.3770618 2.2175617 54 15
4.1020017 -2.5711858 -1.297201 9 0
6.5107002 -4.0825715 0.1341392 13 8
4.8050127 -3.0153475 -1.3096651 10 1
6.5327716 -4.1011782 0.40424296 29 9
5.8017311 -3.6450655 -1.3318468 12 2
6.286283 -3.9525576 0.64965892 30 10
5.9593687 -3.7484586 -1.115065 8 3
6.2712765 -3.947705 0.90987664 16 11
6.1036191 -3.8451419 -0.88574642 17 4
6.1750207 -3.8916287 1.1560508 18 12
6.1762757 -3.8954327 -0.63885158 19 5
9.9860792 -6.3031836 2.2954323 27 13
6.231544 -3.9348533 -0.38623938 32 6
7.3456559 -4.6419363 2.0061135 34 14
6.3428698 -4.0113449 -0.13099776 35 7
7.0983706 -4.4908729 2.2506905 28 15
4.0872111 -2.601835 -1.2982364 9 0
6.4239779 -4.0925255 0.13295244 19 8
4.7608371 -3.0341561 -1.3033664 10 1
6.4561076 -4.1177478 0.40131214 27 9
5.6911001 -3.6326168 -1.3123844 34 2
6.2837248 -4.0124307 0.65227354 23 10
5.8774638 -3.7559047 -1.1047403 10 3
6.1809902 -3.9529076 0.90085822 9 11
5.9522219 -3.8095329 -0.86770982 14 4
6.9289079 -4.4363351 1.3030992 9 12
6.0559773 -3.880409 -0.62926447 16 5
9.7407475 -6.2462478 2.2492564 18 13
6.1527948 -3.9469922 -0.38309923 13 6
7.3975248 -4.7491269 2.0295084 33 14
6.0784683 -3.9053042 -0.12611109 31 7
7.0335512 -4.5206623 2.2403376 37 15
4.0571327 -2.6236727 -1.2946129 10 0
6.3448811 -4.1046872 0.13190529 22 8
4.7340961 -3.0649686 -1.3020166 11 1
6.406363 -4.1508088 0.40005609 5 9
5.680429 -3.6818702 -1.3158189 13 2
6.2398081 -4.0475349 0.6507048 38 10
5.7526808 -3.7344069 -1.0862811 27 3
6.1182818 -3.9732587 0.89573973 10 11
5.8638964 -3.8109698 -0.85869151 11 4
7.0261478 -4.5698113 1.327503 11 12
5.9702892 -3.8845625 -0.62316358 18 5
7.2159181 -4.6986156 1.6737766 33 13
6.074194 -3.9582067 -0.37995908 18 6
7.1176834 -4.6399593 1.9615731 24 14
6.1364713 -4.0033684 -0.12789124 25 7
6.9767575 -4.5550346 2.2325733 40 15
4.0209537 -2.6402683 -1.2889189 9 0
6.233459 -4.0961742 0.13019496 22 8
4.7109551 -3.0968733 -1.3015668 12 1
6.1436305 -4.0417533 0.38540202 43 9
5.6145821 -3.6965137 -1.3066601 28 2
6.1481705 -4.0493541 0.64408094 46 10
5.7116261 -3.764693 -1.0834652 10 3
6.1145492 -4.0333338 0.89939582 10 11
5.7741871 -3.8102674 -0.84942937 17 4
7.0155034 -4.6329026 1.3315703 6 12
5.8924732 -3.8942297 -0.61793417 13 5
11.691521 -7.7296476 2.724371 7 13
5.9181557 -3.9156563 -0.37189934 27 6
7.1704154 -4.7477937 1.985418 31 14
6.0616932 -4.0151911 -0.12691391 24 7
7.0381799 -4.6655393 2.2625961 42 15
3.9992087 -2.6661325 -1.2878836 9 0
6.0982485 -4.0685644 0.12796104 25 8
4.6957035 -3.1340134 -1.3033664 12 1
6.1733942 -4.1233711 0.38906553 28 9
5.5478344 -3.7083449 -1.2971196 12 2
6.119751 -4.0921774 0.64408094 40 10
5.6261029 -3.7649262 -1.072202 10 3
5.9641876 -3.9941828 0.88135916 7 11
5.7111635 -3.8261781 -0.8440671 15 4
6.9239225 -4.6421657 1.320307 7 12
5.7890368 -3.8842072 -0.60991585 14 5
5.8757539 -3.9468539 -0.37095729 24 6
6.8896499 -4.6313987 1.9165829 20 14
5.9206767 -3.98153 -0.12454037 38 7
7.0727506 -4.7598615 2.284337 42 15
3.9804986 -2.6939871 -1.2878836 9 0
5.9786344 -4.0493622 0.12604128 35 8
4.6511235 -3.1514156 -1.2970678 8 1
6.1576819 -4.1753364 0.38990292 28 9
5.4730744 -3.7139142 -1.2856711 19 2
6.1042204 -4.1437531 0.64547539 46 10
5.5490289 -3.7697003 -1.062503 8 3
5.665288 -3.8515713 0.8411423 5 11
5.6498427 -3.8425126 -0.83894861 12 4
5.9278636 -4.0346241 1.1357143 6 12
5.6926184 -3.8774197 -0.60259479 16 5
7.1759648 -4.8896074 1.6878965 57 13
5.8002024 -3.955147 -0.3679218 16 6
6.9601679 -4.7496839 1.9453768 45 14
5.9026451 -4.0295315 -0.1247498 20 7
6.9197135 -4.7273903 2.2455142 22 15
3.9615941 -2.72171 -1.2878836 9 0
5.9271502 -4.07514 0.12555261 41 8
4.6274042 -3.1827056 -1.2966179 8 1
5.9803147 -4.1163063 0.38048244 26 9
5.3791065 -3.7052572 -1.2696431 14 2
6.052175 -4.1704407 0.64303505 13 10
5.4542756 -3.7612481 -1.0493625 8 3
