# .PCD v0.7 - Point Cloud Data file format
VERSION 0.7
FIELDS x y z intensity ring
SIZE 4 4 4 4 2
TYPE F F F F U
COUNT 1 1 1 1 1
WIDTH 156
HEIGHT 1
VIEWPOINT 0 0 0 1 0 0 0
POINTS 156
DATA ascii
3.4799826 1.5763931 -0.60508859 9 3
3.4744148 1.5716794 -0.46822205 81 4
3.4610481 1.5627252 -0.33223769 89 5
3.497638 1.5770421 -0.20107476 90 6
3.4836826 1.5488498 -0.60383707 71 3
3.5034456 1.5554399 -0.47065943 83 4
3.4809821 1.5425588 -0.33310926 101 5
3.506737 1.5517757 -0.20097008 109 6
3.49441 1.5244931 -0.60383707 93 3
3.5142186 1.5309452 -0.47065943 81 4
3.498975 1.5213971 -0.33380648 91 5
3.5046606 1.521688 -0.20023739 101 6
3.5086002 1.5016148 -0.6044628 78 3
3.5138686 1.5016934 -0.46919701 83 4
3.5241716 1.5031879 -0.335201 91 5
3.5060105 1.4932723 -0.19971403 59 6
3.5037088 1.4901254 -0.066458762 0 7
3.5129223 1.4766972 -0.74072057 67 2
3.5262837 1.4801419 -0.60571432 81 3
3.5206053 1.4755907 -0.46870953 86 4
3.5382559 1.4800856 -0.33554959 106 5
3.5476801 1.4818457 -0.20149344 100 6
3.5322218 1.4558772 -0.74262863 13 2
3.5456645 1.4592466 -0.60727865 58 3
3.5455096 1.4570125 -0.47065943 83 4
3.544816 1.4538358 -0.335201 91 5
3.5486975 1.4532577 -0.20097008 105 6
3.5445333 1.4493858 -0.06684272 105 7
3.5368388 1.4289757 -0.74148381 75 2
3.5466063 1.4307625 -0.60571432 11 3
3.5668936 1.4360524 -0.47212186 32 4
3.5511827 1.427565 -0.33485237 91 5
3.5608594 1.4285703 -0.20107476 101 6
3.5585265 1.4254717 -0.066912524 118 7
3.5634034 1.4101318 -0.74491841 95 2
3.5512424 1.4031693 -0.60477573 68 3
3.5752313 1.4097651 -0.47187814 12 4
3.5616965 1.3994009 -0.20055141 97 6
3.5611897 1.3970498 -0.066772908 107 7
3.5369415 1.3733093 -0.87595946 58 1
3.577064 1.3860152 -0.74568158 93 2
3.5740881 1.3827105 -0.60696578 93 3
3.5627658 1.3761859 -0.46895328 78 4
3.5824022 1.3808997 -0.33589822 18 5
3.5764558 1.3743058 -0.066877626 90 7
3.5519063 1.3506629 -0.87730908 12 1
3.5947378 1.3619239 -0.60884303 76 3
3.5778568 1.3533866 -0.46968448 104 4
3.6105962 1.3628905 -0.33764133 120 5
3.5864949 1.351648 -0.20086543 13 6
3.6185269 1.3478744 0.067401193 111 8
3.5722072 1.3299125 -0.88000852 12 1
3.5795033 1.3297845 -0.74224705 13 2
3.598387 1.3325115 -0.47114691 76 4
3.5845144 1.3245296 -0.33432943 105 5
3.5915427 1.322854 -0.066807814 18 7
3.5795734 1.3042742 -0.87955862 64 1
3.6071506 1.3114707 -0.74606317 12 2
3.6115453 1.3109281 -0.6085301 12 3
3.6030424 1.3028603 -0.335201 61 5
3.6313176 1.3109351 -0.20233083 100 6
3.5922637 1.2805594 -0.88045847 28 1
3.612519 1.2849402 -0.74529999 65 2
3.6131632 1.2830389 -0.60727865 12 3
3.631609 1.2874479 -0.47309685 12 4
3.6214411 1.2809983 -0.33607253 14 5
3.6266356 1.2785646 -0.067121953 114 7
3.634382 1.264202 -0.7479713 57 2
3.6313636 1.2610213 -0.60884303 54 3
3.6311312 1.2588104 -0.47187814 12 4
3.6265302 1.2543821 -0.33572391 15 5
3.6266122 1.252285 -0.20107476 14 6
3.6316922 1.2519113 -0.067052148 75 7
3.6319664 1.2350081 -0.74568158 12 2
3.64569 1.2375454 -0.60978162 10 3
3.6435902 1.2347056 -0.47236562 63 4
3.640862 1.2309463 -0.33624685 16 5
3.6560831 1.2339599 -0.20222615 18 6
3.6442258 1.2108601 -0.74644482 10 2
3.6617403 1.2145511 -0.61103308 12 3
3.6615436 1.2123582 -0.47358429 12 4
3.6720681 1.2129992 -0.33833858 89 5
3.6589177 1.2065308 -0.20191215 12 6
3.6637948 1.1890253 -0.74873453 11 2
3.668251 1.1883489 -0.61072022 11 3
3.664252 1.1849339 -0.47285309 10 4
3.6614857 1.1812167 -0.33659548 13 5
3.6776209 1.1651989 -0.74987942 13 2
3.6689234 1.1603299 -0.60946876 11 3
3.6875784 1.1641062 -0.474803 10 4
3.6734436 1.1568228 -0.3369441 11 5
3.704423 1.145293 -0.75369561 92 2
3.686373 1.1375984 -0.61103308 22 3
3.6882257 1.1353527 -0.47382805 10 4
3.6890476 1.1334916 -0.33764133 11 5
3.7000937 1.1128989 -0.61197168 40 3
3.6998641 1.1107179 -0.47431552 63 4
3.6987801 1.1082797 -0.33781564 12 5
3.7286248 1.0931517 -0.61541325 9 3
3.7227705 1.0893189 -0.47626543 48 4
3.7161784 1.0845761 -0.33868721 61 5
3.7190704 1.0622137 -0.61259741 10 3
3.7283752 1.0627601 -0.47602168 13 4
3.7263956 1.0362236 -0.61259741 11 3
3.7452679 1.0393593 -0.47724038 11 4
3.7449796 1.013279 -0.61447465 93 3
3.7466831 1.0116348 -0.47650915 18 4
3.7500515 0.98660839 -0.61416179 66 3
3.7683315 0.9633379 -0.61603898 69 3
3.3943501 1.6938424 -0.33188906 87 5
3.4007268 1.6674711 -0.33136615 81 5
3.4361868 1.6581607 -0.46846578 10 4
3.4230552 1.6488767 -0.332412 20 5
3.4479642 1.6335294 -0.46846578 78 4
3.4416862 1.6283492 -0.33310926 19 5
3.4419231 1.6262562 -0.19950469 19 6
3.4538851 1.6069063 -0.46773461 104 4
3.472846 1.6135164 -0.33502665 123 5
3.466156 1.6074651 -0.20023739 25 6
3.4650195 1.5827545 -0.46773461 86 4
3.462549 1.5787054 -0.33293492 92 5
3.4536626 1.5724703 -0.19887665 70 6
3.4833894 1.5640346 -0.60477573 68 3
3.4796081 1.5601481 -0.46822205 86 4
3.4589374 1.5479828 -0.33154044 89 5
3.499202 1.563804 -0.20086543 90 6
3.492415 1.5388829 -0.6044628 93 3
3.5106699 1.5440029 -0.47090316 56 4
3.4933741 1.5342139 -0.33380648 101 5
3.5063765 1.5377308 -0.20065607 101 6
3.4997108 1.5122851 -0.60383707 76 3
3.5104282 1.5147357 -0.46944076 85 4
3.5113199 1.5129402 -0.33450374 57 5
3.5099509 1.509446 -0.20023739 101 6
3.5240111 1.4958537 -0.74415511 35 2
3.5138206 1.4893575 -0.6044628 78 3
3.5190895 1.4894177 -0.46919701 86 4
3.5128791 1.4838984 -0.33363217 105 5
3.505681 1.4786953 -0.19940001 64 6
3.5125754 1.4794375 -0.066528574 35 7
3.5234935 1.4666884 -0.7418654 15 2
3.5277812 1.4663064 -0.60508859 73 3
3.5294018 1.4648135 -0.46919701 81 4
3.5231533 1.4593377 -0.33363217 89 5
3.5491402 1.4679253 -0.20128411 104 6
3.5228181 1.454879 -0.066528574 70 7
3.5390995 1.444281 -0.74301028 25 2
3.5395415 1.4401395 -0.46919701 83 4
3.5258713 1.4317076 -0.33293492 92 5
3.5555999 1.4416111 -0.20107476 101 6
3.5514247 1.4377537 -0.066877626 108 7
3.5345135 1.4137055 -0.73995733 75 2
3.5460751 1.4161767 -0.60477573 17 3
3.5524411 1.4136894 -0.33450374 82 5
3.5674329 1.4174924 -0.20117943 105 6
3.56881 1.4158764 -0.067017242 116 7
