# .PCD v0.7 - Point Cloud Data file format
VERSION 0.7
FIELDS x y z intensity ring
SIZE 4 4 4 4 2
TYPE F F F F U
COUNT 1 1 1 1 1
WIDTH 135
HEIGHT 1
VIEWPOINT 0 0 0 1 0 0 0
POINTS 135
DATA ascii
3.2882757 0.71515757 -0.29441211 0 5
3.2054482 0.67374027 -0.28656808 42 5
3.1827371 0.64580041 -0.28412771 46 5
3.1536336 0.61929011 -0.39461297 5 4
3.1558831 0.6174441 -0.28133872 48 5
3.1423798 0.59375882 -0.39266306 4 4
3.1642265 0.59445584 -0.16873114 28 6
3.1190903 0.56852329 -0.50215465 7 3
3.1132455 0.56577396 -0.3885195 49 4
3.1151843 0.56444162 -0.27698094 61 5
3.1507094 0.56860548 -0.16778909 50 6
3.1209362 0.54805994 -0.61593145 1 2
3.0821221 0.53957909 -0.49558446 3 3
3.0838101 0.53599417 -0.27384335 49 5
3.0994999 0.53704947 -0.16485828 51 6
3.0607989 0.51549697 -0.60333806 57 2
3.0410073 0.51052648 -0.48838848 4 3
3.0581899 0.511765 -0.38071984 3 4
3.0697892 0.51150477 -0.27227452 6 5
3.0696793 0.50983334 -0.16307886 52 6
2.9990048 0.48573324 -0.70139736 23 1
3.0274968 0.48817933 -0.59608734 57 2
3.0308444 0.48709115 -0.48619837 43 3
3.0500128 0.48798627 -0.37925744 3 4
3.0496752 0.48629484 -0.27018279 5 5
3.0633016 0.48682314 -0.1625555 38 6
3.0496013 0.482465 -0.05389303 2 7
2.9773679 0.46038914 -0.69554865 3 1
3.0056064 0.46314454 -0.59112626 60 2
3.0186322 0.46299464 -0.48369545 51 3
3.0180237 0.46128413 -0.37487015 42 4
3.0136023 0.45899379 -0.26669657 5 5
3.0272126 0.45890322 -0.16046207 9 6
3.0489409 0.46056414 -0.053823221 18 7
2.9296074 0.4336518 -0.79353923 50 0
2.9612305 0.4367485 -0.69104964 3 1
2.9846537 0.43647835 -0.47775093 45 3
3.0133131 0.43905821 -0.37389517 21 4
3.0187814 0.43770307 -0.26687086 61 5
3.0125515 0.43518952 -0.15952002 35 6
3.0164542 0.43414113 -0.053194933 44 7
2.9172595 0.4110339 -0.78939813 43 0
2.9256105 0.41064849 -0.6820516 32 1
2.9671326 0.41436329 -0.58234906 61 2
2.9582801 0.41154808 -0.4730579 36 3
2.9946756 0.41501319 -0.37121406 4 4
2.9842629 0.41144705 -0.26355895 3 5
2.9977083 0.41170162 -0.15857796 50 6
3.005543 0.41117442 -0.052950602 59 7
2.9206798 0.3891829 -0.68025202 4 1
2.936867 0.38925487 -0.57586157 58 2
2.9336634 0.38726744 -0.4686777 50 3
2.9581363 0.38892239 -0.36633927 5 4
2.9712582 0.3885363 -0.26216447 5 5
2.9627292 0.38426602 -0.052147791 48 7
2.8748009 0.36419091 -0.77645719 6 0
2.9540677 0.37318659 0.051973268 29 8
2.8904579 0.36463687 -0.67260367 3 1
2.9219813 0.36654156 -0.57242703 12 2
2.9166944 0.36432734 -0.46554902 46 3
2.9233515 0.36360452 -0.36170825 46 4
2.9383061 0.36338323 -0.25902686 4 5
2.9139612 0.3588236 -0.15386772 4 6
2.8408277 0.33975476 -0.76662207 50 0
2.9268167 0.34900263 0.051449694 5 8
2.8697119 0.34168535 -0.6672048 4 1
2.8991237 0.34313354 -0.56746602 5 2
2.9034722 0.34210685 -0.46304604 47 3
2.9041908 0.34013614 -0.35902712 43 4
2.9091077 0.3391681 -0.25623786 39 5
2.9263153 0.33962145 -0.15439108 19 6
2.9241621 0.33730432 -0.051379886 48 7
2.8163095 0.31639811 -0.75937515 55 0
2.9073222 0.32610774 0.051065743 32 8
2.85078 0.31875938 -0.66225594 22 1
2.870229 0.31941262 -0.56136012 4 2
2.8926823 0.31833279 -0.35732093 47 4
2.8896189 0.31646448 -0.25432047 6 5
2.9088151 0.31651342 -0.15334436 24 6
2.8966246 0.31365111 -0.050856311 59 7
2.8011587 0.29490843 -0.75471634 49 0
2.8258018 0.2960071 -0.65595728 52 1
2.8529143 0.29683384 -0.55754393 6 2
2.8313882 0.29309577 -0.4508442 18 3
2.8672404 0.29478279 -0.3539086 48 4
2.8700068 0.29354876 -0.25240302 5 5
2.8672402 0.29174897 -0.15104158 4 6
2.8828783 0.29130837 -0.050577074 52 7
2.8084526 0.27388707 -0.65145826 52 1
2.8431923 0.2757723 -0.55525422 28 2
2.8314469 0.27263799 -0.4505313 54 3
2.8415639 0.27210933 -0.35049626 55 4
2.8521521 0.27161634 -0.25065991 6 5
2.843405 0.26878053 -0.14968085 4 6
2.8609507 0.26892784 -0.050158214 40 7
2.7723415 0.25230303 -0.74591655 8 0
2.8157623 0.25278664 -0.54952991 5 2
2.8177328 0.24949253 -0.34732765 53 4
2.8401296 0.24997705 -0.24943975 57 5
2.8193467 0.24666032 -0.14832011 6 6
2.7548249 0.23084497 -0.74074018 45 0
2.7712612 0.23076123 -0.64201027 57 1
2.778327 0.22988494 -0.54189759 4 2
2.7877676 0.22870678 -0.44302243 4 3
2.8075342 0.22884864 -0.34586522 48 4
2.8001018 0.22676708 -0.24577919 54 5
2.8051126 0.22520059 -0.14748274 34 6
2.759203 0.21037285 -0.638861 55 1
2.7622814 0.20866682 -0.538463 23 2
2.7755077 0.20820452 -0.44083238 4 3
2.7738349 0.20467162 -0.24333882 51 5
2.7217226 0.18841325 -0.62986296 49 1
2.7577953 0.18897606 -0.53731817 64 2
2.7571855 0.18748264 -0.43770367 4 3
2.7886696 0.18815675 -0.34318411 6 4
2.7054667 0.16831709 -0.62581384 48 1
2.7296536 0.16791032 -0.53159386 58 2
2.7387099 0.16702811 -0.43457499 61 3
2.7502856 0.16628882 -0.33830932 63 4
2.7485785 0.16425861 -0.24089848 29 5
2.7091961 0.14767297 -0.52739608 59 2
2.7358642 0.14768997 -0.43394926 6 3
2.7216458 0.14549334 -0.33465323 53 4
2.6705701 0.12874456 -0.6172657 3 1
2.6807454 0.12735812 -0.52167183 55 2
2.7111771 0.12738124 -0.42988196 4 3
2.7166464 0.12621275 -0.33392206 42 4
2.6577742 0.1095356 -0.61411637 37 1
2.675684 0.10840274 -0.52052695 58 2
2.6804192 0.10718893 -0.42487606 5 3
2.6312077 0.090045057 -0.60781777 25 1
2.6646028 0.089325637 -0.51823723 59 2
2.6554365 0.087626509 -0.42080876 47 3
2.6416106 0.070096098 -0.51365787 57 2
2.6145554 0.051115222 -0.50831515 59 2
