# .PCD v0.7 - Point Cloud Data file format
VERSION 0.7
FIELDS x y z intensity ring
SIZE 4 4 4 4 2
TYPE F F F F U
COUNT 1 1 1 1 1
WIDTH 1355
HEIGHT 1
VIEWPOINT 0 0 0 1 0 0 0
POINTS 1355
DATA ascii
8.5133066 12.331533 -1.3109967 10 5
9.3069038 13.476016 3.1834574 54 13
9.2128382 13.329873 -0.84920329 12 6
9.3460884 13.512583 3.7931249 42 14
9.1627951 13.242638 -0.28108847 55 7
12.328346 17.804403 5.8027234 2 15
2.5533624 3.6669743 -1.197297 5 0
9.4067326 13.499291 0.28719682 8 8
3.0144675 4.3243537 -1.2169852 5 1
9.4697504 13.574569 0.86741626 11 9
3.6513205 5.2301593 -1.2398769 4 2
9.3750353 13.423815 1.4324918 46 10
4.6056781 6.589829 -1.2733767 1 3
9.4797382 13.55357 2.0308311 8 11
7.406323 10.5852 -1.5862515 5 4
9.4279366 13.464493 2.6033826 43 12
8.6815109 12.389278 -1.3235471 9 5
9.4492073 13.479845 3.199867 61 13
9.3515558 13.330635 -0.85339022 12 6
9.4950686 13.525155 3.8151698 45 14
9.3090391 13.25526 -0.282729 60 7
12.433468 17.691025 5.7939234 2 15
2.5900502 3.6648355 -1.2024734 5 0
9.539999 13.488806 0.28838354 8 8
3.0468347 4.3063846 -1.217885 5 1
9.573514 13.521172 0.86825359 9 9
3.695693 5.2157526 -1.2425482 5 2
9.5261259 13.439317 1.4412074 42 10
4.6538601 6.5607352 -1.2740024 1 3
9.5787239 13.493531 2.031806 10 11
7.4363704 10.471729 -1.5769894 2 4
9.57549 13.474025 2.6180873 46 12
7.668498 10.782655 -1.1576025 5 5
9.5977154 13.490335 3.2181847 57 13
9.4930439 13.333358 -0.85778642 12 6
9.6310921 13.517262 3.8318162 44 14
9.4489384 13.256712 -0.28416011 56 7
12.569003 17.621098 5.7996173 1 15
2.605437 3.6325369 -1.1978146 4 0
9.6432638 13.43487 0.28866282 9 8
3.0790961 4.2881765 -1.2187848 5 1
9.7224541 13.530236 0.87317312 9 9
3.7366004 5.1962004 -1.2440747 5 2
9.6685839 13.440413 1.4485284 43 10
4.7087827 6.5409107 -1.2765055 1 3
9.7678423 13.558403 2.0517924 15 11
7.4744768 10.371246 -1.5696774 1 4
9.7236309 13.482148 2.6327922 42 12
8.644928 11.977674 -1.2923454 9 5
9.7410793 13.491446 3.2345943 61 13
9.6373663 13.33799 -0.86239195 12 6
9.7731848 13.516019 3.8507121 46 14
9.5857925 13.251993 -0.28548649 47 7
9.8370981 13.589421 4.4951692 7 15
2.6284597 3.6111352 -1.1967793 4 0
9.7780371 13.423789 0.28988448 8 8
3.1158438 4.2760253 -1.2214842 5 1
9.8131523 13.457186 0.87285918 11 9
3.7704711 5.1668153 -1.2433115 5 2
9.8138742 13.443386 1.4561981 26 10
4.7683148 6.5270181 -1.2802597 1 3
9.8727961 13.504308 2.0539861 36 11
7.5297461 10.291861 -1.5657774 1 4
9.8665123 13.480892 2.6459329 48 12
9.753747 13.317047 -1.4441707 33 5
9.8988848 13.505317 3.2548199 63 13
9.7739439 13.329977 -0.86626482 30 6
9.9157276 13.513452 3.8696082 43 14
9.7324467 13.253983 -0.28702229 30 7
9.9134321 13.495503 4.486887 34 15
2.6634173 3.6046636 -1.2009205 4 0
9.8049517 13.265145 0.2879298 37 8
3.1509981 4.2598863 -1.2232838 5 1
9.8367062 13.288702 0.86647421 48 9
3.8192997 5.1577239 -1.2475092 6 2
9.8374548 13.275174 1.4455651 31 10
4.8172526 6.4959035 -1.2808856 1 3
9.8805027 13.318666 2.0361931 40 11
7.6037793 10.242229 -1.5662649 1 4
9.8802624 13.298945 2.624032 41 12
9.7466478 13.114304 -1.4295285 32 5
9.8991909 13.30986 3.2242906 43 13
9.7903757 13.153952 -0.85935646 32 6
9.9248638 13.329799 3.8367653 36 14
9.8008499 13.153639 -0.28632417 47 7
9.9219856 13.306517 4.4475465 49 15
2.6838825 3.5797992 -1.1988499 4 0
9.809617 13.074677 0.28531197 41 8
3.1783214 4.2346678 -1.2223841 5 1
9.8500805 13.114301 0.85956585 48 9
3.8631871 5.1396775 -1.249799 4 2
9.8472805 13.096288 1.4335376 31 10
4.860106 6.4589596 -1.2802597 1 3
9.8824081 13.123935 2.0171814 42 11
7.6774826 10.19207 -1.5667524 1 4
9.8896303 13.119226 2.6021311 40 12
9.7646494 12.944016 -1.4185469 43 5
9.9008102 13.119761 3.194906 52 13
9.7820673 12.952995 -0.85066879 40 6
9.9283485 13.137171 3.8016729 37 14
9.8032007 12.966856 -0.28374124 51 7
9.9272156 13.121384 4.4087238 49 15
2.7205031 3.5763519 -1.2040263 6 0
9.8594666 12.95178 0.28412518 59 8
3.2101669 4.2154775 -1.2232838 5 1
9.8857012 12.972145 0.85475093 60 9
3.9001653 5.1141438 -1.2501806 4 2
9.9179201 13.000299 1.4305744 51 10
4.9050803 6.4248724 -1.2802597 1 3
9.9424629 13.013606 2.0108442 54 11
7.7291622 10.112987 -1.5628526 1 4
9.9701853 13.035738 2.5993154 45 12
9.8717241 12.897685 -1.4209872 36 5
9.9814253 13.036286 3.1914716 61 13
9.9135523 12.938294 -0.85422754 60 6
10.007964 13.052073 3.797174 43 14
9.9409466 12.959986 -0.28510252 43 7
10.015049 13.04716 4.4071708 57 15
2.7454062 3.5572705 -1.2040263 4 0
9.9814272 12.92378 0.28503269 56 8
3.2371373 4.189878 -1.2223841 5 1
9.9967928 12.929675 0.85653037 21 9
3.9429822 5.096107 -1.2524703 4 2
10.021852 12.948072 1.4324918 10 10
4.9522343 6.3935952 -1.2808856 1 3
7.7874126 10.043095 -1.5604153 1 4
10.015896 12.884539 -0.85527432 96 6
10.05206 12.917098 -0.28569591 58 7
2.7511184 3.5136802 -1.195744 4 0
10.15651 12.962394 0.28744113 53 8
3.2735221 4.1763787 -1.2250834 5 1
10.1731 12.969573 0.86385739 63 9
3.984525 5.0761776 -1.2543784 4 2
10.203058 12.993752 1.4453908 42 10
5.0284824 6.3992505 -1.2890202 1 3
10.237304 13.018644 2.0335121 41 11
7.852427 9.9822426 -1.5594403 1 4
10.392365 13.192126 -1.4692715 42 5
10.275475 13.039062 3.2269619 52 13
10.251541 12.999355 -0.86762559 22 6
10.443092 13.228002 -0.29417777 13 7
10.306419 13.045515 4.4547935 34 15
2.7875965 3.5095153 -1.2009205 4 0
10.644924 13.392108 0.29861069 8 8
3.3098762 4.1625752 -1.2277828 5 1
10.683725 13.426486 0.8992365 16 9
4.0186434 5.046701 -1.2539968 5 2
10.711861 13.447388 1.5041338 8 10
5.0754981 6.3670783 -1.2896459 1 3
10.771234 13.507392 2.1212578 10 11
7.926878 9.9333858 -1.5604153 1 4
10.774738 13.492454 2.7347875 46 12
10.663481 13.348354 -1.4947211 34 5
10.801449 13.511389 3.3624365 49 13
10.680166 13.35012 -0.89599168 10 6
10.851598 13.559556 4.0095277 39 14
10.71769 13.382656 -0.29927388 18 7
2.8150561 3.4949729 -1.2024734 5 0
10.803606 13.403407 0.30049554 12 8
3.3307941 4.130847 -1.2250834 5 1
10.845112 13.440493 0.90509808 11 9
4.0751004 5.0467257 -1.2608659 4 2
10.865752 13.451654 1.5128495 12 10
5.1087818 6.3200951 -1.287143 1 3
10.904116 13.484699 2.1293013 9 11
7.9843149 9.8668575 -1.5584654 1 4
10.934702 13.503233 2.7519956 46 12
10.830587 13.369904 -1.505354 42 5
10.962402 13.522957 3.3838069 60 13
10.83622 13.357768 -0.9014346 12 6
11.000129 13.554981 4.0302229 41 14
10.874088 13.390113 -0.30108893 17 7
11.031207 13.578742 4.6877308 4 15
2.8424451 3.4802206 -1.2040263 4 0
10.967982 13.419369 0.30252004 12 8
3.3588326 4.1080809 -1.2250834 5 1
10.991988 13.434378 0.90970361 11 9
4.105629 5.0143113 -1.259721 3 2
11.02884 13.460235 1.5224365 12 10
5.1667132 6.3035054 -1.2908974 1 3
11.057155 13.480389 2.1407571 17 11
8.0303373 9.7832527 -1.554078 1 4
11.095302 13.512462 2.7692034 46 12
11.127619 13.532532 3.4055593 55 13
10.99012 13.355824 -0.90645891 10 6
11.099447 13.483876 4.032023 21 14
11.03341 13.394135 -0.30290398 17 7
11.207964 13.596349 4.7213774 6 15
2.8783705 3.4731781 -1.2086849 6 0
11.125002 13.414422 0.30419543 12 8
3.3856552 4.0809412 -1.2241837 5 1
11.14908 13.42914 0.91472793 11 9
4.1451693 4.9893341 -1.2608659 5 2
11.188565 13.457573 1.531152 8 10
5.2268448 6.284596 -1.2946517 1 3
11.226988 13.489415 2.1548939 15 11
8.0950537 9.7194414 -1.553103 1 4
11.259993 13.514673 2.7860982 46 12
11.155037 13.37919 -1.5240052 33 5
11.297119 13.53999 3.4276929 62 13
11.157095 13.362694 -0.91232049 10 6
11.234377 13.450469 4.0459695 38 14
11.194378 13.393089 -0.3046841 18 7
13.874337 16.587637 5.7944407 1 15
2.8894737 3.4362278 -1.202991 6 0
11.296672 13.424743 0.30625483 16 8
3.4298303 4.0744996 -1.2295824 5 1
11.316949 13.434555 0.92058951 11 9
4.1921544 4.9730539 -1.2643005 3 2
11.345179 13.453766 1.5396932 10 10
5.2818751 6.2591109 -1.2971548 1 3
11.400073 13.49973 2.1695182 11 11
8.1319704 9.6262922 -1.5472534 1 4
11.420177 13.509182 2.8017418 46 12
11.458582 13.540226 3.4479189 52 13
11.315938 13.362207 -0.91765875 12 6
11.417272 13.472314 4.077013 45 14
11.349677 13.387827 -0.30635956 12 7
13.977306 16.475643 5.7892647 1 15
2.9296896 3.4350798 -1.2097203 6 0
11.452431 13.41856 0.30793026 18 8
3.4607229 4.0534196 -1.2304822 6 1
11.488307 13.446332 0.92686987 16 9
4.22932 4.9466524 -1.2650636 3 2
11.502283 13.448427 1.5482345 10 10
5.3254404 6.2220864 -1.2971548 2 3
11.568939 13.507259 2.183655 9 11
8.1989727 9.5692902 -1.5472534 1 4
11.5965 13.525099 2.8217652 47 12
11.470206 13.368341 -1.5410879 36 5
11.621881 13.540347 3.4685261 58 13
11.498749 13.387419 -0.9248811 14 6
11.596157 13.491295 4.1071563 41 14
11.510666 13.387106 -0.30817461 11 7
14.086947 16.371803 5.7871938 1 15
2.9498081 3.4101598 -1.2081673 6 0
11.619122 13.422949 0.30988494 21 8
3.4940393 4.0350533 -1.2322818 6 1
11.659069 13.454855 0.93304551 19 9
4.2663231 4.9199719 -1.2658269 4 2
11.679183 13.459072 1.5590419 12 10
5.3739281 6.1907229 -1.2984062 1 3
11.730651 13.504092 2.1963296 17 11
8.2568188 9.4983883 -1.5453033 1 4
11.761932 13.525793 2.838973 50 12
11.788096 13.536785 3.4891336 52 13
11.649364 13.368034 -0.9292773 10 6
11.757922 13.487868 4.131001 42 14
11.686354 13.396315 -0.31030378 10 7
14.210093 16.277857 5.789782 1 15
2.9856033 3.4020321 -1.2128261 5 0
11.787446 13.422107 0.31180471 15 8
3.5163937 4.0026274 -1.2300324 5 1
11.82758 13.453582 0.93880254 13 9
4.3092012 4.8981609 -1.2681167 4 2
11.859455 13.470861 1.5701978 10 10
5.4363675 6.1728635 -1.3027864 1 3
11.900482 13.503202 2.2099788 11 11
8.2930689 9.403326 -1.5394537 1 4
11.940752 13.534602 2.8586836 47 12
11.023783 12.486438 -1.457244 2 5
11.967854 13.546248 3.5135572 54 13
11.826738 13.37711 -0.93576699 10 6
12.019388 13.590233 4.1885886 18 14
11.865403 13.406692 -0.31250277 11 7
12.073212 13.631888 4.8792567 5 15
3.0150099 3.3863521 -1.2148967 6 0
11.961675 13.425502 0.31386408 13 8
3.5488353 3.9817264 -1.2313821 5 1
11.994002 13.447604 0.94435006 13 9
4.3389125 4.861341 -1.2665902 4 2
12.040489 13.480755 1.5813538 10 10
5.498827 6.1544266 -1.3071665 1 3
12.0709 13.500569 2.223628 9 11
8.3416147 9.3230305 -1.5360414 1 4
12.108438 13.528294 2.8755786 47 12
11.809399 13.184912 -1.5485833 10 5
12.148345 13.553827 3.5379808 52 13
11.988839 13.366477 -0.94100064 12 6
12.021155 13.388398 -0.3140735 10 7
14.439012 16.06995 5.7887468 1 15
3.018446 3.3417523 -1.2066144 5 0
12.143258 13.434507 0.316098 12 8
3.5850787 3.9649022 -1.2340814 5 1
12.174346 13.454734 0.95094436 13 9
4.3801765 4.8374448 -1.2684983 6 2
12.200862 13.465119 1.5897208 10 10
5.5546656 6.1280923 -1.3099824 2 3
12.252555 13.507948 2.2392275 9 11
8.4187794 9.2748671 -1.5379913 1 4
12.287266 13.531973 2.8949766 45 12
10.98294 12.087049 -1.4288312 1 5
12.333515 13.563869 3.563549 52 13
12.174239 13.379318 -0.9480136 14 6
16.53496 18.165319 5.6710162 1 14
12.205529 13.399605 -0.31637722 10 7
14.54843 15.960505 5.7866764 1 15
3.0385118 3.3182809 -1.2055792 5 0
12.310083 13.434095 0.31805265 12 8
3.6146159 3.9432821 -1.2349813 5 1
12.357463 13.471635 0.95806217 14 9
4.4209666 4.8161974 -1.270788 5 2
12.380184 13.482227 1.6013995 12 10
5.5975833 6.091598 -1.3102952 1 3
12.428866 13.516292 2.2545829 17 11
8.4344149 9.1691532 -1.5297042 1 4
12.468728 13.545398 2.9159389 46 12
11.132459 12.085276 -1.4375468 8 5
12.496375 13.561178 3.584538 56 13
12.353422 13.396657 -0.95502663 12 6
16.668797 18.063807 5.6746154 1 14
12.376868 13.40799 -0.31850642 11 7
14.635606 15.843804 5.7794299 1 15
3.0800095 3.3168046 -1.2128261 5 0
12.483877 13.434261 0.32011205 12 8
3.6367519 3.9122403 -1.2331817 5 1
12.540987 13.481557 0.96497047 14 9
4.4598327 4.7909641 -1.2723144 5 2
12.556825 13.484417 1.6120325 10 10
5.6426678 6.0552616 -1.310921 2 3
12.610925 13.52356 2.270426 8 11
8.4575987 9.0664997 -1.5223919 1 4
12.647908 13.54899 2.9356494 47 12
11.869395 12.70612 -1.5212163 6 5
12.673853 13.56254 3.6081984 58 13
12.517585 13.385945 -0.9604696 10 6
16.813141 17.966917 5.6809139 1 14
12.553535 13.41031 -0.32063562 10 7
14.774915 15.77226 5.7908173 1 15
3.1044126 3.296629 -1.2133437 6 0
12.670618 13.445742 0.32248557 13 8
3.6719944 3.8952658 -1.2358811 6 1
12.710179 13.47358 0.97072738 16 9
4.4972162 4.7639923 -1.2734593 4 2
12.736839 13.487688 1.6230143 8 10
5.6970177 6.0286398 -1.3137368 2 3
12.780047 13.514518 2.2838318 9 11
8.4961376 8.9812717 -1.5180047 1 4
12.83182 13.555041 2.9562988 47 12
11.901628 12.56365 -1.5140696 12 5
12.864107 13.574907 3.635293 52 13
12.7083 13.401131 -0.96790129 12 6
12.942061 13.638087 4.3406558 3 14
12.748722 13.429668 -0.32321855 10 7
12.960717 13.643432 5.0423126 2 15
3.1340232 3.2818618 -1.215932 5 0
12.860887 13.458154 0.32492888 12 8
3.6990991 3.8695352 -1.2358811 5 1
12.897815 13.482657 0.97784507 16 9
4.5344386 4.7367344 -1.2746042 6 2
12.929908 13.502046 1.6355647 8 10
5.740334 5.9901471 -1.3140497 1 3
12.975751 13.530995 2.3018682 32 11
8.542141 8.9045486 -1.5150797 1 4
13.024628 13.567738 2.9788256 50 12
11.660548 12.138283 -1.4725833 8 5
13.04834 13.578201 3.6604798 52 13
12.873544 13.386939 -0.97334427 12 6
13.120735 13.634459 4.3685493 2 14
12.922614 13.42389 -0.32524306 10 7
13.134727 13.634703 5.0728536 5 15
3.1514821 3.2543504 -1.2138613 6 0
13.05334 13.469994 0.32740712 19 8
3.7314489 3.8492131 -1.2376807 5 1
13.076465 13.479727 0.9842301 11 9
4.5550871 4.6922865 -1.2711695 4 2
13.109918 13.500062 1.646372 11 10
5.7930231 5.9612613 -1.3165526 1 3
13.170926 13.543967 2.3196611 51 11
8.5985575 8.8390093 -1.5141048 1 4
13.196194 13.555743 2.9963462 49 12
12.050866 12.370556 -1.5109318 5 5
13.23873 13.585201 3.6871934 49 13
13.072664 13.40541 -0.98129922 12 6
13.297258 13.626217 4.3955436 2 14
13.099826 13.419201 -0.32733732 10 7
13.321385 13.636649 5.1080527 5 15
3.1781847 3.2364066 -1.2154143 6 0
13.228349 13.461267 0.32943162 17 8
3.7609606 3.82585 -1.2385805 5 1
13.273893 13.493476 0.99197578 11 9
4.6083937 4.6813583 -1.2768939 5 2
13.293311 13.49907 1.6575279 11 10
5.8344998 5.9206729 -1.3165526 2 3
13.359947 13.547794 2.3362355 43 11
8.6516924 8.7702856 -1.5126424 1 4
13.394597 13.568714 3.0198112 47 12
12.132729 12.281877 -1.5104089 6 5
13.432612 13.592982 3.7146697 49 13
13.265636 13.414656 -0.98873097 14 6
13.496238 13.638324 4.4297361 2 14
13.29729 13.432591 -0.32992029 10 7
13.508714 13.636644 5.1432524 4 15
3.2102451 3.2237203 -1.2190377 5 0
13.422222 13.469158 0.33190987 14 8
3.7875803 3.7994986 -1.2385805 5 1
13.472154 13.505115 0.99972153 13 9
4.65206 4.6601868 -1.2799468 6 2
13.487186 13.506034 1.6699041 7 10
5.8756914 5.8797965 -1.3165526 1 3
13.551049 13.551054 2.3530533 45 11
8.6986704 8.6956367 -1.510205 1 4
13.589614 13.575395 3.0423379 48 12
12.058839 12.037815 -1.4907117 3 5
13.621674 13.59318 3.7406197 52 13
13.448062 13.410567 -0.99532533 14 6
13.716743 13.66894 4.4706774 5 14
13.494163 13.442455 -0.33246836 11 7
13.730921 13.668746 5.1913924 7 15
3.2258096 3.1944337 -1.2164496 6 0
13.609737 13.467958 0.33421358 11 8
3.8084722 3.7674816 -1.2367809 5 1
13.658431 13.501997 1.0065252 19 9
4.6942573 4.6372538 -1.282618 6 2
13.688887 13.517941 1.6831516 7 10
5.9390931 5.8608327 -1.3215585 1 3
13.742852 13.552296 2.3698714 42 11
8.7280636 8.6040382 -1.5048428 1 4
13.788193 13.582775 3.06549 46 12
12.230617 12.039995 -1.5015191 5 5
13.819793 13.599654 3.7688594 48 13
13.632498 13.405981 -1.0020244 14 6
17.439573 17.137825 5.6449218 1 14
13.683256 13.441811 -0.33480695 10 7
15.405884 15.123478 5.7846055 1 15
3.2507963 3.1745348 -1.2174848 9 0
13.819348 13.485747 0.33704087 11 8
3.8458407 3.7516885 -1.2403802 5 1
13.858187 13.509491 1.0142709 13 9
4.725111 4.6029987 -1.2822365 5 2
13.901394 13.537423 1.6976196 12 10
5.985528 5.824738 -1.3228099 1 3
13.945289 13.561201 2.3883955 42 11
8.7566051 8.512454 -1.4994806 1 4
13.983281 13.58391 3.0877039 49 12
12.533099 12.166646 -1.5281887 3 5
14.021477 13.606753 3.7978625 49 13
13.837592 13.418933 -1.0101887 16 6
13.884486 13.450309 -0.33742484 11 7
15.488882 14.994058 5.7763238 1 15
3.2728777 3.1517639 -1.2174848 40 0
14.021233 13.492931 0.33965877 11 8
3.8775547 3.7301538 -1.2421798 5 1
14.060158 13.516217 1.0221213 11 9
4.7727046 4.5848603 -1.2864343 4 2
14.091855 13.5325 1.7092985 8 10
6.0345984 5.7910161 -1.3246872 1 3
14.148506 13.567942 2.4069197 43 11
8.7928915 8.4291344 -1.4955807 1 4
14.1819 13.585719 3.1105433 43 12
12.611977 12.073341 -1.5274916 10 5
14.231013 13.618486 3.8287737 52 13
14.044971 13.43105 -1.0184578 14 6
17.648977 16.865732 5.6359239 3 14
14.082157 13.452502 -0.33993798 12 7
15.587594 14.880224 5.7742534 2 15
3.2962027 3.1301687 -1.2180026 41 0
14.226781 13.500706 0.3423464 11 8
3.9091566 3.7083569 -1.2439793 4 1
14.270134 13.527655 1.030495 11 9
4.7946177 4.5419798 -1.2837629 6 2
14.298827 13.540647 1.7228948 7 10
6.0777464 5.7514639 -1.3253129 2 3
14.358275 13.577945 2.426419 42 11
8.8097 8.3250952 -1.4882686 1 4
14.397027 13.600318 3.1368241 50 12
12.564115 11.86054 -1.5116292 5 5
14.423781 13.606564 3.854342 53 13
14.250283 13.438182 -1.0265175 16 6
14.680197 13.833932 4.6569366 6 14
14.291613 13.45832 -0.34266055 12 7
14.671275 13.811028 5.3989654 2 15
3.3227482 3.110462 -1.2195554 47 0
14.425806 13.499437 0.34485954 11 8
3.9298995 3.6749647 -1.2421798 5 1
14.48623 13.537012 1.0390781 11 9
4.8405561 4.5217981 -1.2875792 6 2
14.520606 13.554901 1.7378855 8 10
6.1389699 5.7266893 -1.3296931 1 3
14.560151 13.577557 2.4444554 45 11
8.8646965 8.2606859 -1.487781 1 4
14.608181 13.603306 3.161541 47 12
12.971811 12.075274 -1.5505006 8 5
14.631989 13.611166 3.8844898 54 13
14.458717 13.440572 -1.0345774 14 6
14.512705 13.4766 -0.34569725 13 7
14.711669 13.651813 5.3777428 38 15
3.3528996 3.0950515 -1.2226613 46 0
14.564663 13.435184 0.34587181 43 8
3.9583271 3.6500795 -1.2430795 4 1
14.600941 13.454506 1.0405437 50 9
4.8814549 4.4950237 -1.2898688 6 2
14.626606 13.464002 1.73928 37 10
6.1802545 5.6850295 -1.330006 2 3
14.654015 13.470333 2.4439681 46 11
8.8929176 8.1717348 -1.4829062 1 4
14.664969 13.466244 3.1534064 56 12
13.140095 12.057574 -1.5602621 10 5
14.686147 13.471523 3.8738043 54 13
14.540414 13.328514 -1.0337399 48 6
14.720538 13.484173 4.6087971 45 14
14.562185 13.334448 -0.34465012 42 7
14.728231 13.477046 5.3492723 58 15
3.3801396 3.0767698 -1.2247318 46 0
14.581182 13.263206 0.34405673 55 8
3.9865947 3.62498 -1.2439793 5 1
14.605825 13.271655 1.0342633 65 9
4.9069033 4.4555559 -1.2883424 5 2
14.633204 13.282553 1.7289956 32 10
6.2344241 5.6550159 -1.3331347 2 3
14.663856 13.291716 2.4300749 45 11
8.9291592 8.0907869 -1.479494 1 4
14.666368 13.280012 3.1336956 55 12
13.336233 12.067142 -1.5735097 9 5
14.692472 13.289656 3.8509073 60 13
14.54569 13.14766 -1.0275643 48 6
14.71743 13.293551 4.5786533 47 14
14.559934 13.146691 -0.34241623 55 7
14.740211 13.30012 5.319767 62 15
3.3957868 3.0479355 -1.2226613 46 0
14.598989 13.094326 0.3423115 61 8
4.0292158 3.6126714 -1.2493782 4 1
14.625235 13.104057 1.0291344 74 9
4.9495902 4.4316678 -1.2913953 5 2
14.637986 13.101672 1.7187113 41 10
6.2840581 5.6205721 -1.3353248 2 3
14.68821 13.128167 2.4188631 49 11
8.9617376 8.0070944 -1.4755942 1 4
14.714516 13.137829 3.1243093 53 12
13.464752 12.013535 -1.578739 11 5
14.751195 13.156704 3.8421302 52 13
14.60134 13.013899 -1.0250521 48 6
14.793871 13.176223 4.5737047 43 14
14.615522 13.012802 -0.34157848 52 7
14.821157 13.186617 5.3156257 56 15
3.4198756 3.0267148 -1.2236965 39 0
14.84882 13.132521 0.3460114 63 8
4.0572586 3.5870352 -1.2502779 4 1
14.881001 13.147102 1.0406482 71 9
4.9995418 4.4138966 -1.2963563 4 2
14.896403 13.146818 1.738234 37 10
6.3172183 5.5713382 -1.3340733 1 3
14.941833 13.168368 2.4454305 57 11
8.9846506 7.9154649 -1.4702318 1 4
14.945248 13.157481 3.1537194 60 12
13.61412 11.97714 -1.5864089 9 5
14.970945 13.166198 3.8753309 62 13
14.84637 13.04744 -1.0358334 66 6
15.014345 13.185789 4.6132965 49 14
14.854786 13.041058 -0.34503406 63 7
15.03048 13.186027 5.3575544 53 15
3.4540215 3.0141993 -1.2283553 14 0
4.0880761 3.5637472 -1.2520776 4 1
5.0228305 4.3724403 -1.2944483 5 2
6.3649025 5.5348759 -1.3359504 2 3
15.640244 13.591081 2.5441446 40 11
9.0306997 7.8447366 -1.4687696 1 4
15.709507 13.636839 3.2948229 43 12
13.965298 12.114199 -1.6174362 14 5
15.629108 13.55268 4.0211091 46 13
15.766505 13.638126 5.5858326 50 15
3.4749806 2.9900122 -1.2283553 6 0
15.960212 13.7231 0.36740807 3 8
4.106946 3.5300369 -1.2502779 5 1
15.781279 13.554883 1.0902628 9 9
5.0696187 4.351336 -1.2986461 6 2
15.910159 13.651113 1.8341054 9 10
6.4093843 5.4954529 -1.337202 1 3
15.856856 13.586169 2.5638874 41 11
9.0701666 7.7685905 -1.4663321 1 4
15.930398 13.634724 3.321104 43 12
14.163087 12.113532 -1.6305095 16 5
15.734709 13.443464 -1.0846105 6 6
16.050642 13.703716 4.8724399 2 14
15.797453 13.482769 -0.36252138 2 7
16.003912 13.649324 5.6360435 53 15
3.4987173 2.9681771 -1.2293905 6 0
16.247812 13.774282 0.37180606 3 8
4.1374373 3.506319 -1.2520776 4 1
16.003548 13.552809 1.0990553 26 9
5.0893831 4.3069592 -1.2959747 6 2
16.11611 13.63365 1.8468301 6 10
6.4596615 5.4607749 -1.3397049 1 3
16.09083 13.592992 2.5863113 44 11
9.1029501 7.6871438 -1.4629197 1 4
16.165596 13.641654 3.3502009 41 12
14.133073 11.918036 -1.6174362 17 5
19.050117 16.058744 4.8431144 1 13
15.968712 13.45167 -1.0942403 8 6
18.810081 15.833951 5.676415 1 14
16.024311 13.484169 -0.36555812 2 7
16.239277 13.655379 5.6852193 49 15
3.5223162 2.9461598 -1.2304258 5 0
16.4249 13.728485 0.37365603 18 8
4.1707859 3.4848473 -1.254777 4 1
16.237288 13.557239 1.1085804 49 9
5.1268668 4.2776103 -1.2978829 6 2
16.415924 13.69181 1.8701879 10 10
6.5097704 5.4256601 -1.3422079 1 3
16.333288 13.603563 2.6099541 41 11
9.1289349 7.600544 -1.4585325 1 4
16.406221 13.649753 3.3802364 45 12
14.554515 12.100575 -1.655959 15 5
19.050034 15.8325 4.8148746 1 13
16.202044 13.455985 -1.1037654 6 6
16.613815 13.788158 4.9844656 1 14
16.255028 13.485603 -0.36866462 2 7
16.468065 13.652642 5.7318072 50 15
3.5532317 2.9301012 -1.2340492 6 0
16.44935 13.554984 0.3720504 13 8
4.2040381 3.4630792 -1.2574763 5 1
16.474947 13.561599 1.1183149 45 9
5.1611514 4.2454576 -1.2990277 5 2
16.500345 13.568006 1.8689677 9 10
6.5596991 5.3901134 -1.3447108 2 3
16.590481 13.622735 2.6357903 40 11
9.1971188 7.5492215 -1.4609698 1 4
16.653837 13.660166 3.4115231 45 12
14.61245 11.977195 -1.6529958 8 5
16.760715 13.733159 4.2119179 1 13
16.454765 13.472865 -1.1145467 6 6
16.822786 13.764387 5.018208 3 14
16.483446 13.481937 -0.37170133 8 7
16.70059 13.649815 5.7794299 44 15
3.5855932 2.9149725 -1.2381904 9 0
16.642916 13.520514 0.37428433 16 8
4.2190361 3.4262741 -1.254777 5 1
16.725864 13.573356 1.1288867 42 9
5.1937141 4.2117958 -1.299791 5 2
16.755629 13.582965 1.887096 10 10
6.5879574 5.3367295 -1.3428336 1 3
16.825588 13.620239 2.6579707 37 11
9.2403345 7.4773412 -1.4595075 1 4
16.908543 13.672743 3.4440615 45 12
14.904917 12.043939 -1.6765277 19 5
19.431122 15.69574 4.8553257 2 13
16.699177 13.479345 -1.1246998 6 6
17.129299 13.816677 5.0807443 1 14
16.731279 13.490797 -0.37515691 10 7
16.971472 13.674711 5.839993 48 15
3.6088693 2.8922873 -1.2392256 12 0
16.88674 13.523994 0.37763515 16 8
4.2458973 3.3991699 -1.2556767 4 1
16.962133 13.569803 1.1384119 40 9
5.227592 4.179112 -1.3009357 6 2
17.001017 13.586318 1.9040043 9 10
6.6312284 5.2955375 -1.344085 2 3
17.064569 13.617585 2.6806383 38 11
9.2488604 7.3779879 -1.4526827 1 4
17.154968 13.675027 3.4747229 39 12
15.214598 12.119596 -1.701803 8 5
19.566336 15.580493 4.8618135 2 13
16.935085 13.47561 -1.1342249 10 6
17.441935 13.86898 5.1446304 2 14
16.983156 13.499346 -0.37868235 9 7
17.228388 13.684462 5.8953805 46 15
3.6350381 2.8718107 -1.2412962 18 0
17.147114 13.537117 0.38133508 9 8
4.2817607 3.3791051 -1.2592759 4 1
17.214849 13.575967 1.1489837 42 9
5.2458444 4.1340108 -1.2982645 5 2
17.266045 13.601686 1.9230043 9 10
6.6866593 5.2637787 -1.3478395 2 3
17.335522 13.636816 2.7081807 35 11
9.2876635 7.3034172 -1.4507327 1 4
17.417761 13.686753 3.5085127 41 12
15.392859 12.086912 -1.7122618 34 5
19.568064 15.359881 4.8354816 2 13
17.171755 13.469223 -1.1437501 6 6
17.682512 13.859871 5.1869211 1 14
17.224947 13.496386 -0.38196337 9 7
17.49387 13.697229 5.9533558 54 15
3.6341541 2.8291116 -1.2340492 15 0
17.414009 13.546677 0.38510481 9 8
4.308908 3.3507719 -1.2601758 5 1
17.475573 13.579886 1.1598696 45 9
5.2876992 4.1059971 -1.3013173 6 2
17.518747 13.598734 1.9402611 11 10
6.7553749 5.2400069 -1.3540969 1 3
17.606815 13.647407 2.7352357 42 11
9.3346701 7.2302818 -1.4497578 1 4
17.677694 13.687536 3.5410511 41 12
15.55617 12.036195 -1.720803 19 5
17.755762 13.728168 4.3626571 2 13
17.460493 13.495009 -1.1565201 6 6
17.799744 13.747277 5.1923203 2 14
17.494387 13.501707 -0.3857331 12 7
17.739805 13.686161 6.0035667 51 15
3.6573701 2.805387 -1.2350845 15 0
17.670019 13.548885 0.38866508 13 8
4.3358679 3.3222249 -1.2610756 4 1
17.748323 13.589262 1.1714882 43 9
5.3209128 4.0725613 -1.3024622 6 2
17.770702 13.591643 1.9573436 6 10
6.8021154 5.19873 -1.3559741 1 3
17.878332 13.659132 2.7625346 42 11
9.3328505 7.125185 -1.4417145 2 4
17.952656 13.696078 3.5764053 33 12
15.788739 12.040869 -1.7371882 15 5
18.016689 13.730014 4.4031086 3 13
17.713924 13.489513 -1.1668826 4 6
18.082899 13.76551 5.2467585 3 14
17.756924 13.507576 -0.389433 10 7
18.015684 13.694488 6.0636129 46 15
3.6799493 2.7821138 -1.2361197 16 0
17.932459 13.547456 0.39229518 3 8
4.3527365 3.2871737 -1.2592759 4 1
18.0261 13.603381 1.1835254 60 9
5.3561873 4.0391126 -1.3039887 6 2
18.0163 13.581186 1.9739032 13 10
6.8413973 5.1534958 -1.3565999 1 3
18.142145 13.656199 2.7881269 37 11
9.3633289 7.0455384 -1.4387896 21 4
18.226246 13.704561 3.6117594 28 12
15.941399 11.977846 -1.7445093 13 5
18.30048 13.745386 4.4489031 3 13
17.973795 13.490204 -1.1777685 4 6
18.38361 13.787762 5.3052459 3 14
18.133986 13.5956 -0.39561117 6 7
18.299471 13.709694 6.1267648 42 15
3.7178721 2.7702062 -1.2423315 16 0
18.259165 13.595105 0.39735639 4 8
4.3818326 3.2613602 -1.2610756 5 1
18.292103 13.604749 1.1947253 39 9
5.3874087 4.0039606 -1.304752 6 2
18.033901 13.398052 1.9655364 13 10
6.8867269 5.1126695 -1.358477 1 3
18.418789 13.664042 2.8159132 38 11
9.3963461 6.9681683 -1.4363521 25 4
18.508755 13.715764 3.6486778 28 12
16.250391 12.03345 -1.7690872 11 5
18.563259 13.741104 4.4893546 3 13
18.234526 13.487928 -1.1886544 6 6
18.626726 13.767966 5.3475366 2 14
18.405365 13.599396 -0.39945066 3 7
18.589005 13.72504 6.1914692 40 15
3.7480199 2.7521887 -1.2459549 15 0
18.601915 13.649484 0.40273172 4 8
4.410778 3.2353022 -1.2628752 5 1
18.563833 13.606592 1.2062392 46 9
5.4183979 3.9685717 -1.3055153 6 2
18.133429 13.276533 1.9662335 9 10
6.9621091 5.0936265 -1.3662988 2 3
18.709234 13.678062 2.8456492 36 11
9.4768181 6.9258265 -1.441227 7 4
18.787508 13.720199 3.6846578 25 12
16.437014 11.994866 -1.7802432 12 5
18.914091 13.797462 4.5507946 1 13
18.515469 13.496762 -1.2007962 4 6
18.969692 13.817728 5.4181709 1 14
18.68092 13.602396 -0.40336004 4 7
18.879635 13.737006 6.2561741 43 15
3.7687075 2.7270882 -1.2464726 12 0
18.818295 13.607156 0.40534961 4 8
4.4395747 3.2089968 -1.2646748 4 1
18.852671 13.616987 1.2187999 44 9
5.4475617 3.9317989 -1.3058969 6 2
18.390488 13.268512 1.9840133 3 10
7.0087137 5.0529876 -1.3684888 1 3
19.00882 13.69448 2.8766043 32 11
9.503994 6.8444204 -1.4380584 1 4
19.067221 13.721394 3.7206376 37 12
16.74358 12.040345 -1.8042982 6 5
19.451529 13.982501 4.6565032 8 13
18.790924 13.497674 -1.2125195 6 6
19.212921 13.790649 5.460012 16 14
18.931402 13.583559 -0.40671089 1 7
19.17132 13.745584 6.320879 48 15
3.7829354 2.6973464 -1.2449197 15 0
19.258087 13.721456 0.41274941 2 8
4.480917 3.1914907 -1.2700737 5 1
19.14579 13.626337 1.2315699 38 9
5.4812775 3.8982232 -1.3074232 6 2
19.30271 13.722799 2.0720406 13 10
7.0502615 5.0085111 -1.3697404 1 3
19.285265 13.690126 2.903903 33 11
9.5612593 6.7847953 -1.4395207 2 4
19.343033 13.715909 3.7556791 36 12
16.689043 11.825257 -1.7894818 1 5
19.45896 13.782806 4.6351323 16 13
19.08032 13.504631 -1.2250801 4 6
19.38669 13.711319 5.4820571 20 14
19.262526 13.618461 -0.4117721 4 7
19.449842 13.740713 6.3809252 55 15
3.8111584 2.6775341 -1.2480254 14 0
19.332134 13.571737 0.41229564 42 8
4.4935179 3.1534138 -1.2673743 4 1
19.389261 13.596694 1.2410949 64 9
5.5131822 3.8632419 -1.3085681 6 2
19.404568 13.592279 2.0727379 46 10
7.0818186 4.956903 -1.3691146 1 3
19.43079 13.590435 2.911459 55 11
9.6181536 6.7247052 -1.4409832 2 4
19.439926 13.581675 3.7559917 51 12
16.844707 11.759781 -1.7973257 5 5
19.480642 13.594948 4.617578 45 13
19.21509 13.399656 -1.2276969 40 6
19.520319 13.60237 5.4928551 46 14
19.245552 13.405928 -0.40939853 50 7
19.523106 13.589132 6.3736782 74 15
3.8345237 2.65416 -1.2495784 12 0
19.35076 13.384117 0.41069004 60 8
4.5186291 3.1241829 -1.2682741 5 1
19.375259 13.386071 1.2341866 68 9
5.5513277 3.8324664 -1.3112395 6 2
19.405519 13.391974 2.0628021 46 10
7.122756 4.9118276 -1.3703661 1 3
19.422218 13.383491 2.8961034 51 11
9.6648674 6.6573939 -1.4409832 1 4
19.45454 13.390748 3.7406614 61 12
17.09712 11.759319 -1.8154541 7 5
19.494188 13.403001 4.5984969 61 13
19.288418 13.251613 -1.2264409 42 6
19.526443 13.405099 5.4681101 59 14
19.325483 13.26219 -0.40911931 58 7
18.242538 12.509638 5.9269567 22 15
3.870517 2.6392977 -1.2552725 13 0
19.361092 13.192406 0.40894479 62 8
4.5435514 3.0947545 -1.2691739 4 1
19.400537 13.204415 1.2298951 62 9
5.5730782 3.7903049 -1.3100946 6 2
19.460638 13.230417 2.0587931 29 10
7.1699457 4.8708615 -1.372869 1 3
19.513535 13.246457 2.8958595 42 11
9.7242498 6.5986748 -1.4429331 1 4
19.554092 13.259038 3.7419131 22 12
17.365185 11.76596 -1.8351513 5 5
19.597038 13.273185 4.6007867 33 13
19.36558 13.106546 -1.2254988 31 6
19.648603 13.288112 5.4762087 19 14
19.415951 13.12582 -0.40908441 29 7
18.454287 12.466333 5.9673324 40 15
3.8872433 2.6111367 -1.2547548 12 0
4.5812268 3.0738192 -1.2736728 5 1
19.641556 13.168741 1.2393155 32 9
5.5994034 3.7513053 -1.3100946 6 2
19.734636 13.216175 2.0779672 22 10
7.2103424 4.8250818 -1.3741205 1 3
19.81015 13.246739 2.9260831 22 11
9.8174362 6.5598021 -1.4497578 2 4
20.373871 13.608259 3.8805139 19 12
17.629194 11.766106 -1.8543255 7 5
19.871183 13.252435 4.6427646 8 13
19.659346 13.1062 -1.2382689 13 6
18.735476 12.466688 6.0299664 45 15
3.9122741 2.5875163 -1.2568253 11 0
20.744436 13.714825 0.43407628 25 8
4.6063576 3.0431063 -1.2745727 5 1
19.69195 12.999246 1.2365941 74 9
5.6254544 3.7121253 -1.3100946 6 2
20.761835 13.689908 2.175756 22 10
7.2446856 4.7733622 -1.3741205 1 3
20.838825 13.725022 3.0637956 28 11
9.8795738 6.5020156 -1.4521952 1 4
17.895708 11.764228 -1.8736742 8 5
21.162712 13.90132 4.9217272 1 13
20.822908 13.667694 -1.3053635 21 6
20.954823 13.749063 5.786191 31 14
20.880556 13.689898 -0.4358215 38 7
18.89369 12.377823 6.0522246 46 15
3.9496672 2.5727932 -1.263037 11 0
21.091761 13.728569 0.43927708 27 8
4.6242228 3.0087483 -1.2736728 5 1
19.695147 12.804841 1.2311511 66 9
5.6617517 3.6781926 -1.3123844 6 2
21.104208 13.70523 2.2015541 22 10
7.2910876 4.7312741 -1.3766234 1 3
21.174677 13.73 3.0986502 30 11
9.931386 6.4372087 -1.4531702 2 4
21.396536 13.857936 4.0375738 1 12
18.196878 11.776593 -1.8963346 8 5
21.480139 13.896124 4.9728646 1 13
21.154322 13.674873 -1.3201222 23 6
21.29822 13.757355 5.8536763 33 14
21.225929 13.705412 -0.44102231 31 7
19.200415 12.388059 6.1226239 48 15
3.9821682 2.5545425 -1.2676958 10 0
21.437929 13.741789 0.44447789 27 8
4.6418352 2.974287 -1.2727731 5 1
19.698275 12.612117 1.2258129 68 9
5.7071376 3.651273 -1.3169638 6 2
21.444427 13.714293 2.2270036 23 10
7.3305984 4.6845121 -1.377875 1 3
21.509274 13.734603 3.1335049 33 11
10.006203 6.3869424 -1.4575576 1 4
21.779221 13.890928 4.0913873 1 12
18.486992 11.782048 -1.9179492 6 5
21.884604 13.942029 5.0438452 1 13
21.461565 13.661995 -1.333311 16 6
21.63216 13.759998 5.9189124 30 14
19.521233 12.402894 6.1971631 46 15
4.0080705 2.5318403 -1.2702839 12 0
21.633112 13.654762 0.44653726 2 8
4.678966 2.9522092 -1.2772721 4 1
19.703056 12.422096 1.2206839 66 9
5.729167 3.6092479 -1.3162005 6 2
21.79254 13.723503 2.2531502 23 10
7.3765016 4.641634 -1.3803779 2 3
21.866795 13.74894 3.1715281 31 11
10.061736 6.3215122 -1.4590199 1 4
22.210234 13.94866 4.1539612 1 12
18.781431 11.786146 -1.9399126 6 5
22.249937 13.951946 5.1049042 1 13
21.637644 13.562758 -1.3383352 4 6
21.98204 13.767931 5.9881968 27 14
19.84646 12.415897 6.2727389 43 15
4.0326481 2.5071745 -1.2723545 12 0
4.7430148 2.9453812 -1.2889696 4 1
19.978123 12.396624 1.2321979 36 9
5.7642365 3.5753689 -1.3184903 6 2
22.132355 13.717301 2.2780766 21 10
7.4229603 4.597054 -1.3828808 1 3
22.218794 13.754777 3.2085762 31 11
10.132634 6.2678227 -1.4629197 2 4
22.349806 13.814297 4.1614699 1 12
19.06665 11.780409 -1.9608299 8 5
22.431995 13.84887 5.1243668 3 13
22.001019 13.572207 -1.3547688 5 6
22.357948 13.786993 6.0642309 30 14
22.130306 13.635973 -0.45372766 11 7
20.166752 12.416372 6.3457255 40 15
4.058291 2.4840026 -1.2749426 13 0
4.776763 2.9203286 -1.2925688 12 1
20.313023 12.408859 1.2474799 40 9
5.7997284 3.5401669 -1.3207799 6 2
22.491203 13.723307 2.3050952 22 10
7.4481292 4.5410037 -1.3816295 2 3
22.581116 13.756544 3.2465997 30 11
10.210057 6.2175765 -1.4677945 1 4
22.714016 13.821207 4.2112164 3 12
19.330917 11.753388 -1.9793068 16 5
22.783136 13.846927 5.1823726 4 13
21.96208 13.337416 -1.3466043 54 6
22.737587 13.797502 6.140264 29 14
21.930889 13.302763 -0.44772404 56 7
20.500753 12.425478 6.4233713 43 15
4.077189 2.4566069 -1.2754604 11 0
22.852022 13.758054 0.4655953 2 8
4.7820072 2.8778658 -1.2885196 16 1
20.667877 12.428349 1.2639135 31 9
5.8276658 3.5016155 -1.3215431 6 2
22.859734 13.730102 2.3329849 22 10
7.5033603 4.5031295 -1.3860096 1 3
22.9524 13.76395 3.2860851 32 11
10.260023 6.1502323 -1.4687696 1 4
23.118374 13.847031 4.2681584 5 12
19.344122 11.577211 -1.9723344 12 5
23.148815 13.848801 5.2434316 3 13
21.960375 13.127394 -1.3408473 59 6
23.117764 13.808318 6.2167473 28 14
21.940817 13.100114 -0.44604859 66 7
20.852442 12.440426 6.5061932 43 15
4.1042085 2.4339974 -1.2785661 12 0
23.233097 13.767394 0.4713895 4 8
4.8086872 2.8483858 -1.2903192 22 1
21.015398 12.438375 1.2798235 38 9
5.8790073 3.4768355 -1.327649 6 2
23.256897 13.748613 2.3636637 22 10
7.5244102 4.4446082 -1.3841324 2 3
23.338551 13.774908 3.3275208 30 11
10.30271 6.0784535 -1.4687696 1 4
23.61438 13.921042 4.3416829 1 12
19.359234 11.403464 -1.9657105 13 5
23.571444 13.879107 5.3170838 14 13
21.944752 12.910978 -1.3343576 49 6
23.465593 13.794727 6.2842326 24 14
21.94553 12.895975 -0.44430339 63 7
21.213659 12.455942 6.5916033 39 15
4.1244378 2.407233 -1.2796015 12 0
23.580847 13.751942 0.47648561 2 8
4.8335061 2.8176897 -1.2916689 23 1
21.362324 12.443152 1.295629 34 9
5.8895626 3.4278071 -1.3245962 6 2
23.660578 13.765256 2.3948655 23 10
7.5791655 4.4058685 -1.3885125 1 3
23.722528 13.779142 3.368469 30 11
10.355194 6.0123596 -1.4702318 1 4
23.943371 13.890656 4.384233 7 12
18.62995 10.799406 -1.8839585 1 5
23.803659 13.792952 5.3476133 27 13
21.97213 12.721436 -1.3305895 59 6
21.844158 12.637164 5.8262324 9 14
21.941545 12.688395 -0.44241849 63 7
21.579441 12.468947 6.6780496 43 15
4.1411443 2.3783784 -1.2796015 11 0
23.874001 13.700446 0.48046476 45 8
4.863203 2.7896924 -1.2943684 15 1
21.746716 12.46454 1.3136326 33 9
5.9133482 3.3866096 -1.3245962 6 2
23.935926 13.702685 2.4129939 40 10
7.5960193 4.345006 -1.3860096 1 3
23.990492 13.711695 3.392843 60 11
10.446219 5.9656701 -1.4770566 1 4
23.995157 13.6977 4.3760982 50 12
18.803537 10.725349 -1.8938943 11 5
24.048439 13.705866 5.3804326 50 13
22.049992 12.561799 -1.3299614 28 6
21.999592 12.522917 5.8442283 19 14
21.931311 12.46885 6.7598362 38 15
4.1546922 2.3467858 -1.2785661 11 0
23.868063 13.476428 0.47844028 45 8
4.8983169 2.7634387 -1.2984174 10 1
23.919716 13.483563 1.4390297 67 9
5.940269 3.3471687 -1.3253593 6 2
23.943087 13.480224 2.4039297 45 10
7.6475768 4.3021607 -1.389764 1 3
23.997389 13.494254 3.3804121 56 11
10.504917 5.9023252 -1.479494 1 4
24.015049 13.482127 4.3620191 56 12
18.784126 10.541172 -1.8844814 2 5
24.052778 13.486752 5.3602066 63 13
22.418108 12.559884 -1.3467089 23 6
22.399332 12.54423 5.9270105 32 14
22.321798 12.48036 6.8524933 35 15
4.1777306 2.321475 -1.2806368 11 0
23.907942 13.274223 0.47732329 38 8
4.9072666 2.7235007 -1.2957181 11 1
23.994045 13.3056 1.4378781 42 9
5.9846749 3.3159966 -1.3299388 6 2
24.120268 13.35909 2.4122965 28 10
7.6843386 4.2524915 -1.3910154 1 3
24.171509 13.365413 3.3913803 40 11
10.574684 5.8423615 -1.4833938 1 4
24.278049 13.407729 4.3926802 58 12
18.775343 10.360281 -1.8761145 2 5
24.318878 13.408132 5.3979869 61 13
22.776367 12.552505 -1.3629332 17 6
22.625086 12.458822 5.9630027 27 14
24.111164 13.266187 -0.48036006 52 7
22.72662 12.499231 6.9498091 35 15
4.2111888 2.3007827 -1.2858131 11 0
37.95076 20.725819 0.75478166 18 8
4.9163656 2.6827147 -1.2930186 11 1
38.022423 20.730511 2.2696013 34 9
6.0214715 3.2816479 -1.3329917 6 2
38.07003 20.730616 3.792495 20 10
7.7215137 4.2011714 -1.392267 1 3
38.119282 20.731567 5.3278847 24 11
10.62568 5.7740812 -1.4848562 1 4
18.749153 10.175732 -1.866353 1 5
36.703331 19.886848 -2.187748 18 6
23.011385 12.462976 6.0417356 29 14
23.13666 12.509944 7.0476427 33 15
4.2390594 2.2777295 -1.2894366 10 0
25.171457 13.513796 0.49868506 12 8
4.9418421 2.6520147 -1.2948182 11 1
38.02541 20.389055 2.2612276 34 9
6.0448003 3.2384753 -1.3329917 6 2
38.076828 20.390965 3.7788985 13 10
7.7645898 4.1546144 -1.3947699 1 3
38.158115 20.400232 5.3127728 28 11
10.672736 5.703496 -1.4858311 1 4
38.175407 20.383783 6.8543334 30 12
18.747658 10.001916 -1.859032 2 5
38.232372 20.388481 8.4223099 39 13
23.421648 12.469243 6.1258669 24 14
23.559458 12.526783 7.1496172 31 15
4.2531495 2.2471771 -1.2889189 9 0
25.169693 13.287324 0.49680021 5 8
4.9671302 2.6210878 -1.2966179 11 1
38.046688 20.05975 2.2541099 33 9
6.063786 3.1943684 -1.3322284 6 2
38.087803 20.055948 3.7659996 27 10
7.8108859 4.1095076 -1.3978986 2 3
38.153767 20.056675 5.292542 28 11
10.740408 5.6436272 -1.4897311 1 4
38.183857 20.046986 6.8305554 30 12
18.760571 9.8411627 -1.853454 2 5
38.252068 20.057257 8.3955965 38 13
24.978914 13.086422 -1.4778628 15 6
23.849974 12.484379 6.2149477 24 14
25.009153 13.085582 -0.49268144 8 7
24.213007 12.658264 7.3209558 16 15
4.2584486 2.2120869 -1.2858131 12 0
25.302664 13.13247 0.497603 5 8
4.9939566 2.5908337 -1.2988673 7 1
38.070545 19.7339 2.2473061 33 9
6.1033731 3.1609864 -1.3360447 6 2
38.074722 19.710781 3.7510087 19 10
7.8499122 4.0603218 -1.3997757 1 3
38.176468 19.729673 5.2764554 28 11
10.812267 5.5830193 -1.4941182 1 4
38.196499 19.714691 6.8080287 30 12
18.761524 9.6752567 -1.8468301 2 5
38.261982 19.714676 8.3665934 38 13
34.936653 17.993568 -2.0595248 10 6
24.290033 12.499472 6.3067279 24 14
37.963551 19.519005 -0.74511302 28 7
24.237215 12.456245 7.3018031 50 15
4.2913756 2.19034 -1.2909895 10 0
25.359888 12.938237 0.49693981 12 8
5.0002151 2.5488362 -1.2957181 15 1
38.077293 19.393003 2.2394557 38 9
6.1252918 3.1182995 -1.3360447 6 2
38.097584 19.378222 3.7395043 19 10
7.8682008 3.9986761 -1.3978986 1 3
38.182308 19.396139 5.258419 27 11
10.872222 5.5181804 -1.4970431 1 4
38.206219 19.374744 6.7848763 30 12
18.753973 9.5062075 -1.839509 2 5
38.260319 19.377001 8.3364458 33 13
24.745365 12.516056 6.4021068 26 14
37.966831 19.186731 -0.74253011 28 7
24.884464 12.564604 7.4695177 26 15
4.3272824 2.1707237 -1.297201 12 0
38.017731 19.054459 0.74228573 35 8
5.0074325 2.5086312 -1.2930186 16 1
38.079601 19.06053 2.23171 33 9
6.16852 3.0849261 -1.3406241 6 2
38.11433 19.052963 3.7279997 26 10
7.9206662 3.9560053 -1.4022788 1 3
23.536659 11.745221 3.2297816 3 11
10.903377 5.4386001 -1.4960682 1 4
38.22562 19.050289 6.7645397 35 12
18.750177 9.3362408 -1.8325366 2 5
38.269863 19.047331 8.30935 37 13
25.197298 12.519016 6.4956865 26 14
35.300518 17.531017 -0.68797386 11 7
25.357485 12.582055 7.5849514 24 15
4.3423314 2.1404605 -1.297201 9 0
35.451752 17.459793 0.68978894 15 8
5.0388112 2.4804974 -1.2966179 13 1
38.082699 18.730753 2.2241735 32 9
6.2075253 3.0504482 -1.3444403 6 2
38.142689 18.735462 3.7178895 25 10
7.9516358 3.9023564 -1.4029044 1 3
38.199596 18.730326 5.2238078 27 11
10.990987 5.3868141 -1.5028929 1 4
38.217545 18.714314 6.7398233 34 12
18.762999 9.1797209 -1.8274815 1 5
38.285507 18.722748 8.2841635 37 13
25.676348 12.534307 6.5964646 30 14
34.843361 17.001776 -0.67673451 26 7
38.365891 18.704014 11.436697 35 15
4.3606472 2.1117752 -1.2982364 11 0
35.446766 17.150919 0.68734562 10 8
5.0823212 2.4579835 -1.3033664 11 1
38.10463 18.41231 2.2178934 32 9
6.2286696 3.0070369 -1.3444403 6 2
38.125412 18.397738 3.7035961 25 10
7.9929199 3.8536115 -1.4054073 1 3
38.223915 18.412359 5.2094274 30 11
11.056943 5.32373 -1.5067927 1 4
38.227993 18.389671 6.7188611 34 12
18.742224 9.0079498 -1.8192888 2 5
38.291412 18.3955 8.2574501 37 13
38.340866 18.386326 9.816864 28 14
35.013504 16.783178 -0.67774677 22 7
38.3666 18.373964 11.398391 34 15
4.3770275 2.0821126 -1.298754 10 0
35.486172 16.865265 0.68580979 15 8
5.1204791 2.4324791 -1.3087653 11 1
38.109547 18.087606 2.2107756 36 9
6.2920866 2.9836648 -1.3535991 6 2
38.134098 18.074802 3.6920917 31 10
8.0017786 3.7892585 -1.4022788 1 3
38.220524 18.083101 5.1916347 30 11
11.115376 5.2565866 -1.5097176 1 4
38.239349 18.067511 6.698525 28 12
18.69655 8.8258543 -1.8088303 1 5
38.287514 18.065731 8.2292109 36 13
38.351936 18.063404 9.7871704 38 14
35.25103 16.595409 -0.68008536 11 7
38.359329 18.042355 11.358533 34 15
4.4002085 2.0555928 -1.3013422 11 0
38.0783 17.772396 0.73348975 11 8
5.1373358 2.396672 -1.3087653 13 1
38.129902 17.772175 2.2047048 31 9
6.3697138 2.9661889 -1.3658109 13 2
38.147362 17.756006 3.6812842 31 10
8.0423641 3.7399704 -1.4047817 1 3
38.218018 17.756445 5.1743288 29 11
11.189612 5.1964169 -1.5148361 2 4
38.262413 17.752718 6.6806908 33 12
18.689026 8.6632633 -1.8022064 1 5
38.300476 17.746016 8.2051687 40 13
38.374523 17.747772 9.761076 38 14
35.142773 16.245682 -0.67579204 7 7
38.366848 17.719847 11.323852 33 15
4.4126954 2.0240178 -1.3008245 10 0
38.07056 17.446146 0.73097658 34 8
5.1645732 2.3656178 -1.3114647 14 1
38.125916 17.447367 2.1973777 30 9
6.3866954 2.9200149 -1.3650476 13 2
38.168922 17.442862 3.6715229 30 10
8.0934353 3.6952193 -1.4091618 1 3
38.232685 17.43977 5.1597047 29 11
11.227421 5.1190009 -1.5150797 1 4
38.264973 17.4303 6.659729 28 12
18.656567 8.490489 -1.7933165 1 5
38.310848 17.426983 8.1811275 40 13
38.373272 17.423058 9.7295828 37 14
38.032276 17.260204 -0.72902197 31 7
38.394604 17.408503 11.295898 33 15
4.4425712 2.0003026 -1.3054833 11 0
38.074711 17.127436 0.72874266 34 8
5.1987348 2.3374982 -1.3159637 15 1
38.122906 17.12512 2.1902599 35 9
6.3961782 2.870533 -1.3627579 13 2
38.177052 17.125429 3.6607156 24 10
8.1568909 3.6555912 -1.415732 2 3
38.248432 17.125362 5.1455674 29 11
11.310879 5.0596032 -1.521417 1 4
38.261303 17.107084 6.6381407 33 12
18.629881 8.3218508 -1.7851238 2 5
38.334175 17.107586 8.1597567 39 13
38.365814 17.097624 9.6971903 37 14
38.048859 16.940435 -0.72699744 31 7
38.405769 17.091335 11.263804 33 15
4.4426341 1.962217 -1.3013422 12 0
38.101891 16.820826 0.72699744 33 8
5.2260265 2.3049557 -1.3186631 15 1
38.149429 16.810001 2.1848171 30 9
6.4052811 2.8210645 -1.3604681 18 2
38.178257 16.79884 3.6492109 30 10
8.1991158 3.6042831 -1.418548 2 3
38.258003 16.810024 5.1309433 28 11
11.351378 4.9829087 -1.5221483 2 4
38.268768 16.782871 6.6184301 37 12
18.632784 8.1675901 -1.7798946 1 5
38.341183 16.790699 8.136096 39 13
38.387836 16.787182 9.6728954 37 14
38.039753 16.619171 -0.72458899 30 7
38.392532 16.757341 11.224465 38 15
4.4562254 1.9311516 -1.3013422 12 0
38.092827 16.49213 0.72455412 39 8
5.2562995 2.2746038 -1.3222623 15 1
38.148529 16.492535 2.1781182 30 9
6.4180946 2.7720435 -1.3589417 13 2
38.177536 16.481356 3.6380548 30 10
8.2404041 3.5539954 -1.4213637 2 3
38.27887 16.49341 5.1177816 28 11
11.425035 4.918035 -1.5272667 2 4
38.281563 16.470812 6.6005964 32 12
18.577263 7.9852662 -1.7690872 2 5
38.334068 16.461697 8.1093826 39 13
32.489174 13.945025 -1.8529024 4 6
38.395927 16.464458 9.6450014 36 14
38.062119 16.305592 -0.72277397 30 7
38.416248 16.449343 11.197548 38 15
4.4770417 1.9022382 -1.3034128 12 0
38.107632 16.183598 0.72266924 33 8
5.2724404 2.2369349 -1.3222623 18 1
38.184658 16.184834 2.1735125 35 9
6.4463301 2.7309985 -1.3608499 10 2
38.195415 16.165808 3.6286421 29 10
8.2492504 3.4880137 -1.418548 2 3
38.276058 16.176313 5.1021824 27 11
11.466406 4.8412423 -1.5282418 1 4
38.300163 16.154999 6.5837016 32 12
18.551779 7.821322 -1.7614175 2 5
38.341305 16.148712 8.0868673 38 13
38.41293 16.155205 9.6207066 36 14
38.071785 15.996093 -0.72081929 30 7
38.417179 16.125439 11.163901 33 15
4.4902139 1.870934 -1.3034128 13 0
38.12278 15.868977 0.72078443 33 8
5.2933278 2.2023151 -1.323612 19 1
38.171307 15.865733 2.1663947 34 9
6.4747725 2.6885638 -1.3627579 13 2
38.211655 15.859047 3.6195779 29 10
8.3171911 3.4484994 -1.4260567 2 3
38.27346 15.853386 5.0865831 27 11
11.499923 4.7610788 -1.5282418 1 4
38.322571 15.850225 6.5683713 36 12
18.555714 7.6670651 -1.7565368 2 5
38.358753 15.841677 8.0670233 38 13
38.410442 15.831646 9.5914631 36 14
38.084538 15.689542 -0.71896935 29 7
38.430565 15.816406 11.135431 37 15
4.4942236 1.835888 -1.3008245 14 0
38.130802 15.560905 0.71886462 38 8
5.3266182 2.172667 -1.3281111 20 1
38.188652 15.561194 2.1611612 34 9
6.4770212 2.636631 -1.3593234 14 2
38.214394 15.548358 3.6094677 28 10
8.3374062 3.3888593 -1.425431 1 3
38.291237 15.548456 5.0743961 27 11
11.540241 4.6836586 -1.5292166 1 4
38.313301 15.534052 6.5480347 31 12
18.564463 7.5193915 -1.7523533 2 5
38.364681 15.531503 8.0452709 38 13
38.413425 15.520033 9.5649185 35 14
38.080025 15.377623 -0.71684015 25 7
38.446884 15.510141 11.108514 37 15
4.4979634 1.8008796 -1.2982364 12 0
38.136387 15.253477 0.71694487 33 8
5.3597503 2.1426637 -1.33261 20 1
38.185074 15.249764 2.154881 34 9
6.5007405 2.5935311 -1.3604681 14 2
38.223923 15.242081 3.6002295 34 10
8.3938932 3.3437293 -1.4310627 2 3
38.314007 15.24701 5.0631843 26 11
11.598481 4.6132498 -1.5326289 1 4
38.316166 15.224637 6.5302014 36 12
18.579473 7.3748941 -1.7488672 2 5
38.380932 15.227108 8.0261898 38 13
38.433872 15.217046 9.5433235 35 14
38.084198 15.070911 -0.71492034 29 7
38.450027 15.20016 11.07849 37 15
4.5068293 1.768023 -1.297201 12 0
38.141411 14.947443 0.71506 38 8
5.3909087 2.1115899 -1.3366592 15 1
38.197613 14.946403 2.1496472 38 9
6.5369725 2.5552349 -1.3642844 13 2
38.223629 14.933511 3.5902934 28 10
8.4207115 3.2864876 -1.4316884 2 3
38.315945 14.938776 5.0495348 26 11
11.652598 4.5408196 -1.5355538 1 4
38.327641 14.920222 6.5142446 31 12
18.600796 7.2334509 -1.746078 2 5
38.381992 14.918245 8.0044374 37 13
32.407188 12.582931 -1.8219194 4 6
38.430149 14.906092 9.5163288 35 14
35.505486 13.764539 -0.66469234 21 7
38.472336 14.899284 11.05468 31 15
4.5352921 1.7427528 -1.3018599 20 0
35.765621 13.72914 0.66870642 9 8
5.3964219 2.0704126 -1.3344096 16 1
38.220825 14.64865 2.1451464 19 9
6.5638194 2.5130455 -1.3661925 12 2
38.323227 14.66489 3.5899451 11 10
8.4360695 3.2247984 -1.4304368 27 3
38.467529 14.68931 5.0558724 6 11
11.695921 4.4615641 -1.5370163 2 4
38.764957 14.779637 6.5708742 4 12
18.695524 7.1204448 -1.7502615 2 5
38.840076 14.77725 8.0777082 8 13
39.103481 14.854033 9.6571484 9 14
35.083321 13.312886 -0.65498883 14 7
39.323223 14.913953 11.268981 5 15
4.558496 1.7143345 -1.3049657 14 0
35.60041 13.381317 0.66385466 27 8
5.4092751 2.0310585 -1.3339597 15 1
39.05212 14.647625 2.1858637 5 9
6.5885568 2.4699168 -1.3677189 11 2
39.244427 14.696321 3.6662934 12 10
8.4718809 3.1691933 -1.432627 30 3
39.383545 14.724912 5.1626296 7 11
11.715626 4.3756351 -1.5355538 1 4
39.661846 14.797416 6.7047815 4 12
18.86799 7.035696 -1.7617661 2 5
39.764671 14.812044 8.248291 9 13
39.998943 14.875465 9.8524055 9 14
35.41534 13.156789 -0.65945667 14 7
40.256638 14.939342 11.505543 11 15
4.5703526 1.6824706 -1.3049657 10 0
39.762321 14.621809 0.73949337 11 8
5.4342971 1.9972788 -1.3366592 15 1
39.963379 14.671996 2.231082 11 9
6.6060624 2.4227068 -1.3677189 12 2
40.135502 14.711345 3.7398529 6 10
8.5179129 3.1188006 -1.4366943 32 3
40.272778 14.729779 5.2652435 8 11
11.74216 4.2923746 -1.5350664 1 4
