# .PCD v0.7 - Point Cloud Data file format
VERSION 0.7
FIELDS x y z intensity ring
SIZE 4 4 4 4 2
TYPE F F F F U
COUNT 1 1 1 1 1
WIDTH 1299
HEIGHT 1
VIEWPOINT 0 0 0 1 0 0 0
POINTS 1299
DATA ascii
-2.0043986 1.1811521 0.28566176 63 11
-3.0456202 1.7954394 -0.43409866 21 4
-1.9888688 1.173404 0.36574382 53 12
-3.0143816 1.7798604 -0.30626526 15 5
-1.9743625 1.1662394 0.44572985 50 13
-1.9723748 1.166924 0.52908486 54 14
-2.0134141 1.191678 -0.040838633 40 7
-1.9447026 1.1519274 0.6056366 66 15
-2.2221456 1.3241386 -0.69311744 22 0
-2.0025811 1.1942513 0.040699009 44 8
-2.2107484 1.3189162 -0.59432071 35 1
-2.0063758 1.1979394 0.12246615 56 9
-2.1774116 1.3010905 -0.49305046 23 2
-1.9854667 1.1868659 0.20237562 46 10
-2.9886 1.7879318 -0.551588 12 3
-1.9892915 1.1910373 0.28468683 60 11
-2.9955456 1.7942175 -0.42873639 15 4
-1.9857113 1.1903073 0.36668244 54 12
-2.9796715 1.7875369 -0.30399922 15 5
-1.9729058 1.1840357 0.4472563 63 13
-2.9449234 1.7687885 -0.1800357 13 6
-1.9641804 1.1806649 0.52908486 49 14
-1.9930496 1.1984917 -0.040594298 33 7
-1.9366136 1.1654752 0.6056366 50 15
-2.2392883 1.3556278 -0.70139962 33 0
-1.9959054 1.2092391 0.040733919 58 8
-2.2148187 1.3423992 -0.59791994 38 1
-1.9894258 1.2067379 0.1219428 58 9
-2.1682756 1.3162594 -0.49305046 25 2
-1.9890536 1.207937 0.20359582 59 10
-2.9321558 1.7820772 -0.5434534 12 3
-1.9809277 1.2048967 0.28468683 48 11
-2.9303765 1.7830974 -0.42118049 17 4
-1.9722916 1.2010587 0.36574382 59 12
-2.9317036 1.7860088 -0.30033869 24 5
-1.9696205 1.2008463 0.44840118 54 13
-2.9171586 1.7799423 -0.17909366 18 6
-1.9560983 1.1940073 0.52908486 53 14
-1.9498565 1.192067 0.6123659 60 15
-2.2314157 1.3722392 -0.70191729 30 0
-1.9808155 1.2186052 0.040594298 51 8
-2.2236471 1.3690667 -0.6028688 39 1
-1.9896684 1.2254885 0.12246615 52 9
-2.172636 1.3392292 -0.49610341 21 2
-1.9737892 1.2176095 0.20289856 59 10
-2.8812938 1.7781339 -0.53625745 15 3
-1.9828142 1.2246106 0.28614923 48 11
-2.8857737 1.7836823 -0.41654944 17 4
-1.9556701 1.2092611 0.36417946 51 12
-2.873419 1.7781256 -0.29563227 21 5
-1.9645275 1.2166345 0.44916439 54 13
-2.8727167 1.779772 -0.17710489 15 6
-1.9559963 1.2127686 0.5313344 52 14
-1.9659266 1.2198764 -0.04038487 2 7
-1.9252844 1.1951227 0.60718954 53 15
-2.2154689 1.3833038 -0.69984674 26 0
-1.9705638 1.2313449 0.040559392 58 8
-2.2208865 1.3883029 -0.60466844 33 1
-1.9742913 1.235112 0.12204745 51 9
-2.1698897 1.3585311 -0.49762988 21 2
-1.9587014 1.2267864 0.20220132 50 10
-2.093863 1.3124592 -0.39139909 26 3
-1.9826244 1.2436978 0.28736794 57 11
-2.101789 1.3189608 -0.30467337 19 4
-1.9538716 1.2270871 0.36543098 47 12
-2.0767677 1.3047748 -0.21457744 14 5
-1.9445666 1.2226634 0.44649309 58 13
-2.0082412 1.2636777 -0.12435025 18 6
-1.950994 1.2281312 0.53223419 51 14
-1.9880329 1.2524152 -0.041013155 30 7
-1.9185278 1.2095649 0.60770714 51 15
-2.2106524 1.4018401 -0.70139962 37 0
-1.997597 1.2672249 0.041292395 25 8
-2.2111404 1.4037733 -0.60466844 42 1
-1.9708966 1.2517344 0.12236147 47 9
-2.1357384 1.3574735 -0.4919056 14 2
-1.9517704 1.2414995 0.20237562 55 10
-2.064882 1.3139555 -0.38764465 38 3
-1.964067 1.250766 0.28590551 52 11
-2.0406351 1.3005286 -0.2971175 34 4
-1.9587992 1.2488534 0.3679339 54 12
-1.9769087 1.2613708 -0.20516461 23 5
-1.9343286 1.2351526 0.44611144 38 13
-1.9608804 1.252589 -0.1219428 38 6
-1.9472985 1.2448702 0.53358394 46 14
-2.0516725 1.3126042 -0.042514063 22 7
-1.9200133 1.2288439 0.61081296 52 15
-2.2173033 1.4273108 -0.70657599 45 0
-2.0324094 1.3092963 0.042199921 37 8
-2.2130003 1.426181 -0.60781777 48 1
-2.0007143 1.2903607 0.12476893 32 9
-2.0932198 1.3510569 -0.48427325 27 2
-1.9650339 1.268806 0.20464167 41 10
-2.0506814 1.3251222 -0.38670605 68 3
-1.948619 1.2601359 0.28493056 55 11
-2.0017345 1.2949796 -0.29273018 49 4
-1.9583236 1.2678663 0.36949828 52 12
-1.9632605 1.2715482 -0.20464167 38 5
-1.9555305 1.2675115 0.45298058 56 13
-2.7010863 1.7520958 -0.16873114 16 6
-1.9534924 1.2676433 0.537633 45 14
-2.0661697 1.3417863 -0.043002732 34 7
-1.9194868 1.2474817 0.61340117 41 15
-2.2137527 1.4469842 -0.7086466 38 0
-2.0418601 1.3351381 0.042583872 39 8
-2.2029898 1.441596 -0.60781777 43 1
-2.0052531 1.3127006 0.12560631 37 9
-2.0774062 1.3609704 -0.48274681 41 2
-1.9944508 1.3076191 0.20865084 30 10
-2.0399623 1.3379667 -0.38639316 56 3
-1.9632303 1.2886201 0.28834289 43 11
-1.9826902 1.3023837 -0.29126775 31 4
-1.9413937 1.2757428 0.3679339 50 12
-1.9476764 1.2808448 -0.20394444 6 5
-1.9482741 1.2822115 0.4533622 63 13
-2.6757522 1.7616546 -0.16789377 17 6
-1.9397132 1.2780334 0.53628331 51 14
-2.6059983 1.7183392 -0.054486416 17 7
-1.9335276 1.2754101 0.62064809 55 15
-2.2086816 1.4652231 -0.71019953 37 0
-2.0424855 1.3559968 0.0427933 44 8
-2.1379328 1.4199014 -0.59252107 26 1
-2.0259805 1.3465679 0.1274904 46 9
-2.064585 1.3732648 -0.48198354 56 2
-2.0070677 1.3355131 0.21091689 38 10
-2.0141301 1.3412265 -0.38326448 13 3
-1.9954834 1.3298157 0.29443637 33 11
-1.962217 1.3081418 -0.2895616 58 4
-1.9702346 1.3144797 0.37512988 43 12
-2.6346264 1.7590706 -0.27715525 24 5
-1.9378688 1.294353 0.45298058 41 13
-2.6368213 1.7625327 -0.16621901 23 6
-1.9404619 1.2980455 0.53898275 49 14
-2.6091988 1.7460464 -0.054800555 28 7
-1.9181557 1.2845782 0.61857754 53 15
-2.1967967 1.4795272 -0.70968187 30 0
-2.0379441 1.3735753 0.042898018 20 8
-2.0843422 1.4053769 -0.5803737 25 1
-2.0330868 1.37185 0.12853712 51 9
-2.0549471 1.3876455 -0.48198354 47 2
-2.0042992 1.3539531 0.21161415 50 10
-1.9719872 1.3331289 -0.3770071 61 3
-2.0058808 1.3570623 0.29736122 46 11
-2.5777459 1.7446089 -0.3821823 13 4
-1.9871786 1.3459268 0.38013577 47 12
-2.5810509 1.749474 -0.27279747 24 5
-1.9840326 1.3453119 0.46595559 43 13
-2.5798299 1.7506186 -0.16339287 32 6
-1.9668201 1.3356458 0.54888058 43 14
-2.5506303 1.7327564 -0.053823221 29 7
-1.9027507 1.2935932 0.61650699 49 15
-2.0747812 1.4185055 -0.67344719 11 0
-2.5085626 1.7163624 0.053055316 19 8
-2.0616152 1.4110886 -0.57677448 31 1
-2.0316987 1.3916538 0.12906048 52 9
-2.0112042 1.3786471 -0.47396958 27 2
-2.0161588 1.3825616 0.2138802 61 10
-2.117363 1.4530472 -0.40672967 15 3
-2.0045397 1.376652 0.2985799 54 11
-2.5295081 1.7378321 -0.37682006 19 4
-1.9923836 1.3698394 0.38295162 55 12
-2.5165522 1.7308713 -0.26721951 23 5
-1.9762094 1.3602433 0.46633717 51 13
-2.5050428 1.7255331 -0.15941535 18 6
-1.9801484 1.364483 0.55517924 50 14
-2.5006087 1.7244101 -0.05302041 22 7
-1.946143 1.3430552 0.63358909 52 15
-2.0410206 1.4164339 -0.66568261 29 0
-17.489252 12.141764 0.37163153 65 8
-1.9812961 1.3765236 -0.55697882 20 1
-2.4715526 1.7177727 0.15774059 15 9
-2.1548877 1.4988016 -0.51022327 24 2
-2.0080931 1.3977408 0.2140545 80 10
-2.086349 1.4527519 -0.40266237 22 3
-1.9902369 1.3868594 0.2978487 61 11
-2.4880049 1.735011 -0.37243277 25 4
-1.9813937 1.3822389 0.38263875 52 12
-2.4848027 1.7347124 -0.26512775 16 5
-1.9698838 1.3762556 0.46710047 52 13
-2.4785056 1.732247 -0.15847328 25 6
-1.9817525 1.3860922 0.55832851 46 14
-2.4786801 1.7349448 -0.052810986 19 7
-1.9511981 1.3662435 0.63824779 52 15
-2.0487077 1.4425278 -0.67137665 33 0
-2.4536009 1.7289019 0.052392125 20 8
-2.0148864 1.4202921 -0.56912619 24 1
-2.438283 1.7200192 0.15637985 14 9
-2.1684299 1.5307928 -0.51594758 22 2
-2.1003537 1.4843831 -0.4073554 24 3
-1.9837478 1.4030126 0.29833618 60 11
-2.4323838 1.7209491 -0.36585179 17 4
-1.9700832 1.3948964 0.38232586 57 12
-2.4206111 1.7151564 -0.2595498 14 5
-1.9764873 1.4009856 0.47091663 52 13
-2.4191105 1.7159964 -0.1554378 11 6
-1.954548 1.3874847 0.5533796 51 14
-2.4407268 1.7332515 -0.052252505 21 7
-1.9479117 1.3843081 0.64031839 67 15
-2.0511611 1.465781 -0.67551774 33 0
-2.4349654 1.7413359 0.052252505 23 8
-2.2204702 1.5885285 -0.63031286 63 1
-2.431088 1.7404872 0.15669388 26 9
-2.1640737 1.5504676 -0.517474 22 2
-2.4064376 1.7247458 0.25902686 12 10
-2.0963604 1.5036155 -0.40860689 23 3
-2.0029328 1.4376633 0.3027235 25 11
-2.3961232 1.720521 -0.36219573 20 4
-1.9554846 1.405158 0.38138729 50 12
-2.3665209 1.7017704 -0.2550177 13 5
-1.9682524 1.4158958 0.47129822 55 13
-2.3649278 1.7025039 -0.15271634 20 6
-1.9622066 1.4136263 0.55832851 47 14
-2.3831425 1.7175119 -0.051275171 18 7
-1.9303656 1.3922231 0.63773018 56 15
-1.9986532 1.4494432 -0.66154152 39 0
-2.3596311 1.7124859 0.050891217 11 8
-2.4348321 1.7677104 -0.69464886 19 1
-2.3914082 1.7374603 0.15491444 26 9
-2.3945582 1.7410252 -0.57547992 27 2
-2.3830588 1.733301 0.25780669 42 10
-2.0842152 1.5170511 -0.40829399 17 3
-2.3811479 1.7344531 0.36170825 33 11
-2.359988 1.7196715 -0.35853964 20 4
-2.2313266 1.6271105 0.43739083 34 12
-2.3291283 1.6990522 -0.25222871 22 5
-1.942463 1.4180261 0.46748206 54 13
-2.3207295 1.6954091 -0.15062289 26 6
-1.9462459 1.4223503 0.55652893 54 14
-2.3258996 1.7010543 -0.050297838 12 7
-1.9159224 1.4022428 0.63617724 52 15
-2.0865097 1.5354979 -0.69415271 15 0
-2.2963886 1.6905701 0.049774267 13 8
-2.0003893 1.4737359 -0.57362521 18 1
-2.0981638 1.5463344 0.13659686 66 9
-2.3921323 1.7642761 -0.57776964 23 2
-2.3548698 1.7380635 0.25606358 28 10
-2.0770185 1.5335498 -0.40891972 30 3
-2.3501279 1.7364651 0.35878339 35 11
-2.309618 1.7077795 -0.35268989 14 4
-2.2980173 1.6998222 0.45272139 39 12
-2.2899868 1.6951189 -0.24926542 13 5
-1.9908855 1.4747918 0.48160195 31 13
-2.2850657 1.6933287 -0.14905281 33 6
-1.9409639 1.4393857 0.55787861 50 14
-2.2673988 1.6826912 -0.049285594 23 7
-1.9156398 1.4221609 0.63928306 57 15
-1.9707382 1.4710838 -0.65895331 58 0
-2.2396727 1.6730518 0.048796929 22 8
-1.9778235 1.4779857 -0.57002598 17 1
-2.3096447 1.7272062 0.15114626 13 9
-2.0088041 1.5033242 -0.48770785 46 2
-2.3222504 1.7385296 0.25379753 22 10
-2.2085447 1.6546085 -0.43707794 9 3
-2.3125353 1.7337772 0.35488355 43 11
-2.2487097 1.6865381 -0.34513399 9 4
-2.2766151 1.7087094 0.4508442 43 12
-2.2385635 1.6807605 -0.24490763 11 5
-2.2429199 1.6852559 0.54533213 33 13
-2.2396648 1.6840345 -0.14685471 19 6
-1.9404656 1.4595927 0.56057805 39 14
-2.2431114 1.688465 -0.049006358 42 7
-1.9072081 1.4366618 0.63980073 60 15
-1.9788998 1.4988034 -0.66516501 69 0
-2.2138882 1.677389 0.048482787 30 8
-2.0466518 1.551805 -0.59297097 6 1
-2.2007654 1.6692607 0.14476126 21 9
-1.9797592 1.502719 -0.4831284 55 2
-2.2719786 1.725776 0.24961405 13 10
-2.0147841 1.5309677 -0.40078515 68 3
-2.2927797 1.7434702 0.35366488 25 11
-2.1863303 1.6637279 -0.33733436 12 4
-2.2444987 1.7086117 0.4467769 49 12
-2.1934924 1.6709924 -0.24124709 10 5
-2.2264161 1.6973027 0.54418731 35 13
-2.1900349 1.6701728 -0.14434259 16 6
-2.2044265 1.6823647 0.64021069 29 14
-2.1947174 1.6761675 -0.048203547 14 7
-1.9112004 1.4601659 0.64445943 41 15
-1.947204 1.4957625 -0.65791804 55 0
-2.1815135 1.6769605 0.048029024 34 8
-2.0499451 1.5763911 -0.59702009 6 1
-2.177978 1.6760584 0.14402856 41 9
-2.1654787 1.6682456 0.23915535 19 10
-2.0369003 1.5703235 -0.4073554 50 3
-2.2554049 1.7400324 0.34976503 13 11
-1.9942325 1.5390947 -0.30930442 53 4
-2.2309525 1.7230316 0.446464 29 12
-2.0780091 1.6054887 -0.22974254 17 5
-2.2023864 1.7028106 0.54113436 35 13
-2.1388309 1.6548659 -0.14172579 9 6
-2.1728902 1.6818246 0.63436198 29 14
-2.1405723 1.6580055 -0.047261119 17 7
-2.1101422 1.6356143 0.7153759 33 15
-1.9412853 1.5128826 -0.65947098 51 0
-2.122736 1.6548862 0.046981879 12 8
-2.1464424 1.6745726 -0.62851328 23 1
-2.1303058 1.6625814 0.14162111 26 9
-2.0362163 1.5902939 -0.50220931 2 2
-2.1318026 1.6661454 0.23671499 27 10
-2.0261641 1.5841519 -0.4073554 46 3
-2.1418865 1.6758339 0.33392206 22 11
-2.0428326 1.5994831 -0.31856647 10 4
-2.189625 1.7150342 0.44051951 16 12
-1.9883451 1.5585015 -0.22102696 42 5
-2.168818 1.701182 0.5357917 40 13
-2.0143845 1.580615 -0.13418941 35 6
-2.1580305 1.6945463 0.63346219 30 14
-2.0644796 1.6222519 -0.045830019 31 7
-2.0883286 1.6415826 0.71175241 39 15
-2.1082745 1.6662093 -0.7200346 23 0
-1.98095 1.5667069 0.044084776 54 8
-2.1151271 1.6734251 -0.62266451 36 1
-2.0199959 1.5993078 0.13502678 53 9
-3.9685717 3.1443233 -0.98419291 7 2
-2.0891836 1.6558664 0.23322876 21 10
-2.1099212 1.6747032 0.33075345 26 11
-2.0350072 1.6158201 -0.31905395 6 4
-2.0971754 1.6663771 0.42425033 27 12
-2.0042059 1.5930752 -0.22399026 7 5
-2.1341412 1.6975731 0.53006744 20 13
-2.0017383 1.5933952 -0.13408473 48 6
-2.1251035 1.6922015 0.62716353 30 14
-1.9892699 1.5851723 -0.044398922 56 7
-2.0632238 1.6452812 0.70709366 30 15
-2.0619235 1.6530945 -0.70812893 12 0
-1.9811602 1.5889119 0.044329114 53 8
-2.085155 1.673514 -0.6172657 19 1
-1.9779149 1.5880116 0.13293335 49 9
-3.9929912 3.2081532 -0.99564141 1 2
-1.985961 1.5967529 0.22294438 38 10
-4.7147841 3.7921388 -0.95831764 1 3
-2.0520811 1.6516854 0.32344127 21 11
-5.8623266 4.7218575 -0.92425722 0 4
-2.0565588 1.6570643 0.41830578 24 12
-2.0225043 1.6307896 -0.22730216 7 5
-2.0504274 1.6544862 0.51213133 13 13
-2.0904992 1.6886277 0.62041503 28 14
-1.9843752 1.6040497 -0.044538539 9 7
-2.0414617 1.6507841 0.70347023 35 15
-2.0236418 1.6451555 -0.69881141 1 0
-1.9966316 1.624934 -0.59432071 9 1
-1.9667804 1.6017814 0.13293335 30 9
-1.999706 1.629758 -0.50144607 16 2
-1.9796784 1.6140113 0.22346732 7 10
-1.9958888 1.6283869 -0.40798113 10 3
-1.9759178 1.6132429 0.31320426 19 11
-1.9925485 1.6273999 -0.31588537 7 4
-1.9592885 1.6013762 0.40078515 42 12
-2.0033588 1.6385627 -0.22643061 0 5
-1.9570674 1.6012707 0.49152401 40 13
-2.0089405 1.6448841 -0.1360735 1 6
-2.0153499 1.6513073 0.60151911 12 14
-1.9687711 1.6137168 -0.044433825 1 7
-2.0209253 1.6576449 0.70036435 39 15
-2.9332054 2.4188077 -1.0187118 12 0
-1.9927136 1.6444193 0.04509702 8 8
-3.3407912 2.7578549 -1.0001323 5 1
-1.9740275 1.6307374 0.13418941 8 9
-2.0079503 1.6599405 -0.50640708 30 2
-1.9545441 1.6163647 0.22189851 10 10
-2.0042555 1.6586541 -0.41204843 34 3
-1.9477898 1.6130699 0.31052312 22 11
-1.9918391 1.6501364 -0.31759155 37 4
-1.9313333 1.6011469 0.39734361 7 12
-1.9872707 1.6486919 -0.22590767 39 5
-1.9897258 1.6524884 -0.13555014 32 6
-1.9378295 1.6105317 0.58172345 25 14
-1.9728346 1.6402059 -0.044782877 30 7
-1.9439602 1.6173487 0.67758828 48 15
-2.9088387 2.4330285 -1.0161237 10 0
-1.9673846 1.6467391 0.044782877 32 8
-3.324445 2.7836132 -1.0010322 7 1
-1.9870894 1.6650026 0.13586415 49 9
-1.9722158 1.6542981 0.22521043 39 10
-1.9896014 1.6700654 -0.4114227 36 3
-1.9623209 1.6483341 0.31466666 7 11
-1.9939486 1.6754948 -0.31978518 40 4
-1.9276675 1.6209477 0.39890796 8 12
-1.9696141 1.6573946 -0.22521043 30 5
-1.9225039 1.6183248 0.48847106 12 13
-1.9949434 1.6804937 -0.13670154 38 6
-1.9310088 1.6277885 0.58307308 7 14
-1.9857947 1.6745652 -0.04534135 51 7
-2.9050405 2.4645245 -1.0207824 12 0
-1.971084 1.6733762 0.045131925 51 8
-3.294534 2.7979236 -0.9978829 7 1
-1.9936793 1.6943557 0.13712022 71 9
-3.8824162 3.3018575 -0.9906804 5 2
-1.9727582 1.6783553 0.22660492 71 10
-1.988542 1.6941779 0.32076016 67 11
-1.9912679 1.6971002 -0.32124761 39 4
-1.9493697 1.6625665 0.40579104 37 12
-1.9837588 1.6930925 -0.22817372 34 5
-1.9171315 1.636806 0.48999751 26 13
-1.9922739 1.7021638 -0.13732956 47 6
-1.8944178 1.6197014 0.57542479 20 14
-1.9679774 1.6831884 -0.045201734 42 7
-1.8712879 1.6016233 0.65998858 33 15
-2.8862996 2.4834852 -1.0202647 14 0
-1.9745076 1.7001436 0.045480974 53 8
-3.2823029 2.8272142 -1.0001323 7 1
-1.9712125 1.6991045 0.13638751 69 9
-3.8488631 3.3199062 -0.9880091 7 2
-1.9640104 1.6946896 0.22695355 50 10
-4.5915289 3.9647007 -0.96082056 3 3
-1.9616457 1.6950403 0.31832278 71 11
-1.9392096 1.6774276 0.40610394 48 12
-1.978215 1.7117714 -0.22887097 38 5
-1.9323723 1.6732831 0.49686664 44 13
-1.9758142 1.7121065 -0.13701554 48 6
-1.8995465 1.6465997 0.5803737 30 14
-1.9727943 1.7113007 -0.045585688 47 7
-1.8775676 1.6298444 0.66620022 35 15
-2.8718023 2.5061157 -1.0213 15 0
-1.95837 1.709599 0.045376256 48 8
-3.2654204 2.8526244 -1.0010322 8 1
-1.9505779 1.7045971 0.13575949 71 9
-3.8158317 3.3369799 -0.98533767 6 2
-1.9491323 1.705736 0.22660492 52 10
-4.5644369 3.9958613 -0.96082056 3 3
-1.9440897 1.7031212 0.31734779 48 11
-5.6662898 4.9674516 -0.92523217 5 4
-1.9203207 1.6840763 0.40453959 69 12
-7.4755168 6.5604677 -0.8701629 7 5
-1.9206439 1.6867324 0.49686664 53 13
-1.965615 1.7268343 -0.13712022 41 6
-1.8982501 1.6688271 0.58352304 45 14
-1.9668049 1.7303145 -0.045725305 45 7
-1.872231 1.6476921 0.66827077 48 15
-2.8431022 2.5153646 -1.0171589 14 0
-1.9613595 1.7364844 0.045725305 45 8
-3.2488449 2.8773692 -1.0019319 8 1
-1.946104 1.7247965 0.13628285 51 9
-3.8056612 3.375262 -0.98877227 7 2
-1.930025 1.7123518 0.22573337 55 10
-4.5379066 4.0289416 -0.96113342 2 3
-1.9306688 1.7153332 0.31710407 76 11
-5.6471834 5.0190935 -0.92766953 5 4
-1.9158975 1.7040052 0.40610394 56 12
-7.4187794 6.6006045 -0.86876839 34 5
-1.9076523 1.6984614 0.49648505 46 13
-1.8926661 1.686896 0.58532268 27 14
-2.8269107 2.5364411 -1.0176765 12 0
-14.147972 12.698703 0.33184007 9 8
-3.2315784 2.9025843 -1.0028318 7 1
-1.9491746 1.7513524 0.13732956 19 9
-3.7942789 3.4115891 -0.99182522 7 2
-1.9269102 1.7337803 0.22677925 22 10
-4.5324016 4.0795584 -0.96582651 1 3
-1.9381227 1.7457061 0.32027265 33 11
-5.6149549 5.0610538 -0.92815697 2 4
-1.9057213 1.7183297 0.40641677 8 12
-7.3887901 6.6669192 -0.87068588 25 5
-14.196978 12.818958 3.7181041 30 13
-12.340396 11.146489 -0.87149841 14 6
-14.20824 12.842638 4.4216375 26 14
-14.032372 12.69257 -0.33026937 12 7
-14.243176 12.887773 5.1468759 3 15
-2.8052931 2.5517249 -1.0161237 13 0
-13.95102 12.698901 0.329292 4 8
-3.2117462 2.9245136 -1.0028318 7 1
-3.766016 3.4340274 -0.9906804 6 2
-1.7507519 1.5980961 -0.37544277 8 3
-13.988342 12.777584 2.3262422 19 11
-5.5847716 5.1031737 -0.9288882 4 4
-14.067745 12.863637 3.0191855 3 12
-7.3652902 6.7372298 -0.87330055 7 5
-14.00368 12.818525 3.6902461 36 13
-12.159187 11.137933 -0.86417139 8 6
-14.029982 12.856108 4.3932939 31 14
-13.845428 12.695889 -0.32789579 15 7
-14.048949 12.891542 5.1090884 6 15
-2.8044503 2.5869658 -1.0223353 13 0
-12.756175 11.771059 0.30297378 16 8
-3.191251 2.9468646 -1.0028318 7 1
-13.900826 12.840794 0.99176645 1 9
-3.7483213 3.4649122 -0.99220681 5 2
-4.4626737 4.1295877 -0.96301067 2 3
-13.791805 12.771348 2.3079619 34 11
-5.5388174 5.1325922 -0.92718202 4 4
-1.7326331 1.606122 0.37419128 11 12
-1.7338438 1.6083691 -0.20690772 7 5
-13.818884 12.827824 3.6650593 51 13
-1.7240652 1.6009785 -0.12330353 21 6
-13.824256 12.846292 4.3568521 32 14
-1.7206553 1.6000512 -0.041013155 48 7
-13.883077 12.914503 5.0806179 4 15
-2.7867761 2.6059952 -1.0223353 14 0
-12.616747 11.806537 0.3016125 22 8
-3.1768088 2.9738455 -1.0046314 7 1
-3.7226081 3.4896531 -0.99182522 7 2
-13.154195 12.335334 1.5776932 12 10
-4.4409375 4.1674013 -0.96457505 2 3
-1.694519 1.5912591 0.285418 54 11
-5.502306 5.1688156 -0.9269383 5 4
-13.133426 12.346052 2.8549292 1 12
-7.3631406 6.9241276 -0.88428217 3 5
-13.636887 12.832786 3.6398726 49 13
-11.843064 11.152538 -0.85255283 16 6
-13.640041 12.849226 4.3262587 34 14
-12.462798 11.748455 -0.29895973 18 7
-13.657675 12.88385 5.0309248 3 15
-2.765712 2.6227279 -1.0213 15 0
-12.457748 11.817826 0.29972765 33 8
-3.1587977 2.9986341 -1.0055312 7 1
-13.0577 12.399956 0.94372207 39 9
-3.6831141 3.5000336 -0.98762739 7 2
-13.060535 12.420005 1.5768217 12 10
-4.4210563 4.2057014 -0.96645224 2 3
-13.05223 12.425127 2.2126598 47 11
-5.4732733 5.2139492 -0.92815697 5 4
-7.3521104 7.0111132 -0.88881427 3 5
-13.017187 12.422117 3.4975288 69 13
-11.693201 11.162556 -0.84721458 6 6
-12.990584 12.409739 4.1476479 47 14
-12.274959 11.734303 -0.29641169 10 7
-12.974879 12.407734 4.810411 45 15
-2.7450101 2.6388149 -1.0202647 20 0
-1.6270301 1.5651789 0.039407536 34 8
-3.1411216 3.0227683 -1.006431 7 1
-12.839897 12.364741 0.93419689 68 9
-3.6727257 3.5392854 -0.99144357 6 2
-12.805 12.344064 1.5560786 22 10
-4.3802123 4.225493 -0.96394926 1 3
-12.822352 12.378074 2.1882861 48 11
-5.4476523 5.2607369 -0.92986321 4 4
-12.815646 12.384569 2.8227038 45 12
-7.3330612 7.0913553 -0.89247483 2 5
-12.820861 12.402596 3.4673812 49 13
-11.564761 11.195296 -0.84355098 12 6
-12.860245 12.458092 4.1337008 40 14
-12.125872 11.750785 -0.29473624 13 7
-12.864367 12.475146 4.8016109 60 15
-2.7292881 2.6606107 -1.0213 24 0
-1.6461232 1.6058234 0.040140536 12 8
-3.1185484 3.0432622 -1.0059811 6 1
-1.6589957 1.6200769 0.1215241 42 9
-3.6619692 3.5785601 -0.99525976 5 2
-12.809693 12.522296 1.5672345 38 10
-4.3562551 4.2614937 -0.96520072 1 3
-12.788106 12.51867 2.1973045 44 11
-12.766965 12.511069 2.8311515 48 12
-7.3075581 7.166091 -0.89543808 3 5
-12.735362 12.493178 3.4677629 54 13
-1.5635306 1.534869 -0.11482509 34 6
-12.709011 12.484745 4.1130052 43 14
-11.963669 11.756664 -0.29278156 27 7
-12.673657 12.46306 4.7627883 59 15
-2.7216372 2.6904657 -1.0254411 25 0
-1.6377155 1.6200889 0.040210344 72 8
-3.09307 3.060848 -1.0046314 7 1
-12.837723 12.712859 0.94686222 60 9
-3.6271367 3.5943642 -0.9925884 2 2
-12.813931 12.702594 1.5785649 31 10
-12.787748 12.694348 2.2124164 44 11
-1.5466028 1.5358428 -0.26762509 8 4
-12.777396 12.697361 2.8530521 44 12
-1.55545 1.5467864 -0.19191694 7 5
-12.743873 12.677317 3.4940944 49 13
-11.446959 11.395127 -0.84648186 18 6
-12.708519 12.659816 4.1413493 42 14
-11.790649 11.749558 -0.29054767 25 7
-12.673884 12.638542 4.795917 52 15
-2.7041531 2.7107677 -1.0259588 21 0
-11.775621 11.812669 0.29114106 34 8
-3.0688758 3.0796056 -1.0037316 1 1
-12.778256 12.831889 0.94906032 13 9
-1.5136238 1.5210389 -0.41710848 9 2
-12.812057 12.879317 1.589372 15 10
-1.5082419 1.5172186 -0.33883709 50 3
-12.72959 12.814297 2.2177784 43 11
-1.5274503 1.5381511 -0.26616266 7 4
-12.746879 12.845144 2.8661926 13 12
-7.3021917 7.3636231 -0.90729129 3 5
-12.749044 12.860786 3.5200443 56 13
-11.30809 11.415169 -0.8420856 16 6
-12.707571 12.836861 4.1701427 41 14
-11.629567 11.75199 -0.28859299 27 7
-12.653264 12.795394 4.8217993 61 15
-2.6905816 2.7350891 -1.0280293 9 0
-11.58212 11.781934 0.28838354 17 8
-1.4601368 1.4858454 -0.48094535 61 1
-12.57781 12.808209 0.94079131 9 9
-1.480967 1.5091486 -0.41100258 28 2
-12.7609 13.00827 1.5942529 5 10
-12.563418 12.824862 2.2043729 39 11
-5.3069744 5.419301 -0.93132555 4 4
-12.681762 12.959235 2.8718245 12 12
-7.2825527 7.444488 -0.91112614 3 5
-12.577976 12.866649 3.4975288 52 13
-11.094138 11.356683 -0.83203709 15 6
-12.585862 12.888206 4.158895 31 14
-11.495563 11.77994 -0.28730151 26 7
-12.469213 12.786605 4.7855644 46 15
-1.4204535 1.4642594 -0.54662579 8 0
-11.461286 11.818864 0.28737134 19 8
-1.4551526 1.5016009 -0.48274496 37 1
-12.445869 12.847619 0.93744171 8 9
-3.5680923 3.6858449 -0.99716789 6 2
-12.560338 12.983913 1.5804822 7 10
-4.2541857 4.3991866 -0.96926802 2 3
-12.397203 12.828712 2.1904798 43 11
-5.2841783 5.4719276 -0.93400675 3 4
-12.476643 12.924451 2.8452306 10 12
-7.2718997 7.5381684 -0.91635549 3 5
-12.402007 12.865097 3.4734871 55 13
-11.074786 11.492337 -0.83643329 16 6
-12.410419 12.887325 4.1305513 32 14
-11.500403 11.95068 -0.28950053 27 7
-12.348407 12.836374 4.7726235 21 15
-1.4157969 1.479477 -0.5486964 55 0
-11.338412 11.856682 0.2863591 19 8
-3.0190697 3.1581707 -1.0086806 7 1
-12.405537 12.986189 0.94120997 9 9
-3.5341392 3.7021444 -0.99487817 5 2
-12.396014 12.989831 1.5708951 8 10
-4.2233696 4.4287796 -0.96926802 2 3
-12.226542 12.83016 2.1760993 48 11
-5.2454419 5.5063305 -0.93376297 4 4
-12.31256 12.933977 2.8283353 9 12
-7.2685351 7.640718 -0.92263067 3 5
-12.226208 12.856746 3.4486821 48 13
-10.794792 11.35944 -0.82125586 13 6
-12.250365 12.900172 4.1071563 33 14
-11.497265 12.111349 -0.29149011 25 7
-12.231901 12.89424 4.7622709 37 15
-2.6305475 2.7875667 -1.026994 7 0
-11.336308 12.021384 0.28841847 17 8
-2.9929368 3.1749172 -1.0073308 7 1
-12.24747 13.00124 0.93608105 11 9
-3.520319 3.7395928 -0.99831271 5 2
-12.232662 12.999151 1.5616566 7 10
-4.1950545 4.4610343 -0.96989381 2 3
-12.057828 12.831304 2.1619625 47 11
-5.2041545 5.5399227 -0.93327552 4 4
-12.196278 12.992259 2.822391 7 12
-7.2668123 7.7464952 -0.92925453 3 5
-12.067666 12.868749 3.4292192 56 13
-10.765753 11.488451 -0.82512879 15 6
-12.086749 12.907144 4.0824118 35 14
-11.497156 12.281835 -0.29365417 15 7
-12.070321 12.903135 4.7343183 45 15
-2.6097062 2.8044491 -1.0264764 7 0
-11.336533 12.191029 0.2905826 16 8
-2.9786601 3.2042978 -1.0100303 7 1
-11.953864 12.868396 0.9204849 6 9
-3.4901195 3.7597606 -0.99716789 5 2
-11.9058 12.830119 1.5313264 7 10
-4.1651525 4.4916596 -0.97020662 2 3
-11.897796 12.839453 2.1492879 48 11
-5.1653514 5.5761199 -0.93327552 4 4
-11.97109 12.932122 2.7911041 11 12
-7.2639685 7.8526154 -0.9358784 3 5
-11.90689 12.876285 3.4089937 52 13
-10.551096 11.418107 -0.81476623 13 6
-11.9157 12.903877 4.0549679 34 14
-11.341962 12.28686 -0.29187405 2 7
-11.909214 12.910408 4.7063656 51 15
-2.5848396 2.8169067 -1.0244058 7 0
-11.683626 12.741507 0.30175212 12 8
-2.9575343 3.2264512 -1.0104802 7 1
-11.762557 12.841075 0.91263455 4 9
-3.465112 3.7854826 -0.99754947 5 2
-11.755415 12.846776 1.5234824 5 10
-4.1536889 4.5424957 -0.97489971 2 3
-11.740914 12.848933 2.1371009 48 11
-5.1370087 5.6237688 -0.93522543 5 4
-11.807266 12.935141 2.7738962 7 12
-7.259994 7.9590693 -0.94250214 3 5
-11.754531 12.890917 3.3910577 56 13
-10.406558 11.420625 -0.80974203 16 6
-11.75185 12.90606 4.0297732 39 14
-11.36494 12.485526 -0.29470134 2 7
-11.738197 12.904633 4.6742721 56 15
-2.5625186 2.8320186 -1.0233705 7 0
-11.544768 12.767879 0.30046064 16 8
-2.9453914 3.2585857 -1.0140793 5 1
-11.620414 12.865073 0.90855229 4 9
-3.4372845 3.8081243 -0.99716789 5 2
-11.645421 12.906343 1.5208677 3 10
-4.1086469 4.5567126 -0.971771 2 3
-11.584074 12.851874 2.1244266 49 11
-5.1148934 5.6786695 -0.93839401 5 4
-11.624169 12.914476 2.7519956 8 12
-7.2349687 8.0408869 -0.94633704 3 5
-11.581554 12.880688 3.3670156 52 13
-10.327906 11.494486 -0.8098467 15 6
-11.605133 12.920511 4.0095277 34 14
-11.433776 12.738678 -0.29878521 10 7
-11.583002 12.90946 4.6473551 53 15
-2.5509002 2.858043 -1.0264764 7 0
-11.379062 12.758119 0.29840127 20 8
-2.9205489 3.2756498 -1.0131795 5 1
-11.507332 12.915541 0.90656352 8 9
-3.4230342 3.8446288 -1.0006025 7 2
-11.460603 12.876666 1.5081429 3 10
-4.0814748 4.5890012 -0.97270966 1 3
-11.427738 12.853285 2.1117523 49 11
-5.082715 5.7207727 -0.93961275 4 4
-11.462549 12.910579 2.7344749 8 12
-7.2329721 8.1495514 -0.95330954 3 5
-11.421963 12.878439 3.3460269 56 13
-10.11563 11.413551 -0.7992748 15 6
-11.444549 12.917521 3.9843328 45 14
-11.289805 12.751827 -0.29728428 11 7
-11.428284 12.912779 4.6204381 51 15
-2.5377707 2.8825896 -1.0290645 6 0
-11.224592 12.758707 0.29662108 19 8
-2.8956113 3.292526 -1.0122797 7 1
-11.328175 12.890055 0.89934111 6 9
-3.3980808 3.8693144 -1.0009841 5 2
-11.28725 12.857057 1.4968128 3 10
-4.0345111 4.5988574 -0.96895516 1 3
-11.256595 12.840201 2.0966403 45 11
-5.0331898 5.7432938 -0.93766278 5 4
-11.350979 12.961553 2.728843 6 12
-7.2415037 8.2748165 -0.96202505 3 5
-11.271989 12.88496 3.327709 56 13
-10.020618 11.462595 -0.79791403 15 6
-11.277164 12.909049 3.957339 42 14
-11.139609 12.756083 -0.29560888 11 7
-11.275616 12.920925 4.5950737 58 15
-2.5137854 2.8958597 -1.0275117 7 0
-11.048764 12.737062 0.29431736 20 8
-2.8763845 3.3170776 -1.0136294 6 1
-11.113656 12.825431 0.88939738 9 9
-3.3684144 3.8899748 -1.0002208 5 2
-11.194609 12.932527 1.496464 8 10
-4.0255675 4.6538043 -0.97458684 2 3
-11.110858 12.853896 2.0861595 49 11
-5.0007577 5.7873058 -0.93912524 4 4
-11.182753 12.950775 2.7100711 12 12
-7.2174001 8.3643904 -0.96655715 3 5
-11.12662 12.899416 3.3112993 58 13
-9.8503742 11.427888 -0.79069173 15 6
-11.123177 12.913638 3.9348438 40 14
-10.981129 12.753226 -0.2937589 12 7
-11.127175 12.931968 4.5712619 53 15
-2.4922502 2.9118717 -1.026994 7 0
-10.890689 12.733341 0.29246745 26 8
-2.8594882 3.3444846 -1.0158789 6 1
-11.118559 13.013553 0.8970384 9 9
-3.3386271 3.9104097 -0.9994576 5 2
-11.082067 12.984601 1.4935008 5 10
-3.9981093 4.6878047 -0.9758383 2 3
-10.96033 12.860147 2.0747037 45 11
-4.9731092 5.8371844 -0.94156259 5 4
-11.048528 12.977389 2.6994333 7 12
-7.2119536 8.4740114 -0.97352958 3 5
-10.971428 12.900507 3.291837 52 13
-9.7897539 11.519206 -0.79226178 11 6
-10.980762 12.925189 3.9154978 43 14
-10.825824 12.751832 -0.29197878 12 7
-10.962887 12.92242 4.5407214 54 15
-2.4668787 2.9232931 -1.0249234 7 0
-10.726399 12.715467 0.29037315 26 8
-2.8335593 3.3613844 -1.0149791 5 1
-10.978241 13.027843 0.89285153 9 9
-3.3169904 3.9390509 -1.0009841 5 2
-10.942399 13.00372 1.486877 6 10
-3.9521203 4.6982818 -0.97239673 2 3
-10.813789 12.864549 2.0634918 47 11
-4.9437256 5.8854437 -0.94375628 5 4
-10.877377 12.953959 2.6790969 9 12
-7.19872 8.5791025 -0.97980487 3 5
-10.81551 12.898555 3.2719929 57 13
-9.7059851 11.579453 -0.79184312 15 6
-10.833959 12.934304 3.8952522 42 14
-10.691612 12.77343 -0.29075709 20 7
-10.820126 12.931552 4.5179458 55 15
-2.4629891 2.9593201 -1.0316528 7 0
-10.568319 12.707019 0.28848827 33 8
-2.8155963 3.3865881 -1.0167787 5 1
-10.728758 12.913671 0.87987214 4 9
-3.2969344 3.9711754 -1.0032737 5 2
-10.795101 13.007377 1.4788586 7 10
-3.9204848 4.7272787 -0.97270966 2 3
-10.662913 12.866364 2.0517924 45 11
-4.9149504 5.932714 -0.94594997 4 4
-10.747626 12.982412 2.6693981 11 12
-7.1869149 8.6874828 -0.98642868 3 5
-10.662401 12.893203 3.2521486 52 13
-9.6490889 11.67618 -0.79383188 9 6
-10.687551 12.942013 3.8750072 43 14
-10.556049 12.787304 -0.28943074 23 7
-10.666885 12.930772 4.4915457 57 15
-2.4349165 2.9674823 -1.0285469 7 0
-10.418489 12.706266 0.28681284 39 8
-2.7906497 3.404655 -1.0163288 6 1
-10.669981 13.026887 0.88248903 9 9
-3.2716167 3.9971337 -1.0040369 3 2
-10.651038 13.017658 1.4715376 6 10
-3.8998902 4.7698269 -0.9758383 2 3
-10.51003 12.863629 2.0396054 47 11
-4.8683891 5.9607315 -0.94497496 5 4
-10.605518 12.994382 2.6565704 8 12
-7.2003856 8.8285408 -0.9967131 2 5
-10.522508 12.906462 3.2368839 60 13
-9.5660706 11.741714 -0.79372716 15 6
-10.529276 12.933187 3.8502624 42 14
-10.40845 12.789347 -0.28782508 11 7
-10.521508 12.937476 4.4682522 54 15
-2.4214301 2.9934206 -1.0316528 7 0
-10.280502 12.71804 0.28545156 50 8
-2.760689 3.416476 -1.0140793 5 1
-10.485924 12.98607 0.87474328 9 9
-3.2436318 4.0198765 -1.0040369 5 2
-10.409794 12.905605 1.4506202 5 10
-3.8801317 4.8138547 -0.97927988 2 3
-10.366425 12.870214 2.0291247 49 11
-4.8216772 5.9883895 -0.94400001 4 4
-10.457581 12.997311 2.6421785 7 12
-7.2013106 8.9534216 -1.0052543 3 5
-10.38049 12.915338 3.220856 52 13
-9.4788675 11.801979 -0.7933085 16 6
-10.386097 12.936177 3.8300166 43 14
-10.248838 12.77435 -0.28587043 12 7
-10.377762 12.944296 4.4454761 56 15
-2.3884284 2.9951479 -1.0264764 6 0
-10.136356 12.715794 0.28384593 48 8
-2.7391984 3.4387143 -1.0149791 5 1
-10.281582 12.911839 0.86500871 6 9
-3.2186391 4.0449347 -1.0048002 5 2
-10.264882 12.909349 1.4429505 5 10
-3.8558788 4.8509789 -0.98146993 1 3
-10.235366 12.886073 2.0205939 48 11
-4.798265 6.0452285 -0.9476561 5 4
-10.286604 12.964512 2.6212161 10 12
-7.185667 9.0628042 -1.0118781 4 5
-10.240084 12.924401 3.2052095 61 13
-9.3387928 11.791073 -0.78828424 16 6
-10.2399 12.938079 3.8093209 41 14
-10.106068 12.778145 -0.2843695 12 7
-10.231902 12.941894 4.420629 55 15
-2.3751521 3.0204465 -1.0295821 7 0
-9.9905033 12.713923 0.28224033 56 8
-2.7313788 3.4772005 -1.0208279 6 1
-10.165293 12.950311 0.86281061 8 9
-3.1975915 4.0765748 -1.00709 5 2
-10.12022 12.906796 1.4349321 6 10
-3.8170455 4.8715601 -0.98021847 2 3
-10.096204 12.894696 2.0108442 50 11
-4.7631226 6.0855651 -0.94887477 5 4
-10.162987 12.993999 2.6127689 5 12
-7.1565747 9.156703 -1.0167589 3 5
-10.085395 12.908715 3.1842208 54 13
-9.3361378 11.958312 -0.79508793 13 6
-10.10018 12.946259 3.7908752 39 14
-9.9708948 12.785142 -0.28300825 12 7
-10.086677 12.942918 4.3968182 59 15
-2.3646576 3.050698 -1.034241 7 0
-9.8439531 12.709051 0.2805998 53 8
-2.698684 3.4854 -1.0176786 6 1
-10.015976 12.945136 0.85778642 8 9
-3.1786628 4.1112227 -1.0101428 5 2
-10.018909 12.962943 1.4333633 7 10
-3.7781129 4.8918357 -0.97896701 2 3
-9.9452934 12.886292 1.9986575 48 11
-4.7362843 6.139102 -0.95204335 5 4
-9.9972458 12.967638 2.5933709 6 12
-7.1216574 9.2443228 -1.0209423 3 5
-9.9447174 12.91348 3.1681926 60 13
-9.3303823 12.1245 -0.8017869 13 6
-9.9596586 12.951573 3.7719796 41 14
-9.8363008 12.79578 -0.28171673 11 7
-9.9454689 12.947143 4.3745594 53 15
-2.3386123 3.0609903 -1.0321704 6 0
-9.7125168 12.721835 0.27937815 55 8
-2.6695583 3.4979579 -1.0158789 5 1
-9.8744841 12.948049 0.85339022 8 9
-3.1570232 4.1426826 -1.0124326 5 2
-9.8617544 12.945408 1.4237761 7 10
-3.7474587 4.9228082 -0.97990561 2 3
-9.795002 12.876408 1.9864705 50 11
-4.6873021 6.1641173 -0.95082474 4 4
-9.9184284 13.052839 2.5964997 7 12
-7.1200309 9.3734999 -1.0298322 4 5
-9.8009138 12.912216 3.1510198 55 13
-9.042737 11.922006 -0.7842021 9 6
-9.8147545 12.94453 3.7503841 41 14
-9.70084 12.803571 -0.28039035 11 7
-9.8070278 12.953113 4.3533368 59 15
-2.3195095 3.0803287 -1.0332056 6 0
-9.58601 12.734927 0.27822626 57 8
-2.6497586 3.5227387 -1.0176786 5 1
-9.6865015 12.882462 0.84470242 9 9
-3.1145978 4.1452427 -1.0078532 3 2
-9.7017612 12.921526 1.4136661 6 10
-3.7197921 4.9561014 -0.98146993 1 3
-9.6642494 12.885611 1.9776958 46 11
-4.6513009 6.2062197 -0.95228714 5 4
-9.7665777 13.036262 2.5799174 8 12
-7.0914373 9.4724178 -1.0352359 3 5
-9.6693649 12.925309 3.1376631 59 13
-8.9733429 11.999271 -0.78524876 15 6
-9.6739836 12.945609 3.7310381 43 14
-9.556181 12.79728 -0.27878475 11 7
-9.6724072 12.957643 4.3326311 59 15
-2.2961857 3.0929437 -1.0321704 6 0
-9.4504042 12.738907 0.27686498 53 8
-2.6303618 3.5469546 -1.0194782 5 1
-9.5963278 12.949772 0.84470242 8 9
-3.0879214 4.1700397 -1.0086164 3 2
-9.5448294 12.894383 1.403556 3 10
-3.7074234 5.0121226 -0.98741448 2 3
-9.5339375 12.89849 1.9694086 51 11
-4.613667 6.244122 -0.95326209 4 4
-9.626049 13.037383 2.566777 7 12
-7.0476046 9.5521603 -1.0385478 4 5
-9.5345535 12.927621 3.1223984 61 13
-9.2317934 12.52628 -0.81549895 11 6
-9.5383081 12.951631 3.7134922 42 14
-9.4214296 12.797617 -0.27738854 10 7
-9.5302019 12.954823 4.3093376 57 15
-2.2711146 3.1042211 -1.0306175 7 0
-9.3140316 12.74 0.27546877 57 8
-2.6216333 3.5872591 -1.0257769 5 1
-9.4456139 12.93419 0.83936411 4 9
-3.0656776 4.2010112 -1.0109061 5 2
-9.4815836 12.997727 1.4075652 7 10
-3.6583786 5.0187273 -0.98365998 2 3
-9.402751 12.908577 1.9608778 54 11
-4.5711308 6.2777839 -0.95350581 4 4
-9.449954 12.987664 2.5439377 7 12
-7.0252733 9.6623611 -1.0451716 3 5
-9.392128 12.922405 3.1052256 57 13
-8.4293537 11.606263 -0.75175375 3 6
-9.4041548 12.957976 3.6963959 41 14
-9.2895889 12.804803 -0.27613199 11 7
-9.3884974 12.950661 4.2860436 60 15
-2.2516477 3.1231353 -1.0316528 6 0
-9.1757698 12.73657 0.27400279 57 8
-2.5851371 3.5896606 -1.0212778 5 1
-9.3889189 13.046831 0.84239966 9 9
-3.0454438 4.2350626 -1.0139591 3 2
-9.3475819 13.003744 1.4011157 8 10
-3.6301668 5.0537715 -0.98553723 2 3
-9.2626286 12.904562 1.9503973 48 11
-4.5364504 6.3224463 -0.95545572 3 4
-9.3233719 13.003554 2.5342386 7 12
-6.9912977 9.7581396 -1.0502267 2 5
-9.2559586 12.923816 3.0899611 63 13
-8.3760185 11.70381 -0.75426584 1 6
-9.2715273 12.964663 3.6797495 45 14
-9.1732206 12.83193 -0.27532917 21 7
-9.2551899 12.95615 4.2663736 56 15
-2.2309077 3.1403534 -1.0321704 7 0
-9.0495872 12.748137 0.27288583 57 8
-2.562269 3.6107991 -1.0221776 5 1
-9.1601286 12.918181 0.82994366 9 9
-3.0203433 4.2626281 -1.0154855 5 2
-9.223175 13.021537 1.3960607 7 10
-3.5936556 5.0773797 -0.98522437 2 3
-9.123023 12.899221 1.9399164 49 11
-4.4910545 6.3523417 -0.955212 4 4
-9.1685333 12.977979 2.5167181 7 12
-6.9770083 9.8832121 -1.0584193 4 5
-9.1281538 12.935184 3.0773675 60 13
-8.6601248 12.281055 -0.78755152 16 6
-9.1291552 12.955795 3.6590538 44 14
-8.7586775 12.434632 -0.265486 28 7
-9.1211472 12.958835 4.2461853 62 15
-2.2188995 3.1700952 -1.0368291 6 0
-8.6979055 12.435753 0.26489261 56 8
-2.5459318 3.6413758 -1.0257769 5 1
-8.6911001 12.439884 0.79529727 43 9
-2.9882636 4.2803907 -1.0147223 5 2
-8.6919165 12.454938 1.3287764 12 10
-3.5626404 5.1088252 -0.98647583 2 3
-8.9930248 12.905594 1.9313855 44 11
-4.4534054 6.3933139 -0.95667446 4 4
-9.0607786 13.01735 2.5120249 8 12
-6.9624481 10.010191 -1.0667863 3 5
-8.9995213 12.943792 3.0643928 60 13
-8.2778854 11.914751 -0.76033688 5 6
-8.9940319 12.955181 3.6410577 46 14
-8.6135073 12.411691 -0.26370585 7 7
-8.9952288 12.971398 4.2296209 62 15
-2.1989093 3.1886888 -1.0378644 7 0
-8.5291862 12.377612 0.26237947 45 8
-2.5182388 3.6558502 -1.024877 5 1
-8.5281754 12.390023 0.78828424 27 9
-2.9605329 4.3043833 -1.0154855 5 2
-8.5663795 12.459491 1.3228499 6 10
-3.5391915 5.1514826 -0.9899174 2 3
-8.5813837 12.500009 1.8616763 29 11
-4.413156 6.4307957 -0.95764935 4 4
-6.9329371 10.117722 -1.0730615 4 5
-8.5705538 12.512292 2.9479992 58 13
-8.324235 12.16179 -0.77237409 11 6
-8.5667276 12.525452 3.5033877 47 14
-8.5063334 12.441809 -0.26307756 32 7
-8.5546379 12.521841 4.0634594 55 15
-2.1657386 3.1879826 -1.032688 6 0
-8.4436836 12.438515 0.26241437 57 8
-2.5057855 3.6926923 -1.0302758 5 1
-8.4571562 12.472407 0.78974968 58 9
-2.9348178 4.3314471 -1.017012 5 2
-8.4858856 12.528893 1.3238957 20 10
-3.4942861 5.1629763 -0.98741448 2 3
-8.5039167 12.574412 1.8638699 28 11
-4.363709 6.4548683 -0.95667446 4 4
-6.9290156 10.264958 -1.0835202 7 5
-7.7411389 11.481033 -0.72569048 20 6
-8.3768177 12.437864 -0.2617512 66 7
-2.1509502 3.2142632 -1.0363115 6 0
-8.3399754 12.472221 0.2618908 49 8
-2.4799447 3.7100959 -1.0302758 5 1
-8.3377104 12.482976 0.78671414 69 9
-2.9164956 4.3697929 -1.0212098 5 2
-8.3186026 12.468496 1.3113452 45 10
-3.4614415 5.1921778 -0.98835307 2 3
-8.3135719 12.479832 1.8412023 49 11
-4.3339396 6.5083094 -0.96008676 4 4
-6.8924894 10.36617 -1.0890981 27 5
-8.3282089 12.539699 -0.78891224 15 6
-8.3572197 12.597687 -0.2638804 36 7
-2.128458 3.2292013 -1.0363115 6 0
-8.3406916 12.663742 0.26468319 37 8
-2.4475532 3.7175529 -1.0275764 5 1
-8.3250046 12.654343 0.79383188 37 9
-2.8848391 4.3884072 -1.0208282 5 2
-8.3123207 12.649482 1.3242444 23 10
-3.4207747 5.2096105 -0.98710161 2 3
-8.2828779 12.623868 1.8538766 35 11
-4.2851343 6.5334253 -0.95935553 4 4
-8.271493 12.620919 2.3900061 30 12
-6.8439612 10.450709 -1.0929331 32 5
-8.2399721 12.587193 2.9243388 39 13
-7.9004292 12.077725 -0.75635934 9 6
-8.2257662 12.584668 3.4709947 36 14
-8.3653145 12.803042 -0.26695201 37 7
-8.201808 12.56237 4.0199776 46 15
-2.1121733 3.2537043 -1.0394174 6 0
-8.2781963 12.761928 0.2655209 56 8
-2.4300218 3.7476299 -1.0311756 5 1
-8.3211679 12.842895 0.80199623 35 9
-2.8551991 4.4100881 -1.0212098 6 2
-8.3158216 12.84938 1.3390608 24 10
-3.4014845 5.2599049 -0.99210751 2 3
-8.293663 12.834777 1.8763006 33 11
-4.2555747 6.5881944 -0.96301162 4 4
-8.2710218 12.814451 2.4156613 30 12
-6.8215938 10.576926 -1.1011256 7 5
-8.2497654 12.796217 2.9594479 41 13
-7.6071677 11.808533 -0.73615766 3 6
-8.2252617 12.777787 3.5083365 34 14
-8.256258 12.830858 -0.26632375 10 7
-8.2048035 12.760694 4.065012 45 15
-2.0837321 3.2582412 -1.0363115 7 0
-8.167448 12.78091 0.26475301 63 8
-2.4023583 3.7607994 -1.0302758 5 1
-8.2561226 12.934592 0.80419439 11 9
-2.8261697 4.4310756 -1.0215914 5 2
-8.2785082 12.984647 1.3472534 12 10
-3.3666637 5.2846022 -0.99242038 2 3
-8.2412853 12.946194 1.884344 52 11
-4.231946 6.6505036 -0.96788639 4 4
-8.2397804 12.958801 2.4322433 8 12
-6.8987823 10.85398 -1.1251806 7 5
-8.2582541 13.002885 2.994175 39 13
-8.1344786 12.817882 -0.79561126 11 6
-8.2374125 12.985101 3.5501776 49 14
-8.137681 12.837779 -0.26531148 14 7
-8.2066603 12.956597 4.109529 54 15
-2.0640244 3.2776122 -1.0378644 7 0
-8.0387154 12.770206 0.26339173 60 8
-2.3801947 3.7840776 -1.0320754 5 1
-8.2412434 13.107157 0.81141675 9 9
-2.798032 4.4535351 -1.0223546 3 2
-8.151638 12.984752 1.3413268 3 10
-3.3379645 5.319108 -0.99461043 1 3
-8.1181717 12.946491 1.8763006 46 11
-4.208601 6.7168941 -0.97324866 4 4
-8.1996145 13.091597 2.4466352 6 12
-6.9401646 11.089348 -1.1445292 9 5
-8.1308422 13.001963 2.9808183 18 13
-8.019516 12.828921 -0.79288983 15 6
-8.1186895 12.997663 3.5380301 48 14
-8.0118599 12.836601 -0.26412472 11 7
-8.0998707 12.982656 4.1002116 62 15
-2.0437033 3.2948692 -1.0388998 7 0
-7.9167156 12.773322 0.26230967 61 8
-2.3584871 3.8068175 -1.033875 5 1
-8.1295624 13.132105 0.80942798 11 9
-2.7710035 4.4796391 -1.0238811 5 2
-8.1049776 13.107721 1.3482993 9 10
-3.2955573 5.3338799 -0.99304616 2 3
-7.9921341 12.94542 1.8680135 46 11
-4.1763358 6.7673459 -0.97641724 4 4
-8.0520296 13.057728 2.4297404 8 12
-6.858397 11.130743 -1.143832 7 5
-7.9978805 12.985126 2.9644089 18 13
-7.8952117 12.828464 -0.78943563 16 6
-8.0012093 13.010865 3.5263326 45 14
-7.8970704 12.846546 -0.26321721 11 7
-7.9837594 12.997734 4.0872707 60 15
-2.0236697 3.3140037 -1.0404526 6 0
-7.8023448 12.787314 0.26147196 63 8
-2.3257647 3.8132079 -1.0311756 5 1
-7.9825969 13.09815 0.80388033 13 9
-2.7519178 4.5189958 -1.0284605 3 2
-7.990479 13.126543 1.3444644 9 10
-3.2695341 5.37532 -0.99648768 2 3
-7.8675408 12.944921 1.8599701 41 11
-4.1351733 6.8065166 -0.97787964 3 4
-7.9627237 13.117001 2.4303663 9 12
-6.7918887 11.197092 -1.1457494 8 5
-7.8744588 12.986925 2.9521971 9 13
-7.2983437 12.046251 -0.73814642 1 6
-7.867795 12.996391 3.507437 47 14
-7.7750969 12.848329 -0.26213515 11 7
-7.8638353 13.005214 4.0722589 62 15
-2.0044668 3.3346727 -1.0425231 6 0
-7.6799407 12.786614 0.260355 61 8
-2.3061101 3.8410456 -1.0343249 4 1
-7.8714447 13.121014 0.80189157 9 9
-2.7182808 4.5347309 -1.0276973 3 2
-7.8279901 13.064079 1.332437 2 10
-3.2359838 5.4047952 -0.99773914 1 3
-7.7545547 12.962054 1.8546078 30 11
-4.1038561 6.8624797 -0.98177958 4 4
-7.7676034 12.999309 2.3984535 5 12
-6.7185798 11.248195 -1.1462723 9 5
-7.7554293 12.994379 2.9415116 9 13
-7.6294026 12.793352 -0.78064317 9 6
-7.745223 12.992732 3.4921403 48 14
-7.65451 12.850756 -0.26108801 11 7
-7.746172 13.014974 4.0582829 60 15
-1.9781867 3.3435974 -1.0409703 6 0
-7.5652423 12.792119 0.25941256 57 8
-2.2822127 3.8620851 -1.0356746 5 1
-7.7656975 13.146776 0.80021685 13 9
-2.6793702 4.5396018 -1.0246444 3 2
-7.7386127 13.121847 1.3327856 9 10
-3.1971154 5.4232917 -0.99711335 2 3
-7.6449871 12.978619 1.8494893 24 11
-4.0739737 6.9217534 -0.98616678 3 4
-7.7160029 13.114875 2.4100296 4 12
-6.6257586 11.270776 -1.143832 15 5
-7.6386685 13.004193 2.9315896 9 13
-6.9171662 11.780603 -0.71595591 5 6
-7.6296744 13.004467 3.4808927 46 14
-7.5342684 12.852128 -0.26004085 11 7
-7.6183343 13.00073 4.0375772 60 15
-1.9582987 3.3619931 -1.0425231 6 0
-7.4485927 12.79796 0.25847015 63 8
-2.2627311 3.8893209 -1.038824 5 1
-7.565321 13.014185 0.78891224 11 9
-2.659445 4.578568 -1.0292237 3 2
-7.6251116 13.132862 1.3286021 7 10
-3.1641324 5.4540229 -0.99867773 2 3
-7.5392671 13.00591 1.8458333 18 11
-4.0335083 6.9637709 -0.98811674 3 4
-7.5965476 13.120552 2.4012692 4 12
-6.0909581 10.528624 -1.0641717 5 5
-7.5074124 12.987514 2.9159431 9 13
-6.7128477 11.61763 -0.70318598 7 6
-7.506546 13.001722 3.4660459 48 14
-7.417387 12.857642 -0.25909844 12 7
-7.498435 13.003392 4.022048 60 15
-1.9313096 3.3708916 -1.0409703 6 0
-7.3272634 12.794121 0.25735319 63 8
-2.2338741 3.903722 -1.0383741 5 1
-7.4402757 13.012506 0.78556281 6 9
-2.633261 4.6072497 -1.0315135 3 2
-7.401505 12.960442 1.3057673 2 10
-3.1299186 5.4851046 -1.0002421 1 3
-7.4177947 13.004773 1.8382773 15 11
-3.9956088 7.0107293 -0.99079782 4 4
-7.4467463 13.076733 2.3834357 5 12
-6.012382 10.562228 -1.0633 2 5
-7.3903594 12.993531 2.9056394 9 13
-6.623621 11.654949 -0.70255798 1 6
-7.3944235 13.01653 3.4561479 51 14
-7.3067074 12.872596 -0.25836542 16 7
-7.3766079 13.006301 4.0065188 60 15
-1.9153183 3.3977554 -1.0451113 6 0
-7.2051015 12.792213 0.25627115 60 8
-2.2036982 3.9141278 -1.0370244 5 1
-7.3316231 13.032799 0.78367871 9 9
-2.603111 4.6311092 -1.0326583 3 2
-7.3293867 13.044801 1.3090792 6 10
-3.0915492 5.5068216 -1.0002421 2 3
-7.2983232 13.010775 1.8316964 15 11
-3.9621015 7.0661569 -0.99469769 4 4
-7.3311338 13.085318 2.3756142 6 12
-5.9404449 10.607422 -1.0636487 7 5
-7.287004 13.022536 2.9006784 10 13
-6.5547695 11.723567 -0.7039187 3 6
-7.2672439 13.003194 3.4390519 49 14
-7.1903439 12.876149 -0.25742301 14 7
-7.2620945 13.015307 3.993578 62 15
-1.890614 3.4093547 -1.0445937 6 0
-7.0965319 12.802483 0.25550324 60 8
-2.1791513 3.9345315 -1.0383741 5 1
-7.1817966 12.972318 0.77708435 6 9
-2.5743787 4.6538749 -1.0338032 5 2
-7.213079 13.050314 1.3045471 5 10
-3.0654566 5.5484858 -1.0039965 1 3
-7.1846495 13.014968 1.8253592 13 11
-3.931849 7.1284103 -0.99957246 4 4
-7.2037449 13.065722 2.3630993 7 12
-6.2238741 11.297815 -1.1284926 9 5
-7.1987524 13.078252 2.9018235 14 13
-6.679893 12.140635 -0.72621381 7 6
-7.1518784 13.009212 3.4273543 51 14
-7.0656166 12.862936 -0.25616643 12 7
-7.1538076 13.028876 3.9827075 66 15
-1.8655143 3.4187524 -1.0435584 6 0
-6.9878364 12.816601 0.25480512 67 8
-2.1513886 3.947561 -1.0379242 5 1
-7.0834169 13.008107 0.77624696 4 9
-2.5343196 4.657938 -1.0307503 3 2
-7.0603037 12.98184 1.2928683 3 10
-3.0228736 5.562809 -1.002745 1 3
-7.062355 13.007239 1.8173158 11 11
-3.8983867 7.1829233 -1.0034722 4 4
-7.0624456 13.023663 2.3465173 6 12
-6.1201701 11.295444 -1.1239605 12 5
-7.0936699 13.097602 2.8953359 15 13
-6.5883188 12.174678 -0.72548109 3 6
-7.0386372 13.017683 3.4165566 52 14
-6.9541278 12.866753 -0.25529379 11 7
-7.0305467 13.019008 3.9645903 60 15
-1.8415999 3.4316936 -1.0435584 6 0
-6.8689017 12.810437 0.25372308 63 8
-2.1302192 3.9745088 -1.0410734 5 1
-6.9773445 13.029072 0.77457225 9 9
-2.4998868 4.6720552 -1.029987 2 2
-6.9403715 12.976351 1.2874646 5 10
-2.9867573 5.5890036 -1.0036837 2 3
-6.943325 13.003693 1.8100036 10 11
-3.8593614 7.2309794 -1.0063971 4 4
-6.9304523 12.995956 2.332751 6 12
-6.0205522 11.299212 -1.1201255 10 5
-6.9752946 13.096555 2.884269 13 13
-6.4994102 12.213325 -0.72506243 11 6
-6.9183092 13.011445 3.4021597 50 14
-6.8444233 12.877907 -0.2545608 11 7
-6.9132104 13.018294 3.949579 60 15
-1.82391 3.4564257 -1.0471818 6 0
-6.752254 12.806781 0.25271085 57 8
-2.1042392 3.9927306 -1.0419734 5 1
-6.8694644 13.045655 0.77268815 6 9
-2.4736073 4.7015557 -1.0326583 2 2
-6.8607388 13.045649 1.2895564 4 10
-2.9449093 5.6044731 -1.002745 1 3
-6.8163919 12.983301 1.8004979 8 11
-3.8143203 7.2682934 -1.0078596 4 4
-6.8102002 12.98804 2.3227391 5 12
-5.9156327 11.291552 -1.1152449 14 5
-6.8591022 13.097973 2.8739653 7 13
-6.2084279 11.865538 -0.70182526 5 6
-6.8074412 13.021434 3.392262 49 14
-6.7293458 12.877523 -0.25361836 11 7
-6.8042746 13.031989 3.9392259 66 15
-1.7979542 3.4656463 -1.0461466 6 0
-6.6433554 12.816325 0.25197786 61 8
-2.0736217 4.0021338 -1.0406237 4 1
-6.736908 13.013477 0.76797789 14 9
-2.4407263 4.718709 -1.0326583 2 2
-6.7255802 13.008272 1.2811894 9 10
-2.9057138 5.6248946 -1.002745 2 3
-6.6937127 12.968835 1.7919669 8 11
-3.7698598 7.3070922 -1.0095657 3 4
-6.7003536 12.998395 2.316169 6 12
-5.8202381 11.300693 -1.1121073 14 5
-6.7441301 13.100157 2.8640432 5 13
-6.2670417 12.183883 -0.71804935 11 6
-6.6878705 13.013174 3.3778651 47 14
-6.6228323 12.892173 -0.25299007 11 7
-6.6848998 13.024179 3.9226618 63 15
-1.7842488 3.4987645 -1.0523583 6 0
-6.5373778 12.830321 0.25134957 61 8
-2.0518241 4.0286674 -1.0437729 5 1
-6.7020516 13.170554 0.77446753 9 9
-2.4157321 4.7513843 -1.0360929 3 2
-6.6905661 13.165031 1.2919967 7 10
-2.8860466 5.6837935 -1.0096282 1 3
-6.5769711 12.963909 1.7848985 7 11
-3.7402992 7.3757262 -1.0154155 4 4
-6.5790954 12.984941 2.3055315 6 12
-5.7296791 11.313388 -1.1094925 14 5
-6.642765 13.127647 2.8598454 15 13
-6.1061335 12.077616 -0.70925695 3 6
-6.5780425 13.016653 3.3670673 52 14
-6.5029235 12.879189 -0.25183821 11 7
-6.5764084 13.036034 3.9123089 66 15
-1.7537202 3.4990463 -1.0487348 6 0
-6.4301882 12.83519 0.25058165 63 8
-2.0210316 4.0376658 -1.0424232 5 1
-6.5344982 13.060472 0.76536107 4 9
-2.3789451 4.7589369 -1.0341848 2 2
-6.5646653 13.143688 1.2853729 4 10
-2.8455293 5.6997705 -1.0090024 1 3
-6.4699688 12.971073 1.77978 7 11
-3.7117403 7.4478502 -1.0217527 4 4
-6.4658952 12.979916 2.296771 6 12
