# .PCD v0.7 - Point Cloud Data file format
VERSION 0.7
FIELDS x y z intensity ring
SIZE 4 4 4 4 2
TYPE F F F F U
COUNT 1 1 1 1 1
WIDTH 1265
HEIGHT 1
VIEWPOINT 0 0 0 1 0 0 0
POINTS 1265
DATA ascii
1.570726 -4.6405091 1.1310539 5 14
1.5614588 -4.6184397 -0.085097939 2 7
1.5674998 -4.641645 1.3127302 1 15
1.5583633 -4.6574564 0.085726224 10 8
1.5362183 -4.5966034 -1.1189066 2 1
1.5458032 -4.6279693 0.25571349 1 9
1.5644964 -4.6893811 -0.96091413 1 2
1.5495185 -4.6498947 0.42880625 10 10
1.5495634 -4.6581588 0.6027658 4 11
1.5491892 -4.662467 -0.6032533 0 4
1.5451553 -4.6530399 0.77654076 5 12
1.5380065 -4.6369252 -0.42741176 6 5
1.5484966 -4.6740108 0.95709801 7 13
1.5405873 -4.6528573 -0.25686491 2 6
1.542574 -4.6643128 1.1342032 3 14
1.5279239 -4.6254301 -0.085028127 3 7
1.5455589 -4.6815586 1.3210124 1 15
1.5220826 -4.6568179 0.085516788 7 8
1.510341 -4.6236248 -1.1229557 2 1
1.5153147 -4.6443448 0.25602752 1 9
1.53172 -4.7001891 -0.96091413 1 2
1.5159812 -4.6546507 0.4282833 10 10
1.520686 -4.680191 0.60422826 4 11
1.5247741 -4.6955609 -0.60617816 0 4
1.5150709 -4.6712294 0.77779222 3 12
1.5105104 -4.6627121 -0.42880625 5 5
1.515437 -4.6807075 0.95633471 6 13
1.5037649 -4.6501961 -0.25613219 1 6
1.5153646 -4.691658 1.1382524 1 14
1.5000899 -4.6471415 -0.085237555 3 7
1.5199521 -4.7142982 1.3272241 1 15
1.4913592 -4.6730452 0.085621506 8 8
1.4673665 -4.6006379 -1.1148574 2 1
1.4870977 -4.6681314 0.25676021 1 9
1.4988693 -4.7107677 -0.96091413 1 2
1.4864676 -4.674614 0.42915487 7 10
1.4819734 -4.6717715 0.60179085 3 11
1.4848078 -4.6892262 0.77904367 3 12
1.4821272 -4.6864409 -0.43002641 5 5
1.4803557 -4.6836848 0.95480824 6 13
1.4724674 -4.6643901 -0.25634155 1 6
1.4790578 -4.6909719 1.135553 1 14
1.4706151 -4.667037 -0.085412078 2 7
1.4870028 -4.7247949 1.3272241 1 15
1.4586995 -4.6833429 0.085621506 7 8
1.4311578 -4.5977449 -1.1117082 1 1
1.4521008 -4.6707706 0.25634155 1 9
1.465946 -4.721117 -0.96091413 1 2
1.4508439 -4.6753631 0.4282833 6 10
1.4493227 -4.6820035 0.60179085 1 11
1.4520353 -4.6994777 0.77904367 2 12
1.4531325 -4.7059402 -0.43089798 3 5
1.4482006 -4.6957817 0.95518982 5 13
1.4402136 -4.6785803 1.1301541 1 14
1.4539814 -4.7350612 1.3272241 1 15
1.4244606 -4.6855111 0.08548189 6 8
1.4058187 -4.6300001 -1.1171069 0 1
1.4199011 -4.6910987 0.42880625 5 10
1.4151239 -4.6841593 0.60081595 1 11
1.4183023 -4.7035785 0.77810514 1 12
1.4162222 -4.7026157 -0.42967781 3 5
1.413686 -4.7001371 0.954045 2 13
1.4063953 -4.6847882 1.1292543 0 14
1.4217176 -4.7448483 1.3272241 1 15
1.3911465 -4.6934242 0.085446984 2 8
1.3753781 -4.643199 -1.1180067 0 1
1.3817308 -4.6796365 0.42688882 4 10
1.3807055 -4.6882119 0.60008472 0 11
1.3804182 -4.6963086 0.7752893 0 12
1.3864259 -4.7197933 -0.43037504 1 5
1.3777922 -4.6964636 0.9513737 1 13
1.3717362 -4.6849012 1.1270047 1 14
1.3569468 -4.6950998 0.08530736 1 8
1.3537374 -4.690134 -1.1270047 0 1
1.3451715 -4.675765 0.42566866 4 10
1.3465704 -4.6898694 0.59910977 0 11
1.3478748 -4.7036972 0.77497649 0 12
1.3441234 -4.696794 -0.42741176 0 5
1.3422744 -4.6965299 0.94946563 1 13
1.3416692 -4.7037339 1.1292543 1 14
1.3143835 -4.6698108 0.084679075 1 8
1.3106244 -4.6752205 0.42479706 3 10
1.3202106 -4.7220969 0.60203457 0 11
1.3181902 -4.7244081 0.77685362 0 12
1.3113006 -4.7060628 -0.42741176 0 5
1.3092222 -4.7017751 0.94870234 1 13
1.3093201 -4.7148633 1.1297042 0 14
1.2865058 -4.6962309 0.084993221 1 8
1.280051 -4.6919456 0.42549434 1 10
1.290869 -4.7544656 0.78029525 0 12
1.2748255 -4.7051153 0.94755751 0 13
1.2784055 -4.7314138 1.1315038 0 14
1.2513521 -4.7161736 0.42688882 1 10
1.2576451 -4.7633619 0.78029525 0 12
1.2559515 -4.7670579 0.95824283 0 13
1.2364305 -4.7062979 1.1234056 0 14
1.2193915 -4.7286534 0.42723745 0 10
1.22436 -4.7720261 0.78029525 0 12
1.2158239 -4.7490835 0.95290023 0 13
1.211256 -4.7450256 1.1306039 0 14
1.1750613 -4.7269711 0.94679433 0 13
1.1724745 -4.7306681 1.1252052 0 14
1.1392714 -4.723608 0.94450456 0 13
1.149443 -4.7804222 1.135103 0 14
1.1098425 -4.7467399 0.94755751 0 13
1.1097949 -4.757771 1.1279047 0 14
1.0749425 -4.7467132 0.94603103 0 13
1.0688226 -4.7311878 1.1198063 0 14
1.0451318 -4.7654266 0.94832075 0 13
1.0465863 -4.7880325 1.1315038 0 14
1.0228027 -4.840982 1.1423014 0 14
1.0099943 -4.933423 0.97885019 0 13
0.98898131 -4.8480043 1.1423014 0 14
0.95511234 -4.8547907 1.1423014 0 14
0.20187338 -4.8570666 -0.084853604 6 7
-0.90573359 -4.0990396 -1.1248276 2 0
-1.0270798 -4.6366868 -1.0964113 0 1
-2.9184756 -12.981992 3.0719316 1 14
-0.93146527 -4.0833626 -1.1222395 2 0
-1.0490599 -4.5877953 -1.0865136 0 1
-1.2721194 -5.5454712 -1.105929 2 2
-3.6430933 -15.704919 3.7220402 1 14
-0.95463645 -4.0541949 -1.1160278 2 0
-1.0712149 -4.5386333 -1.0766158 1 1
-1.3053172 -5.5175786 -1.1021129 1 2
-3.7572751 -15.734841 3.1445324 1 13
-3.4255967 -14.312654 3.3976607 1 14
-0.9835766 -4.0532355 -1.1175808 2 0
-1.0956355 -4.5047278 -1.0703171 1 1
-1.3354297 -5.4739995 -1.0952437 2 2
-2.3926718 -9.7265549 1.947015 6 13
-3.8522835 -15.624814 3.7152915 1 14
-1.0141929 -4.0556407 -1.1201688 5 0
-1.1109501 -4.4326992 -1.0550205 1 1
-1.3760065 -5.4781117 -1.0979151 2 2
-3.6150591 -14.265635 2.8606086 1 13
-3.9315286 -15.480434 3.6873975 4 14
-3.7001162 -14.537332 4.0194597 1 15
-1.0379236 -4.0336761 -1.1160278 5 0
-1.130391 -4.3835206 -1.0451226 6 1
-1.1649965 -4.5047069 -0.90443468 7 2
-2.3883622 -9.1822033 1.5027097 4 12
-2.3543365 -9.0449104 -0.81769514 4 5
-2.1962476 -8.4254932 1.6924759 11 13
-3.6107676 -13.822383 3.2982323 1 14
-3.8073888 -14.533571 4.0256715 4 15
-1.0685303 -4.0356688 -1.1186159 6 0
-2.485528 -9.380826 0.16939306 10 8
-1.1524701 -4.3435016 -1.0374742 6 1
-1.1830194 -4.4492388 -0.89489418 12 2
-2.2879331 -8.5926504 0.77795213 9 10
-1.1921594 -4.4741793 -0.73336488 9 3
-1.1945 -4.4704156 -0.56815493 28 4
-2.4849958 -9.2935915 1.5236719 7 12
-2.3952653 -8.9454966 -0.8101998 3 5
-3.7526898 -13.966218 3.3387237 1 14
-4.9163113 -18.258663 5.0666418 1 15
-1.0929327 -4.0171185 -1.1155102 6 0
-2.538868 -9.3188696 0.16859025 7 8
-1.1722692 -4.2998343 -1.0289261 6 1
-1.2047333 -4.4067841 -0.8880251 17 2
-2.3321729 -8.524991 0.77324575 8 10
-1.2160592 -4.439075 -0.72898471 12 3
-2.5095003 -9.1293526 1.499581 9 12
-3.7756462 -13.707401 2.7636778 6 13
-4.7244225 -17.116896 4.0995078 1 14
-5.0627251 -18.292788 5.0857944 2 15
-1.1188695 -4.0019479 -1.1134396 6 0
-2.5618322 -9.1569405 0.16597238 9 8
-1.1959503 -4.2690272 -1.0235273 18 1
-1.2331092 -4.3928113 -0.88688028 26 2
-2.3657525 -8.4164343 0.76487875 10 10
-1.2392931 -4.4059739 -0.72491741 21 3
-2.5363827 -9.0053673 1.1487405 5 11
-2.5807035 -9.1443796 1.5048997 6 12
-2.3915997 -8.4517384 1.7073588 9 13
-4.3813248 -15.45239 3.7080932 1 14
-4.3703823 -15.383096 4.2850084 1 15
-1.1503462 -4.0090947 -1.1175808 4 0
-2.577656 -8.9716244 0.16293567 7 8
-1.2249811 -4.260788 -1.0235273 10 1
-1.2664649 -4.3935275 -0.88878828 27 2
-2.6057589 -9.0337839 0.82257593 10 10
-1.2744074 -4.4123969 -0.72742033 13 3
-2.585954 -8.9416733 1.1428908 5 11
-1.2857559 -4.4429617 -0.56791121 167 4
-2.5576138 -8.8263617 1.4554665 8 12
-3.9401951 -13.571084 2.7468865 30 13
-2.5028524 -8.6092644 -0.46987227 7 6
-4.1546721 -14.272583 3.4318533 6 14
-4.4836159 -15.372611 4.2907023 2 15
-1.1815816 -4.0120854 -1.1206865 9 0
-2.604594 -8.8325729 0.16073667 10 8
-1.2580056 -4.2633467 -1.0262268 7 1
-1.3037901 -4.4071703 -0.89336777 23 2
-2.5205927 -8.5148363 0.77690631 17 10
-1.3119165 -4.4261198 -0.73117477 13 3
-2.6923628 -9.0544386 1.4961394 7 12
-3.887418 -13.048403 2.6465209 6 13
-2.5235002 -8.4595213 -0.46264988 8 6
-4.5654149 -15.285145 3.6828988 6 14
-3.4975362 -11.687538 3.2688849 4 15
-1.208445 -4.0000396 -1.1196512 9 0
-2.6412957 -8.7318716 0.15923576 10 8
-1.2990298 -4.2917638 -1.0352248 8 1
-1.3402263 -4.4167476 -0.89718395 13 2
-2.5533485 -8.4093351 0.76888794 11 10
-1.9305755 -6.3502898 -1.0512397 3 3
-2.6908934 -8.8401289 1.1346037 5 11
-2.5855224 -8.4780283 1.403843 4 12
-2.5106959 -8.2223825 -0.75215399 9 5
-3.8734345 -12.677351 2.5766847 16 13
-2.5293274 -8.2678986 -0.45312473 11 6
-3.2605932 -10.644981 2.5702908 11 14
-3.449826 -11.241755 3.1508632 4 15
-1.2306249 -3.9730527 -1.1144749 6 0
-2.6559899 -8.5642433 0.15651318 12 8
-1.3613036 -4.386817 -1.0604193 7 1
-1.6515323 -5.3089862 -1.0807421 7 2
-2.5800171 -8.288578 0.75947517 14 10
-1.9736862 -6.3328853 -1.050614 3 3
-2.6821764 -8.5956249 1.1055988 6 11
-2.4813359 -7.9471097 -1.0222402 9 4
-2.7136075 -8.6803646 1.4404486 8 12
-2.5341148 -8.0962734 -0.74221832 10 5
-2.3124454 -7.3835387 1.5039566 10 13
-2.5738394 -8.2081118 -0.45082197 9 6
-2.6202378 -8.3407803 -0.15260385 9 7
-3.2465224 -10.321774 2.899291 3 15
-1.2571629 -3.9606812 -1.1134396 10 0
-2.6854324 -8.4502029 0.15476793 13 8
-1.4013442 -4.40692 -1.0676178 7 1
-2.6762791 -8.4061489 0.46233588 10 9
-1.6903443 -5.3029385 -1.081887 10 2
-2.6075473 -8.1754551 0.75075954 19 10
-2.0142448 -6.3076615 -1.0487368 6 3
-2.7457471 -8.5880356 1.1070613 6 11
-2.5119579 -7.8520746 -1.0122468 6 4
-2.5508564 -7.9593048 -0.73123664 10 5
-4.0164714 -12.517347 2.5553141 3 13
-2.5944273 -8.0758514 -0.44454166 9 6
-3.5519702 -11.049838 2.6796169 0 14
-2.6410332 -8.2061682 -0.15047465 8 7
-3.3256114 -10.320923 2.9055028 1 15
-1.2853801 -3.9536462 -1.1139573 10 0
-2.6284466 -8.0799303 0.14831054 28 8
-1.430869 -4.3933234 -1.0667179 7 1
-2.6616488 -8.1674566 0.45019394 16 9
-1.7264005 -5.2913098 -1.081887 8 2
-2.7957146 -8.5585585 0.78771359 11 10
-2.0522225 -6.2787838 -1.0462338 7 3
-2.5713868 -7.8578811 1.0151716 5 11
-2.5296323 -7.7211609 -0.99762261 8 4
-2.78688 -8.5013437 1.4169836 6 12
-2.5839939 -7.8731537 -0.72496146 11 5
-2.4625001 -7.4941478 1.5333412 6 13
-2.6200178 -7.9688301 -0.43962207 11 6
-3.6320727 -11.034027 2.6818666 7 14
-2.6675885 -8.0944691 -0.14876431 10 7
-3.6934402 -11.200708 3.1601808 23 15
-1.3116515 -3.9429715 -1.1134396 12 0
-2.6873186 -8.0689735 0.14845017 12 8
-1.4699813 -4.4112144 -1.0734664 8 1
-2.7205 -8.1543608 0.45050797 31 9
-1.761433 -5.2735424 -1.0807421 8 2
-2.8059089 -8.3957186 0.77446592 11 10
-2.0909925 -6.2493176 -1.0437309 7 3
-2.7459846 -8.1973734 1.0614821 6 11
-2.5518472 -7.6134176 -0.98592305 12 4
-3.0309212 -9.0322676 1.508967 16 12
-2.6013761 -7.7477231 -0.71502572 19 5
-2.5347228 -7.5404844 1.5463161 6 13
-2.6450088 -7.8594837 -0.43459785 18 6
-3.9496312 -11.729319 2.8573284 6 14
-2.6945164 -7.9927478 -0.14722851 10 7
-1.340392 -3.9373767 -1.1144749 13 0
-2.7408895 -8.0467091 0.14838037 14 8
-1.5114335 -4.4322 -1.0811148 17 1
-2.7682014 -8.1129704 0.44925189 28 9
-1.7884024 -5.2354207 -1.0753995 8 2
-2.7896669 -8.1572418 0.75424576 19 10
-2.130923 -6.2274642 -1.0424794 7 3
-2.4671845 -7.2019563 0.93473798 4 11
-2.5547056 -7.4489551 -0.96691149 11 4
-2.6120303 -7.6031256 -0.70334685 12 5
-2.6109288 -7.5912957 1.560436 3 13
-2.6548998 -7.7147636 -0.4275848 13 6
-3.3757029 -9.7981987 2.3925796 9 14
-2.7228642 -7.8943443 -0.1457625 15 7
-3.8954175 -11.287508 3.1995211 13 15
-1.3608114 -3.9099166 -1.1092985 12 0
-2.7621274 -7.9272952 0.14653042 19 8
-1.544776 -4.4310102 -1.0833644 10 1
-2.8083191 -8.0463047 0.4466351 18 9
-1.8203754 -5.2098341 -1.0727283 10 2
-2.8497291 -8.1512299 0.75546592 14 10
-2.175652 -6.2161641 -1.0431051 7 3
-2.699234 -7.7034926 1.0022535 6 11
-2.5863032 -7.3770671 -0.95984304 18 4
-3.1087193 -8.8572826 1.4867533 10 12
-2.6320341 -7.4949374 -0.69497991 19 5
-2.6970508 -7.6715112 1.5806618 6 13
-2.6934435 -7.65271 -0.42517737 20 6
-3.939441 -11.186652 2.7381043 9 14
-2.7346492 -7.756814 -0.14356351 12 7
-3.9387608 -11.159844 3.171051 21 15
-1.3887222 -3.9021411 -1.1098161 10 0
-2.7797987 -7.8065839 0.14464554 22 8
-1.5723996 -4.4109397 -1.0811148 10 1
-2.8355143 -7.9498744 0.44234356 15 9
-1.8538141 -5.1917763 -1.0715834 8 2
-2.8743749 -8.0410824 0.74709904 17 10
-2.214587 -6.1919117 -1.0415409 8 3
-2.5849848 -7.219584 0.94156259 3 11
-2.6209962 -7.3121142 -0.95374954 17 4
-3.1602669 -8.8117456 1.482686 7 12
-2.6513047 -7.3844953 -0.68643862 20 5
-4.165657 -11.589595 2.3938897 1 13
-2.7089729 -7.532711 -0.41952509 18 6
-3.9039032 -10.84351 2.6607211 8 14
-2.7555118 -7.6453528 -0.14185315 22 7
-4.1450438 -11.494418 3.274061 10 15
-1.4145907 -3.8907826 -1.1092985 9 0
-2.7986665 -7.6892729 0.14283049 25 8
-1.5997202 -4.3928103 -1.0793152 10 1
-2.8512678 -7.8210516 0.43627259 25 9
-1.8913608 -5.1823964 -1.0723467 8 2
-2.8073967 -7.688201 0.71607161 12 10
-2.2523341 -6.1614575 -1.0390378 8 3
-2.590981 -7.0801888 0.92571962 13 11
-2.6338508 -7.1934452 -0.9405877 10 4
-2.7893364 -7.6098723 1.2837014 5 12
-2.6842616 -7.3153038 -0.68173224 19 5
-2.7261086 -7.4253402 1.537539 17 13
-2.725667 -7.4161325 -0.41408211 21 6
-3.1033986 -8.4347906 2.0749483 19 14
-2.7750192 -7.5382209 -0.14021264 21 7
-4.1062827 -11.142543 3.1819215 20 15
-1.4430645 -3.884434 -1.1103338 9 0
-2.8264883 -7.6002002 0.14153902 27 8
-1.6235524 -4.3632712 -1.0748161 10 1
-2.8667581 -7.6961432 0.43041092 20 9
-1.9254367 -5.163547 -1.0712018 10 2
-2.385329 -6.3934565 0.59701681 5 10
-2.2939119 -6.1418824 -1.0384121 7 3
-2.7856424 -7.4505382 0.97666097 15 11
-2.6603577 -7.1116676 -0.93230057 14 4
-2.8458593 -7.5994635 1.2852658 18 12
-2.7009964 -7.2049718 -0.67319095 16 5
-2.7813282 -7.4153185 1.5394472 23 13
-2.7303345 -7.2716475 -0.40706912 12 6
-3.1567228 -8.3983259 2.0713491 26 14
-2.7944946 -7.4306936 -0.13857211 22 7
-4.054647 -10.77009 3.0835702 20 15
-1.4680916 -3.8688464 -1.1087809 7 0
-2.8333218 -7.4587731 0.1392702 14 8
-1.6532819 -4.3500085 -1.0743662 9 1
-2.8948486 -7.6087408 0.42664275 27 9
-1.9530524 -5.1279631 -1.0666224 10 2
-2.7775419 -7.2889276 0.68242943 36 10
-2.3261738 -6.0980334 -1.0337191 7 3
-2.6959562 -7.0600138 0.92791325 6 11
-2.6794767 -7.0131841 -0.92181975 13 4
-2.9066052 -7.5997057 1.2887073 7 12
-2.711525 -7.0859356 -0.66377813 21 5
-3.7319572 -9.742404 2.0279181 9 13
-2.7538598 -7.1815438 -0.40309155 18 6
-4.0361166 -10.51993 2.6013339 6 14
-2.8047175 -7.3027325 -0.13654763 22 7
-4.0798225 -10.611691 3.0463002 26 15
-1.4915755 -3.8494954 -1.1061926 6 0
-2.8616183 -7.3815155 0.13818815 18 8
-1.6843153 -4.3401775 -1.0748161 10 1
-2.9147646 -7.5069389 0.42203718 23 9
-1.9829334 -5.1017408 -1.063951 10 2
-2.8218575 -7.2526479 0.68086064 17 10
-2.3719268 -6.0931034 -1.0355963 10 3
-2.9529722 -7.5778885 0.99859744 8 11
-2.6951873 -6.9092364 -0.91060776 12 4
-2.5230384 -6.4645901 1.0991087 6 12
-2.7391772 -7.0111599 -0.65854877 15 5
-2.9367912 -7.5092359 1.5673052 27 13
-2.7830296 -7.1124148 -0.40026543 21 6
-4.1847978 -10.683836 2.6490238 0 14
-2.8271632 -7.2103672 -0.13518634 23 7
-4.1999335 -10.705968 3.0814996 15 15
-1.517033 -3.8374574 -1.105675 6 0
-2.8748193 -7.2646694 0.1363731 12 8
-1.7109491 -4.3213644 -1.0730165 10 1
-2.9332504 -7.4009972 0.41722229 24 9
-2.0177779 -5.085948 -1.0635694 10 2
-2.9542205 -7.4425292 0.70055783 21 10
-2.409301 -6.0635457 -1.0334063 8 3
-2.8003776 -7.040617 0.93035066 9 11
-2.7091255 -6.8077321 -0.89963961 11 4
-2.9248509 -7.3423624 1.2517889 16 12
-2.7529047 -6.9072156 -0.65053046 18 5
-4.4464717 -11.145167 2.3324494 7 13
-2.802985 -7.01862 -0.39607856 16 6
-4.1945162 -10.497664 2.6098821 24 14
-2.842016 -7.1055489 -0.13358071 24 7
-4.1761999 -10.430685 3.0105834 7 15
-1.53945 -3.8160236 -1.1025692 6 0
-2.9009988 -7.187448 0.13529105 23 8
-1.7403462 -4.307508 -1.0725666 13 1
-2.940145 -7.2734613 0.41115132 21 9
-2.0508769 -5.0684562 -1.0628061 11 2
-2.9829204 -7.3644781 0.69515419 18 10
-2.4349377 -6.0085597 -1.0268359 7 3
-2.8512213 -7.0287504 0.93132555 3 11
-2.7304468 -6.7242794 -0.89110869 14 4
-2.5457582 -6.2663088 1.0712634 5 12
-2.7702866 -6.8121586 -0.64338368 17 5
-2.900146 -7.1243591 1.4951794 4 13
-2.8228202 -6.9309378 -0.39220569 20 6
-4.1132078 -10.089171 2.5154026 13 14
-2.8530188 -6.9911103 -0.13180058 22 7
-4.2485633 -10.405593 3.0116186 0 15
-1.5690634 -3.8143892 -1.1051573 6 0
-2.9275033 -7.1096988 0.13420901 22 8
-1.7644296 -4.282949 -1.0694174 10 1
-2.9466891 -7.1456652 0.40508035 23 9
-2.0824661 -5.0449419 -1.0608981 10 2
-2.9896288 -7.2390366 0.68521845 20 10
-2.4730527 -5.9822865 -1.0252717 7 3
-2.7419834 -6.623003 -0.88014042 15 4
-2.5796111 -6.2246599 1.0671961 0 12
-2.7853034 -6.7176852 -0.63623691 13 5
-2.9470685 -7.1008263 1.4944161 22 13
-2.835124 -6.8243742 -0.38728613 12 6
-4.1159668 -9.902586 2.4758112 17 14
-2.8705819 -6.8995237 -0.13043928 23 7
-4.2238078 -10.142057 2.9438078 12 15
-1.5919174 -3.7944357 -1.1025692 10 0
-2.9379056 -6.999259 0.13249867 20 8
-1.7942872 -4.2705269 -1.0694174 10 1
-2.9643006 -7.0517945 0.40089345 24 9
-2.1099043 -5.0143633 -1.0574635 10 2
-3.0370004 -7.2106438 0.6845212 22 10
-2.5098794 -5.9562125 -1.0237073 7 3
-2.7302442 -6.4665413 -0.8618601 13 4
-3.0139403 -7.1349978 1.2267592 12 12
-2.798769 -6.6191673 -0.6287415 18 5
-2.9674902 -7.0113759 1.4799147 15 13
-2.8464649 -6.7221556 -0.38257587 20 6
-4.3667579 -10.302429 2.5833378 13 14
-2.8913429 -6.8148851 -0.12921762 23 7
-4.2466998 -10.004598 2.9122322 23 15
-1.5994804 -3.7408812 -1.0901459 11 0
-2.9363425 -6.86092 0.13026476 20 8
-1.8194786 -4.2492576 -1.0671679 9 1
-2.9851341 -6.9648409 0.39712527 24 9
-2.1386673 -4.9850779 -1.0544106 10 2
-2.9539886 -6.8822193 0.65523684 15 10
-2.5467219 -5.9276562 -1.0218301 7 3
-2.5072141 -5.8300872 0.77923268 4 11
-2.7506599 -6.3931031 -0.85454792 14 4
-3.0457075 -7.0720549 1.2195632 6 12
-2.8185301 -6.5414114 -0.62316358 17 5
-2.6761563 -6.2050209 1.3135291 21 13
-2.8537447 -6.6104355 -0.37734228 18 6
-4.3031068 -9.9629698 2.5055048 32 14
-2.9138575 -6.7399817 -0.12817048 30 7
-4.314137 -9.9693871 2.9106791 9 15
-1.6193825 -3.7154558 -1.0860047 11 0
-2.9334183 -6.727128 0.12810066 50 8
-1.8514374 -4.2418098 -1.0685174 10 1
-2.9949062 -6.8583341 0.39220569 51 9
-2.1741221 -4.9740028 -1.0551738 10 2
-3.0379009 -6.9435692 0.66308087 19 10
-2.5854263 -5.9065642 -1.0212044 7 3
-2.589061 -5.9092526 0.7921508 3 11
-2.7840633 -6.3482924 -0.85113555 14 4
-2.5937543 -5.9115415 1.0224558 15 12
-2.8392932 -6.4650245 -0.61775988 21 5
-2.8624904 -6.5085864 -0.37263206 17 6
-4.5193801 -10.266213 2.5896363 6 14
-2.9148791 -6.6151695 -0.1261809 23 7
-4.4356689 -10.061763 2.9463961 11 15
-1.6438512 -3.7025814 -1.0854871 18 0
-2.9819353 -6.7101402 0.12817048 22 8
-1.8739344 -4.2148638 -1.0649183 10 1
-3.0151041 -6.775218 0.38864684 33 9
-2.2071962 -4.9551172 -1.0544106 10 2
-3.0688732 -6.886333 0.65959466 15 10
-2.6177471 -5.8685265 -1.0177628 8 3
-2.6181128 -5.8638439 0.78849471 4 11
-2.8183038 -6.309258 -0.84845448 17 4
-2.612385 -5.8427963 1.0136955 5 12
-2.8523176 -6.3764372 -0.61113608 21 5
-2.8416827 -6.3467178 1.351691 1 13
-2.8858054 -6.4392338 -0.3698059 15 6
-4.767746 -10.633527 2.6904147 23 14
-2.9377325 -6.5459161 -0.12523846 25 7
-4.5105524 -10.041124 2.949502 15 15
-1.6664752 -3.6839745 -1.0834166 13 0
-3.0036297 -6.6368546 0.12715824 27 8
-1.8984889 -4.1910281 -1.0622189 11 1
-3.0438378 -6.7163358 0.38644874 25 9
-2.2408731 -4.9399786 -1.0544106 10 2
-3.0748653 -6.7722187 0.6507048 16 10
-2.6502788 -5.8343859 -1.0149469 10 3
-2.9217079 -6.4259586 0.86673486 13 11
-2.8326805 -6.2243843 -0.83967984 15 4
-2.642272 -5.8033056 1.009941 2 12
-2.8496687 -6.2530274 -0.60120028 17 5
-2.8834777 -6.3213658 1.3505462 5 13
-2.9063506 -6.3685656 -0.36687508 16 6
-4.4864178 -9.8218231 2.4929075 15 14
-2.9625733 -6.4797821 -0.12436585 27 7
-4.5603137 -9.9697838 2.9375963 36 15
-1.6923202 -3.6743007 -1.0839342 13 0
-3.0122178 -6.5340033 0.12558752 21 8
-1.9302363 -4.1850867 -1.0640185 10 1
-3.0588427 -6.6260147 0.3824712 21 9
-2.2654233 -4.9028273 -1.0498312 10 2
-2.7455149 -5.9391155 0.5724389 32 10
-2.6892867 -5.8121552 -1.0143212 10 3
-2.9122736 -6.2883201 0.85089183 14 11
-2.8416011 -6.1329131 -0.82993031 10 4
-3.1954982 -6.890409 1.2029812 12 12
-2.8538263 -6.1480436 -0.59300768 21 5
-2.9330537 -6.3158379 1.3535991 11 13
-2.9246423 -6.291975 -0.36363026 21 6
-4.6000881 -9.8874416 2.5176523 13 14
-2.9652612 -6.3706336 -0.12265551 25 7
-4.5865645 -9.8448935 2.9101615 6 15
-1.7121876 -3.6501532 -1.0803107 13 0
-3.0195153 -6.4313598 0.12401681 22 8
-1.95775 -4.1679816 -1.0631187 10 1
-3.0795319 -6.5502739 0.37933105 19 9
-2.2979243 -4.8833399 -1.0490679 10 2
-2.8038836 -5.9558558 0.57592511 15 10
-2.7188501 -5.7700095 -1.0102539 8 3
-3.1322334 -6.641284 0.90158945 8 11
-2.8521564 -6.0447054 -0.82066822 11 4
-3.1018047 -6.5678511 1.1504192 11 12
-2.8813519 -6.0955472 -0.58987004 21 5
-2.8033352 -5.927824 1.2746042 9 13
-2.9368811 -6.2046099 -0.35975742 20 6
-4.7365851 -9.9977341 2.5540941 5 14
-2.9642711 -6.2540059 -0.12080556 22 7
-4.6319985 -9.7637625 2.8956676 16 15
-1.7309681 -3.6241653 -1.0761696 18 0
-3.036742 -6.3523903 0.12289985 31 8
-1.9901633 -4.1612449 -1.0649183 10 1
-3.0915546 -6.4583578 0.37524885 17 9
-2.3268707 -4.856555 -1.0467782 10 2
-2.9185951 -6.0888519 0.59074163 32 10
-2.7505217 -5.7330775 -1.0071251 8 3
-2.9508083 -6.1450462 0.83699876 11 11
-2.8581836 -5.9494944 -0.81043118 17 4
-3.2862566 -6.8344393 1.2011039 21 12
-2.9063647 -6.0416808 -0.58655816 21 5
-2.8267655 -5.8709621 1.2665902 7 13
-2.9454427 -6.1119857 -0.35557052 16 6
-2.6235752 -5.4416614 1.3946966 3 14
-2.9896095 -6.1953387 -0.12007255 29 7
-4.569819 -9.4615526 2.8154337 5 15
-1.7587615 -3.6172047 -1.0777225 13 0
-3.0527933 -6.2758284 0.1218178 18 8
-2.0123415 -4.1332326 -1.0613191 10 1
-3.1118293 -6.3886838 0.3724227 20 9
-2.3598745 -4.8406034 -1.0467782 10 2
-2.8692918 -5.8803153 0.5724389 30 10
-2.7808161 -5.6964707 -1.0039965 7 3
-2.9428949 -6.0231538 0.82310557 7 11
-2.8865683 -5.902647 -0.80677515 20 4
-3.4177749 -6.9858041 1.2317652 8 12
-2.9248147 -5.9729295 -0.58185172 21 5
-4.6035008 -9.3927612 2.0332606 6 13
-2.947408 -6.0110984 -0.3508603 21 6
-2.671804 -5.4442062 1.4000953 4 14
-3.0195639 -6.1473937 -0.11954898 28 7
-4.9033532 -9.9781141 2.9790072 15 15
-1.782485 -3.6034184 -1.0772049 12 0
-3.0761254 -6.2131448 0.12101499 23 8
-2.0369689 -4.1124535 -1.0595194 10 1
-3.1155462 -6.2844896 0.36760777 22 9
-2.39012 -4.8169761 -1.0452517 10 2
-3.1705863 -6.3871078 0.62386078 20 10
-2.811728 -5.6592278 -1.0008678 7 3
-2.9671953 -5.9669127 0.81823081 13 11
-2.9001539 -5.8295431 -0.79946297 18 4
-2.9360871 -5.894032 -0.57609946 15 5
-4.8872027 -9.8022146 2.1290469 15 13
-2.9616556 -5.9349747 -0.34761545 20 6
-3.6854279 -7.3821445 1.9048855 19 14
-3.039885 -6.0837674 -0.11871127 24 7
-4.7611895 -9.5203209 2.852186 11 15
-1.8093355 -3.5943375 -1.0782403 12 0
-3.0742733 -6.1045485 0.11930466 34 8
-2.0621204 -4.0911727 -1.0577198 10 1
-3.1123884 -6.1721864 0.36226952 21 9
-2.414006 -4.7830696 -1.0414355 10 2
-3.1737769 -6.2830124 0.61584246 20 10
-2.8519645 -5.6434846 -1.0014936 8 3
-2.996093 -5.9235501 0.81506222 13 11
-2.9076078 -5.7436242 -0.79044467 14 4
-3.0737667 -6.0692225 1.0775207 2 12
-2.9501393 -5.820076 -0.5708701 20 5
-2.9853892 -5.8845243 1.282618 10 13
-2.9830024 -5.8772774 -0.34541735 19 6
-2.770442 -5.4537611 1.4122428 5 14
-3.0415006 -5.982182 -0.11714055 25 7
-4.6743598 -9.1898041 2.7626348 15 15
-1.8284773 -3.5716205 -1.0751344 11 0
-3.0493367 -5.951241 0.11672169 37 8
-2.0890315 -4.0753074 -1.0572699 10 1
-3.1435504 -6.1272058 0.36090881 25 9
-2.4419587 -4.755621 -1.0391458 10 2
-3.1709502 -6.1726522 0.60712689 22 10
-2.8795519 -5.6005988 -0.99742627 11 3
-3.044641 -5.9166102 0.81701219 11 11
-2.9275534 -5.686636 -0.78532612 19 4
-3.0816798 -5.9808884 1.0656317 16 12
-2.963212 -5.7485037 -0.56581503 18 5
-3.0865846 -5.9827094 1.3085681 4 13
-3.0120485 -5.8332386 -0.34405661 26 6
-5.155283 -9.9796286 2.5932357 5 14
-3.0233719 -5.8476558 -0.11490664 24 7
-4.6762538 -9.0368443 2.7263999 33 15
-1.8471203 -3.5467751 -1.0715109 10 0
-3.1036346 -5.9569483 0.11724527 31 8
-2.1156294 -4.057168 -1.0563701 9 1
-2.6521647 -5.0839238 0.30051309 18 9
-2.4697294 -4.7301879 -1.0372378 8 2
-2.7110629 -5.1879902 0.51212716 7 10
-2.8938124 -5.5353527 -0.98929167 10 3
-3.19804 -6.1120901 0.84699202 23 11
-2.9423177 -5.6185784 -0.77874517 21 4
-3.1030681 -5.9230285 1.0590615 12 12
-2.9819918 -5.6870918 -0.5618059 26 5
-3.1072922 -5.921032 1.299791 4 13
-3.0173318 -5.7471719 -0.34018376 17 6
-3.9938552 -7.6007285 1.9822687 14 14
-3.0529535 -5.8051682 -0.11448779 29 7
-4.9022655 -9.3176737 2.8211277 13 15
-1.8730276 -3.5375345 -1.0725461 10 0
-3.1217365 -5.8909631 0.11637264 30 8
-2.1304181 -4.018569 -1.0500715 10 1
-3.1631386 -5.9615459 0.35368642 15 9
-2.5054533 -4.7180324 -1.0383826 11 2
-3.2062135 -6.0350914 0.59788835 29 10
-2.9008551 -5.4557142 -0.97865415 11 3
-3.1789734 -5.9762635 0.83114898 20 11
-2.9571726 -5.5546141 -0.77265167 13 4
-3.1712813 -5.9517775 1.0681347 14 12
-3.0018897 -5.6314993 -0.55831969 21 5
-4.0392914 -7.5712814 1.6680523 1 13
-3.0235147 -5.6625409 -0.33641556 16 6
-3.2760649 -6.1329494 1.6052507 9 14
-3.0791969 -5.7595644 -0.11399912 33 7
-4.9418845 -9.2397995 2.8076692 6 15
-1.9025567 -3.5349095 -1.075652 11 0
-3.1352096 -5.8202829 0.11539531 24 8
-2.1567967 -4.0022597 -1.0496217 10 1
-3.1477063 -5.8361616 0.34751078 15 9
-2.5281856 -4.6835923 -1.0345664 10 2
-2.7369404 -5.0682077 0.5039345 6 10
-2.9135036 -5.3906598 -0.97051954 13 3
-3.0335786 -5.6104884 0.78313243 7 11
-2.9694045 -5.4872189 -0.76607072 15 4
-3.297327 -6.088119 1.0966057 15 12
-3.0078809 -5.5513749 -0.55239308 21 5
-4.0944772 -7.5505142 1.6695787 3 13
-3.041029 -5.6032109 -0.33411276 13 6
-3.2935584 -6.0659804 1.5935532 3 14
-3.09446 -5.6945457 -0.1131265 24 7
-3.8254673 -7.0368466 2.1461277 6 15
-1.9210113 -3.5117085 -1.0725461 10 0
-3.1507468 -5.7549567 0.11452269 24 8
-2.1858613 -3.9909039 -1.0505214 10 1
-3.1748784 -5.7918329 0.34615004 24 9
-2.5515072 -4.6507845 -1.0311319 8 2
-3.216176 -5.8598905 0.58481503 28 10
-2.9273028 -5.3291512 -0.96301067 11 3
-2.8699324 -5.2203889 0.73145986 24 11
-2.9837255 -5.4251351 -0.76022106 20 4
-3.3463118 -6.0793786 1.0991087 15 12
-3.0186872 -5.481905 -0.54751235 10 5
-2.8077574 -5.094646 1.1307341 8 13
-3.0607703 -5.5491524 -0.33212399 22 6
-3.4872942 -6.319829 1.6664374 12 14
-3.0973811 -5.608582 -0.11183503 26 7
-4.9604073 -8.9746523 2.747623 5 15
-1.9398464 -3.4880822 -1.0694402 10 0
-3.1519287 -5.6652274 0.1131614 17 8
-2.21367 -3.9755466 -1.0505214 10 1
-3.2015932 -5.7474051 0.34478933 23 9
-2.5725892 -4.6144466 -1.0269341 10 2
-3.0376084 -5.4440818 0.54542065 37 10
-2.9365511 -5.2608061 -0.9542504 10 3
-3.1261368 -5.5958567 0.78703225 12 11
-2.9973087 -5.3608561 -0.75412756 17 4
-3.2709341 -5.8478541 1.0612515 13 12
-3.026715 -5.4068031 -0.54210871 11 5
-2.8605275 -5.1057506 1.1376033 33 13
-3.0818696 -5.4985728 -0.33034459 29 6
-3.5332365 -6.298728 1.6673372 3 14
-3.1129668 -5.5449729 -0.1109973 22 7
-4.9702969 -8.8497238 2.7196705 9 15
-1.9644946 -3.4764793 -1.069958 10 0
-3.1638398 -5.5943475 0.11218407 19 8
-2.2416394 -3.9620831 -1.0509714 10 1
-3.208179 -5.6658235 0.34123048 21 9
-2.610549 -4.6066222 -1.0292237 10 2
-3.0824542 -5.4371452 0.5468151 62 10
-2.9390879 -5.1800437 -0.94329995 15 3
-3.1151361 -5.4858599 0.77460164 17 11
-3.0160804 -5.3092613 -0.7497403 17 4
-3.0431917 -5.3526354 0.97521257 10 12
-3.0535493 -5.3664923 -0.54019129 20 5
-2.9136684 -5.1185789 1.1448541 25 13
-3.0934882 -5.4300675 -0.32751846 20 6
-3.0346661 -5.3224955 1.4144921 10 14
-3.1367662 -5.4993377 -0.11050864 30 7
-5.0108862 -8.7779007 2.7082827 2 15
-1.9858309 -3.4576542 -1.068405 10 0
-3.1360517 -5.455965 0.10984544 14 8
-2.2614727 -3.9328225 -1.0473721 9 1
-3.2127881 -5.5827007 0.33756694 19 9
-2.6328461 -4.5712729 -1.0254076 10 2
-3.2546203 -5.6485472 0.57034713 26 10
-2.9662976 -5.1439981 -0.94048411 13 3
-3.2962422 -5.7115602 0.80970001 13 11
-3.019326 -5.2296252 -0.74145311 14 4
-2.9411378 -5.0900955 0.93109804 20 12
-3.0620155 -5.2950253 -0.53513628 18 5
-2.9748926 -5.1422968 1.1547761 12 13
-3.0942943 -5.3443851 -0.32364559 13 6
-3.062957 -5.286005 1.4104432 6 14
-3.1379759 -5.4132934 -0.10921716 20 7
-3.881588 -6.6907082 2.072623 9 15
-2.0118687 -3.4470429 -1.0694402 10 0
-3.1831422 -5.4494786 0.11015959 20 8
-2.2829747 -3.9068432 -1.0446726 9 1
-2.9149206 -4.9842944 0.30260652 7 9
-2.6686625 -4.5595584 -1.0269341 10 2
-3.2637742 -5.5741081 0.56511784 21 10
-2.9901526 -5.1027126 -0.93672973 11 3
-3.0920079 -5.2723098 0.75047147 11 11
-3.031652 -5.1673274 -0.73560339 18 4
-2.9866025 -5.0864735 0.93422669 19 12
-3.0767953 -5.2379837 -0.53147572 19 5
-3.1201646 -5.3075738 1.1967541 17 13
-3.1062088 -5.2796178 -0.3210288 23 6
-3.0395584 -5.1642671 1.383449 9 14
-3.13205 -5.3171654 -0.10771625 35 7
-3.9164305 -6.6434755 2.0664113 9 15
-2.0329285 -3.4279289 -1.0678874 11 0
-3.1905727 -5.3778114 0.10914735 35 8
-2.310194 -3.8908098 -1.0446726 9 1
-3.1854172 -5.362721 0.32689041 36 9
-2.6896045 -4.5244122 -1.0231179 11 2
-3.1009073 -5.2121568 0.53060412 122 10
-3.008652 -5.0550814 -0.93172377 10 3
-3.1989336 -5.3705235 0.76753318 11 11
-3.0503733 -5.1170492 -0.73145986 20 4
-2.8612959 -4.797965 0.8847934 9 12
-3.0949075 -5.1855817 -0.52833807 25 5
-3.2145255 -5.3817344 1.2185063 3 13
-3.1328552 -5.2429209 -0.32008675 29 6
-3.0515325 -5.1027818 1.3726513 5 14
-3.1536891 -5.2694325 -0.10719268 36 7
-3.0019329 -5.0138807 1.5658553 9 15
-2.0502336 -3.4040828 -1.0647817 12 0
-3.2063591 -5.3194413 0.10841435 21 8
-2.3356173 -3.8733263 -1.0442228 10 1
-3.2165868 -5.330092 0.32626238 31 9
-2.7160504 -4.4971218 -1.0212098 8 2
-3.2733469 -5.4177337 0.55378759 19 10
-3.021383 -4.9967656 -0.92484063 9 3
-3.1705737 -5.2393661 0.75193387 25 11
-3.0604606 -5.0554123 -0.72561014 17 4
-2.8916514 -4.7728038 0.88385481 21 12
-3.0950208 -5.1064639 -0.52241153 14 5
-3.2093377 -5.2909069 1.20286 13 13
-3.1465786 -5.183362 -0.31778398 21 6
-3.0983338 -5.1018806 1.3780502 2 14
-3.1739068 -5.2222109 -0.10666911 33 7
-4.0668869 -6.6862268 2.096952 8 15
-2.0699158 -3.3830953 -1.0627111 13 0
-3.2205701 -5.2616758 0.10768134 28 8
-2.3666728 -3.8635733 -1.0460224 10 1
-3.2632272 -5.3251038 0.3273091 25 9
-2.7435184 -4.4735098 -1.0200649 10 2
-3.2850351 -5.3522983 0.54942977 34 10
-2.997442 -4.881815 -0.90732002 9 3
-3.3433485 -5.4409156 0.78410745 9 11
-3.0769618 -5.0034857 -0.72122282 14 4
-3.1083143 -5.0524921 0.93954557 15 12
-3.1086595 -5.0491033 -0.51875097 14 5
-3.2760637 -5.3168445 1.2139269 12 13
-3.1692114 -5.1414213 -0.3165279 29 6
-3.1144366 -5.0486135 1.3695021 5 14
-3.1840239 -5.1573877 -0.10579649 20 7
-4.2554388 -6.8901434 2.169939 11 15
-2.0888178 -3.3623631 -1.0606405 11 0
-3.2382205 -5.2084961 0.10705306 33 8
-2.3857121 -3.8357909 -1.042873 9 1
-3.2813265 -5.2716718 0.32542503 27 9
-2.7746823 -4.4542475 -1.0200649 10 2
-3.3119061 -5.3145957 0.54786098 21 10
-3.0168161 -4.8373041 -0.90293986 10 3
-3.3633821 -5.388814 0.77996385 10 11
-3.0941253 -4.9554853 -0.71732301 12 4
-3.30053 -5.281951 0.98647583 11 12
-3.1260567 -5.0007958 -0.51596195 10 5
-3.1716111 -5.0697293 1.1624085 6 13
-3.1403754 -5.0159078 -0.3101429 19 6
-3.199415 -5.108223 1.3915472 4 14
-3.1925042 -5.0932364 -0.10492387 26 7
-6.7826357 -10.812449 3.4200351 16 15
-2.1143026 -3.3509662 -1.0616758 12 0
-3.2458463 -5.1423678 0.10614554 32 8
-2.4082701 -3.8124518 -1.0410734 9 1
-3.2755227 -5.1833673 0.3213428 15 9
-2.7975919 -4.4236431 -1.0173936 8 2
-3.3222902 -5.2492561 0.54350317 21 10
-3.0369921 -4.796629 -0.89918542 10 3
-3.3436725 -5.2769246 0.76704568 12 11
-3.0925012 -4.8767648 -0.70903593 9 4
-3.2549264 -5.1309237 0.96238494 20 12
-3.1363316 -4.9401627 -0.51195282 10 5
-3.0847986 -4.8552427 1.1181407 16 13
-3.1583743 -4.9691319 -0.30857283 21 6
-3.3019371 -5.1909957 1.4203409 1 14
-3.2150967 -5.0505824 -0.10450501 26 7
-2.1433139 -3.3462582 -1.0647817 11 0
-3.2568469 -5.0808606 0.10534272 25 8
-2.4352157 -3.7976117 -1.0415233 10 1
-3.2738736 -5.101542 0.31767929 24 9
-2.8167362 -4.3858328 -1.0131959 11 2
-3.3364036 -5.1929965 0.54001695 26 10
-3.0554481 -4.7520485 -0.89480525 10 3
-3.3610957 -5.2234049 0.76265842 16 11
-3.0869436 -4.7955112 -0.70026129 18 4
-3.4265308 -5.318974 1.0021193 8 12
-3.1580133 -4.9002781 -0.5100354 12 5
-3.0741472 -4.7664886 1.1024945 12 13
-3.1767421 -4.9217896 -0.30700275 22 6
-3.3741915 -5.2257004 1.4360875 10 14
-3.2211826 -4.9849124 -0.10359748 30 7
-4.4972739 -6.9543896 2.2191145 5 15
-2.1518767 -3.3085408 -1.0575346 13 0
-3.2619104 -5.013319 0.1044003 21 8
-2.4616685 -3.7805181 -1.0415233 10 1
-3.2899909 -5.0506897 0.31589985 19 9
-2.8379464 -4.3534021 -1.0101428 11 2
-3.3388286 -5.1178484 0.53461331 21 10
-3.0747669 -4.7112904 -0.89105082 10 3
-3.3965714 -5.2004066 0.76265842 11 11
-3.1051421 -4.7505813 -0.69684899 18 4
-3.3275232 -5.0888643 0.96301067 14 12
-3.1572361 -4.8247619 -0.50445741 12 5
-3.0621743 -4.6759295 1.0864664 15 13
-3.1882801 -4.8666391 -0.30490932 18 6
-3.1456084 -4.7978506 1.3245119 16 14
-3.2131219 -4.8970971 -0.1022362 20 7
-6.0816035 -9.2654047 2.9696898 18 15
-2.172219 -3.2905927 -1.0564994 12 0
-3.2648656 -4.9420385 0.10338806 26 8
-2.4937916 -3.7734292 -1.0442228 10 1
-3.3108482 -5.0059419 0.31453913 20 9
-2.8682697 -4.3334832 -1.0101428 11 2
-3.339489 -5.0435052 0.52920967 30 10
-3.0857601 -4.6567764 -0.8847934 9 3
-3.4053669 -5.1352067 0.75656492 12 11
-3.1209447 -4.7045226 -0.6931929 15 4
-3.098563 -4.6672478 0.88729644 8 12
-3.1591389 -4.7566891 -0.49957672 13 5
-3.0917578 -4.6517072 1.0857033 16 13
-3.2033737 -4.8159919 -0.30312988 21 6
-3.4329669 -5.1592121 1.4306886 6 14
-3.2242141 -4.8418241 -0.1015381 23 7
-5.9661589 -8.9526472 2.8827267 6 15
-2.195138 -3.2753479 -1.0564994 13 0
-3.2794971 -4.8914657 0.10279468 24 8
-2.5135596 -3.7462177 -1.0415233 10 1
-3.3314872 -4.9633899 0.31328306 28 9
-2.9020793 -4.3203778 -1.0116693 10 2
-3.3434947 -4.9737697 0.52432895 27 10
-3.0633721 -4.5553432 -0.86946285 7 3
-3.4069924 -5.0625024 0.7492528 10 11
-3.1315343 -4.6496897 -0.68831813 17 4
-3.113704 -4.6214743 0.88260335 19 12
-3.1666517 -4.6965232 -0.49556756 11 5
-3.2174969 -4.7683411 1.1181407 29 13
-3.2126138 -4.7593126 -0.30093178 24 6
-3.2081883 -4.7491784 1.3231622 5 14
-3.2444983 -4.7993174 -0.10111924 24 7
-2.2162955 -3.258733 -1.0559818 14 0
-3.2888129 -4.8320827 0.10202677 28 8
-2.5280335 -3.7129138 -1.0370244 10 1
-3.3199468 -4.8723397 0.30899152 19 9
-2.9299583 -4.2967687 -1.0109061 10 2
-3.3536935 -4.9163327 0.52066839 28 10
-3.0828485 -4.5158997 -0.86602128 10 3
-3.3806636 -4.9484429 0.73584712 7 11
-3.1485505 -4.6069613 -0.68514949 17 4
-3.0120721 -4.4039655 0.8450591 18 12
-3.1816707 -4.6501942 -0.49295285 12 5
-3.1201065 -4.5568008 1.0734915 26 13
-3.2073767 -4.6807508 -0.29737294 16 6
-3.3605375 -4.9024334 1.3722014 10 14
-3.2601221 -4.752387 -0.10059568 22 7
-4.3877292 -6.3913541 2.0772817 14 15
-2.2466745 -3.2543094 -1.0596052 12 0
-3.2807181 -4.7503486 0.10077019 27 8
-2.5516763 -3.6919687 -1.0361246 10 1
-3.3291824 -4.8151293 0.30679342 14 9
-2.9446149 -4.2557378 -1.0059451 13 2
-3.3754578 -4.8747811 0.51875097 30 10
-3.106766 -4.4850683 -0.86414409 11 3
-3.4006963 -4.9057407 0.73292232 11 11
-3.159138 -4.5538778 -0.68051845 10 4
-3.019453 -4.350904 0.83880174 9 12
-3.1867816 -4.5885944 -0.48876941 13 5
-3.1585653 -4.54458 1.0757812 14 13
-3.2015386 -4.6046953 -0.29391876 15 6
-3.4314106 -4.9316406 1.3870482 5 14
-3.2680814 -4.6934085 -0.099827766 23 7
-4.4289246 -6.3581696 2.0762465 17 15
-2.2643394 -3.2326124 -1.0575346 11 0
-3.3149495 -4.7289667 0.1008051 26 8
-2.5722721 -3.6681321 -1.0343249 11 1
-3.3386238 -4.7574377 0.30459529 21 9
-2.9708688 -4.230257 -1.0048002 11 2
-3.381073 -4.8125658 0.51456749 25 10
-3.1243684 -4.4438782 -0.86038971 11 3
-3.3880281 -4.8153157 0.722929 13 11
-3.1660666 -4.4981799 -0.67539996 9 4
-3.2590625 -4.6268716 0.89636964 27 12
-3.199224 -4.5385509 -0.48580611 11 5
-3.2380755 -4.5919676 1.0921907 19 13
-3.2232435 -4.5675454 -0.29297671 19 6
-3.636627 -5.1495204 1.4554334 8 14
-3.2745683 -4.6351228 -0.099059857 25 7
-4.5590777 -6.4485579 2.1161046 2 15
-2.2767782 -3.2025552 -1.052876 11 0
-3.3165839 -4.661715 0.099862665 29 8
-2.6045969 -3.6596117 -1.0370244 10 1
-3.3648036 -4.7242527 0.30396727 26 9
-2.9855156 -4.1886301 -0.99983919 12 2
-3.3822005 -4.7434211 0.50968677 25 10
-3.1369584 -4.3962302 -0.85538375 10 3
-3.4388669 -4.8157783 0.72658509 14 11
-3.1789305 -4.4501219 -0.67150015 9 4
-3.4636033 -4.8450532 0.94329995 21 12
-3.2018483 -4.475595 -0.48144829 13 5
-3.2346346 -4.5197573 1.0803605 31 13
-3.2492375 -4.5368128 -0.29245335 22 6
-3.309212 -4.6171503 1.3114647 10 14
-3.2882044 -4.5861468 -0.098501377 26 7
-4.8100829 -6.7038126 2.2108324 6 15
-2.2990808 -3.1865823 -1.052876 10 0
-3.325635 -4.6060228 0.099164575 23 8
-2.6175311 -3.6239619 -1.0320754 10 1
-3.357923 -4.6456122 0.30040842 19 9
-3.0169859 -4.1708665 -1.0006025 8 2
-3.3556652 -4.6373734 0.50079691 33 10
-3.1432428 -4.3406243 -0.84881347 13 3
-3.4479413 -4.7578974 0.72146654 11 11
-3.1819582 -4.3892484 -0.66565043 9 4
-3.4509447 -4.7567978 0.93078518 23 12
-3.2131166 -4.425724 -0.47848502 14 5
-3.3595591 -4.6257343 1.1112716 9 13
-3.2561712 -4.4800916 -0.29025525 17 6
-3.3207321 -4.5655675 1.3033664 6 14
-3.2930808 -4.5258899 -0.097698569 20 7
-5.1888146 -7.1260877 2.3619826 3 15
-2.3201296 -3.1688948 -1.0523583 11 0
-3.3423457 -4.5617237 0.098710813 23 8
-2.6335509 -3.5930254 -1.0284761 9 1
-3.3607402 -4.5817952 0.2977916 19 9
-3.0448678 -4.1481199 -1.0002208 12 2
-3.3620152 -4.5785031 0.49696201 32 10
-3.1629412 -4.3042493 -0.84599775 12 3
-3.3728771 -4.5865822 0.69904256 21 11
-3.1819382 -4.3253531 -0.6593132 17 4
-3.3903799 -4.6053271 0.9057557 11 12
-3.2273915 -4.3807278 -0.47604465 15 5
-5.2670293 -7.1466351 1.7256767 9 13
-3.2719574 -4.4363542 -0.2888945 24 6
-3.1569519 -4.2772951 1.2273329 7 14
-3.3139074 -4.4883118 -0.09738443 17 7
-3.1398482 -4.2494631 1.4157403 1 15
-2.3451016 -3.1576817 -1.0539112 10 0
-3.3601983 -4.5212126 0.098326862 28 8
-2.6614347 -3.5797079 -1.0298259 10 1
-3.371582 -4.5315723 0.29601219 18 9
-3.0730326 -4.1272984 -1.0002208 10 2
-3.3954818 -4.5587091 0.49731067 25 10
-3.1709161 -4.2541113 -0.84036607 10 3
-3.3909631 -4.5460143 0.69636148 14 11
-3.1946857 -4.2813206 -0.6559009 18 4
-3.4110117 -4.5678978 0.90293986 17 12
-3.2384877 -4.3352842 -0.47342998 17 5
-3.3313301 -4.4563227 1.0815054 20 13
-3.2733643 -4.375598 -0.28638238 22 6
-3.331202 -4.4512892 1.2835708 5 14
-3.3204067 -4.4336395 -0.096686333 20 7
-3.1629076 -4.2202625 1.413152 6 15
-2.3612761 -3.1335189 -1.0513231 11 0
-3.3680234 -4.4678969 0.097663663 16 8
-2.6863611 -3.5610402 -1.0298259 10 1
-3.3855062 -4.4861984 0.29454678 22 9
-3.0856743 -4.0859184 -0.99525976 12 2
-3.4320297 -4.5412512 0.49800789 26 10
-3.1735911 -4.1977625 -0.83348292 10 3
-3.4769228 -4.5956488 0.70757347 13 11
-3.2125146 -4.2430868 -0.65346348 21 4
-3.4217489 -4.5178046 0.8976211 11 12
-3.2446051 -4.2808127 -0.46994376 13 5
-3.7277813 -4.9147334 1.1990438 13 13
-3.2740979 -4.3150296 -0.28387025 16 6
-3.3869445 -4.4605174 1.2930186 6 14
-3.3246617 -4.3753223 -0.095918424 26 7
-6.3223305 -8.3172979 2.799387 18 15
-2.3755114 -3.1081645 -1.0482172 11 0
-3.3724062 -4.4093304 0.096895754 22 8
-2.7046168 -3.5349348 -1.0275764 9 1
-3.4046004 -4.4465966 0.29350007 19 9
-3.1129301 -4.0627184 -0.99487817 12 2
-3.4446797 -4.4940658 0.49539325 13 10
-3.183584 -4.1504269 -0.82847708 10 3
-3.4907908 -4.5476432 0.70391744 11 11
-3.224396 -4.1990786 -0.65005112 12 4
-3.230535 -4.2040348 0.83974028 15 12
-3.2408834 -4.2159786 -0.46523735 20 5
-3.3493614 -4.3539491 1.0677671 16 13
-3.2895224 -4.2730756 -0.28261417 12 6
-3.1865582 -4.1378307 1.2057376 5 14
-3.3421597 -4.3367515 -0.09556938 23 7
-3.2196143 -4.1747231 1.4126344 9 15
-2.3947849 -3.0884511 -1.0471818 11 0
-3.3864086 -4.3657322 0.096442007 28 8
-2.7268393 -3.512888 -1.0266765 9 1
-2.9509292 -3.800205 0.25215468 15 9
-3.1308739 -4.0290346 -0.99182522 12 2
-2.9292574 -3.766865 0.41747603 5 10
-3.1826506 -4.0912409 -0.82096815 11 3
-3.0119491 -3.8690205 0.60203457 9 11
-3.2389932 -4.1576743 -0.64712632 9 4
-3.2590761 -4.1819482 0.83974028 9 12
-3.2579849 -4.1775393 -0.46349424 15 5
-3.245599 -4.1586657 1.0254076 15 13
-3.2927213 -4.2175245 -0.28041607 16 6
-3.2321651 -4.1369829 1.2120364 5 14
-3.3489525 -4.2833815 -0.094906189 20 7
-6.3078671 -8.0649948 2.7434819 4 15
-2.4169457 -3.0735984 -1.0476996 10 0
-2.7362225 -3.4758716 -1.0212778 8 1
-2.9489613 -3.7434266 0.24974722 7 9
-3.1540637 -4.0009112 -0.99029869 15 2
-3.2025688 -4.0580673 -0.8187781 18 3
-3.0204327 -3.8245299 0.59837854 6 11
-3.2401445 -4.1012635 -0.64176404 9 4
-3.005192 -3.8011384 0.76746756 15 12
-3.2628613 -4.1255755 -0.46018231 14 5
-3.2531195 -4.1103063 1.0189201 24 13
-3.3010035 -4.167819 -0.27863666 15 6
-5.6467428 -7.1269708 2.0992434 4 14
-3.3556683 -4.2322822 -0.094277903 19 7
-4.7225795 -5.9520106 2.0358706 26 15
-2.4407542 -3.0596695 -1.0487348 11 0
-3.3053348 -4.142005 0.092497751 19 8
-2.7652869 -3.4627748 -1.0230774 9 1
-2.9619064 -3.7076626 0.2487005 10 9
-3.1701913 -3.9655485 -0.98686421 16 2
-3.010787 -3.763458 0.42165947 31 10
-3.2214773 -4.0253787 -0.81658798 10 3
-3.0550809 -3.814729 0.60008472 30 11
-3.2438691 -4.0475631 -0.63688928 9 4
-3.0347018 -3.785219 0.76840615 19 12
-3.2853496 -4.0949259 -0.45931077 16 5
-3.4316862 -4.2742648 1.0654775 21 13
-3.3255453 -4.1405807 -0.27832264 25 6
-5.5803809 -6.9430766 2.0565026 6 14
-3.36132 -4.1791463 -0.093614712 16 7
-4.5934401 -5.7090073 1.9634014 7 15
-2.4615238 -3.0429854 -1.0487348 11 0
-3.4209852 -4.2260737 0.094906189 28 8
-2.7863395 -3.4408436 -1.0221776 8 1
-3.4404044 -4.2455139 0.28638238 21 9
-3.1780126 -3.9189227 -0.98075831 16 2
-3.4530613 -4.2565746 0.4795309 30 10
-3.23207 -3.9813204 -0.81220788 10 3
-3.4809246 -4.2848043 0.67783737 23 11
-3.2500606 -3.9992006 -0.63274568 11 4
-3.5035105 -4.3079953 0.87947464 26 12
-3.2892561 -4.0431037 -0.45599884 19 5
-3.3714564 -4.1411877 1.0380009 30 13
-3.3367088 -4.0955863 -0.27685726 27 6
-3.3505087 -4.1081305 -0.092532657 41 7
-5.2744789 -6.4625411 2.2351615 7 15
-2.4729044 -3.0137792 -1.0445937 10 0
-3.3887722 -4.1284986 0.093230762 39 8
-2.8102932 -3.4213073 -1.0221776 8 1
-3.4362552 -4.1818757 0.28366089 21 9
-3.1896505 -3.8790021 -0.97617888 21 2
-3.4776289 -4.2262111 0.47883365 24 10
-3.2364974 -3.9317756 -0.80657619 11 3
-3.5251544 -4.279398 0.68076223 13 11
-3.2665381 -3.9626272 -0.63055205 9 4
-3.3090489 -4.0127716 0.82378399 20 12
-3.2996495 -3.9985271 -0.4535585 14 5
-3.1540143 -3.8193295 0.9628222 18 13
-3.3467009 -4.0512214 -0.27539182 17 6
-5.5576239 -6.7227898 2.013762 22 14
-3.3765569 -4.0815587 -0.092462853 22 7
-5.3072581 -6.413095 2.2305026 5 15
-2.4921253 -2.9953926 -1.0440761 12 0
-3.4136746 -4.1001287 0.093126044 40 8
-2.8235385 -3.3901205 -1.0185784 8 1
-3.4295611 -4.1148267 0.2807301 46 9
-3.2015636 -3.8385475 -0.9715994 16 2
-3.4641933 -4.151957 0.47308138 35 10
-3.2385466 -3.8787582 -0.80031884 11 3
-3.510396 -4.2013669 0.67223138 15 11
-3.2781572 -3.9220238 -0.62762713 6 4
-3.5410302 -4.2335215 0.87415588 21 12
-3.3083007 -3.952477 -0.4509438 19 5
-3.2139695 -3.8384149 0.97312593 19 13
-3.3505294 -3.998673 -0.27340308 15 6
-5.5643544 -6.6360421 1.999365 8 14
-3.3836994 -4.033967 -0.091904372 18 7
-3.5758004 -4.2599626 1.4902802 10 15
-2.5179603 -2.9838262 -1.0461466 11 0
-3.4151204 -4.0441132 0.092393041 14 8
-2.8446226 -3.3673477 -1.0176786 8 1
-3.463361 -4.0968852 0.28114879 25 9
-3.2194076 -3.8056109 -0.9689281 12 2
-3.4789364 -4.1109424 0.47116393 26 10
-3.2195888 -3.8017862 -0.78905553 10 3
-3.5191071 -4.1525269 0.6683315 16 11
-3.2733665 -3.8611875 -0.62153369 10 4
-3.3877561 -3.9932926 0.82941562 14 12
-3.3267875 -3.9186528 -0.44972363 13 5
-3.3842943 -3.9849806 1.0162487 36 13
-3.3434427 -3.934092 -0.27057692 12 6
-3.4014142 -3.9980609 -0.091625139 42 7
-3.4075854 -4.0024834 1.4084933 18 15
-2.536217 -2.9632399 -1.0451113 12 0
-3.4302635 -4.0049844 0.092043988 21 8
-2.8667932 -3.3459272 -1.0172287 8 1
-3.4814792 -4.0604763 0.28031141 17 9
-3.2241638 -3.757714 -0.96244061 11 2
-3.5088503 -4.0880661 0.47133827 21 10
-3.230607 -3.761235 -0.78530115 12 3
-3.5459974 -4.1269708 0.66808778 13 11
-3.2911835 -3.8277049 -0.61982757 12 4
-3.3781874 -3.9261212 0.82034248 23 12
-3.3169906 -3.8536355 -0.44484288 15 5
-3.08915 -3.5864029 0.92008096 9 13
-3.3616974 -3.9000654 -0.2698442 22 6
-3.4096465 -3.9515083 -0.091101564 26 7
-3.6013758 -4.1722331 1.4768215 4 15
-2.5461996 -2.9342351 -1.0409703 12 0
-3.4430218 -3.9649351 0.091660038 22 8
-2.8818338 -3.3175092 -1.0145292 7 1
-3.4854505 -4.009553 0.2784273 18 9
-3.2316284 -3.7149425 -0.95709801 15 2
-3.5091281 -4.0325246 0.46767771 24 10
-3.261323 -3.7451162 -0.78655261 12 3
-3.5622704 -4.0892677 0.66589415 19 11
-3.3015084 -3.7872574 -0.61690265 7 4
-3.4775531 -3.9863956 0.83786315 9 12
-3.3169441 -3.8009448 -0.44135666 14 5
-3.4673259 -3.9704735 1.0246444 17 13
-3.3855381 -3.8740852 -0.26963487 32 6
-3.8387938 -4.3912005 1.3465569 5 14
-3.3916986 -3.8770359 -0.089914799 15 7
-3.4464889 -3.9382792 1.4022816 16 15
-2.5610092 -2.9110341 -1.0388998 12 0
-3.3747916 -3.8333411 0.089146897 23 8
-2.9146521 -3.3095155 -1.0181284 8 1
-3.4215438 -3.8823457 0.27120495 21 9
-3.252944 -3.6884429 -0.95595312 12 2
-3.4850891 -3.9502771 0.46087953 17 10
-3.2632058 -3.6961758 -0.78092092 12 3
-3.581532 -4.0538855 0.66418797 14 11
-3.3180082 -3.7542858 -0.61519653 7 4
-3.3645799 -3.8043044 0.80438608 25 12
-3.325577 -3.7588804 -0.43909061 16 5
-3.4682446 -3.9173806 1.017012 33 13
-3.3826904 -3.818063 -0.26733211 13 6
-3.3942304 -3.8297393 1.181443 7 14
-3.424643 -3.8613403 -0.090089321 23 7
-3.6290643 -4.0889506 1.4649159 21 15
-2.5941303 -2.9074996 -1.0440761 12 0
-3.4474108 -3.8624969 0.090368561 21 8
-2.9285991 -3.2789133 -1.0149791 8 1
-3.4718442 -3.8857751 0.27308905 28 9
-3.2557297 -3.6413348 -0.94946563 12 2
-3.4953108 -3.9065487 0.45861349 32 10
-3.2698455 -3.6532719 -0.77654076 11 3
-3.3931613 -3.7883878 0.62445855 18 11
-3.3269131 -3.7118134 -0.61202788 12 4
-3.4022648 -3.7945518 0.80720192 18 12
-3.3384314 -3.7207429 -0.4373475 16 5
-3.4994426 -3.8974557 1.0181569 33 13
-3.3979239 -3.7830617 -0.26649469 22 6
-3.2619543 -3.629132 1.126555 6 14
-3.432796 -3.8165221 -0.08960066 18 7
-3.6749022 -4.08426 1.4721627 15 15
-2.6112688 -2.8869088 -1.0430408 12 0
-3.4689233 -3.8324058 0.090228938 21 8
-2.9430022 -3.2502353 -1.0122797 10 1
-3.4921811 -3.8540428 0.27256569 21 9
-3.2626078 -3.598156 -0.94412297 11 2
-3.5325298 -3.8944724 0.46000803 15 10
-3.2780099 -3.6113408 -0.77247345 13 3
-3.3661394 -3.7058301 0.61470902 15 11
-3.3320761 -3.6670451 -0.60837179 12 4
-3.4552524 -3.7999365 0.81345934 35 12
-3.3529553 -3.6861422 -0.43595302 20 5
-3.5206044 -3.8677375 1.0166303 23 13
-3.3852487 -3.7164288 -0.26345924 12 6
-3.2892063 -3.609725 1.1274546 6 14
-3.4438729 -3.7768147 -0.089216709 16 7
-3.5509741 -3.8915408 1.4115992 6 15
-2.6313596 -2.8686082 -1.0430408 12 0
-3.4651854 -3.7762902 0.089461036 21 8
-2.9656205 -3.2296107 -1.0122797 10 1
-3.4967158 -3.8066487 0.27089092 29 9
-3.2617805 -3.548403 -0.93687224 12 2
-3.4894915 -3.7934651 0.4509438 25 10
-3.3011782 -3.587491 -0.77216065 11 3
-3.4491074 -3.7456236 0.62518978 18 11
-3.3320382 -3.6159563 -0.60374081 7 4
-3.4984431 -3.7952113 0.81752664 24 12
-3.3650987 -3.6479995 -0.43420991 14 5
-3.4423192 -3.7291007 0.9864825 24 13
-3.3914971 -3.6727567 -0.26199383 16 6
-3.3156483 -3.5881064 1.1279047 12 14
-3.4538643 -3.7350616 -0.088797845 23 7
-3.5563915 -3.8445899 1.403317 18 15
-2.6455626 -2.8449721 -1.0409703 11 0
-3.4751174 -3.7344398 0.089042179 13 8
-2.9848797 -3.206497 -1.01138 11 1
-3.4973402 -3.7543771 0.26890215 31 9
-3.2663922 -3.5040045 -0.93114793 11 2
-3.5301788 -3.7856536 0.45286122 20 10
-3.3126669 -3.5499139 -0.76903194 10 3
-3.4670427 -3.7127488 0.62372732 24 11
-3.3497982 -3.5859389 -0.60252208 12 4
-3.5208056 -3.7663665 0.81658798 28 12
-3.3667178 -3.6002705 -0.43124664 18 5
-3.4515252 -3.6883814 0.9819032 33 13
-3.4088635 -3.6402445 -0.2613658 15 6
-3.3106852 -3.5341656 1.1180067 8 14
-3.4504869 -3.6808286 -0.088064842 15 7
-3.5078077 -3.7393572 1.3738115 31 15
-2.6600575 -2.8208117 -1.0388998 12 0
-3.4867344 -3.6961524 0.088693127 20 8
-3.009867 -3.1884153 -1.0122797 11 1
-3.5132151 -3.7203197 0.26816946 28 9
-3.2793801 -3.4702744 -0.92809504 12 2
-3.5428312 -3.7464406 0.45111811 18 10
-3.3177476 -3.5071933 -0.76465172 9 3
-3.6055033 -3.8087165 0.64395767 19 11
-3.3556378 -3.5422904 -0.59910977 9 4
-3.6210928 -3.8211751 0.83379585 29 12
