# .PCD v0.7 - Point Cloud Data file format
VERSION 0.7
FIELDS x y z intensity ring
SIZE 4 4 4 4 2
TYPE F F F F U
COUNT 1 1 1 1 1
WIDTH 1313
HEIGHT 1
VIEWPOINT 0 0 0 1 0 0 0
POINTS 1313
DATA ascii
14.928459 -9.4082308 -0.92477638 14 6
15.399929 -9.7128735 4.2034354 9 14
14.882545 -9.3901854 -0.30716234 62 7
15.47704 -9.7728405 4.9046211 1 15
3.8322742 -2.433912 -1.2164496 6 0
15.345805 -9.7537775 0.31738946 9 8
4.5321426 -2.881736 -1.2399302 5 1
15.386036 -9.7906628 0.95575935 9 9
5.5491757 -3.5338531 -1.2788019 6 2
15.153525 -9.653861 1.571941 51 10
6.9257531 -4.4155908 -1.3009092 2 3
15.253633 -9.7326145 2.2216785 7 11
10.763001 -6.872643 -1.5679711 2 4
15.277117 -9.7588568 2.8711984 56 12
15.330391 -9.8079653 3.5375991 64 13
14.953255 -9.5703611 -0.93042874 16 6
15.456462 -9.9000301 4.237628 2 14
14.917662 -9.5622692 -0.30929154 68 7
18.166506 -11.649261 5.7825356 1 15
3.8212526 -2.4654617 -1.21852 6 0
15.277336 -9.8606739 0.31738946 9 8
4.5114055 -2.9140933 -1.2399302 5 1
15.41622 -9.9655685 0.96203959 11 9
5.5342612 -3.5789044 -1.2810917 6 2
15.191108 -9.8313293 1.583097 51 10
6.8923206 -4.4639635 -1.3005962 1 3
15.243625 -9.8766451 2.2302091 7 11
10.628149 -6.8914561 -1.5552968 1 4
15.306317 -9.9324436 2.8899708 55 12
13.457754 -8.736228 -1.4037304 2 5
15.35868 -9.9778538 3.5601144 63 13
14.98318 -9.7413483 -0.93660432 16 6
18.521866 -12.046634 5.1009898 1 14
14.944396 -9.7272692 -0.31124625 63 7
18.08592 -11.781069 5.7835703 1 15
3.7990997 -2.488903 -1.2169672 5 0
15.27495 -10.014696 0.31882057 12 8
4.4811749 -2.939105 -1.2372309 6 1
15.29952 -10.042262 0.95910877 14 9
5.4953828 -3.6097915 -1.2780387 6 2
15.218675 -10.000603 1.5932069 46 10
6.8362317 -4.4956903 -1.2959032 2 3
15.315165 -10.079324 2.2511706 21 11
10.549934 -6.9458375 -1.5509094 2 4
15.342173 -10.108618 2.9099944 54 12
15.405004 -10.161587 3.5872095 60 13
15.009817 -9.9084301 -0.94257063 14 6
15.529754 -10.255548 4.2965651 0 14
14.976219 -9.8975143 -0.31334051 68 7
15.554032 -10.287183 4.9967608 10 15
3.7751973 -2.5110853 -1.2148967 6 0
15.194776 -10.110682 0.31857625 13 8
4.4670348 -2.9746382 -1.2390305 5 1
15.189256 -10.118488 0.95649201 17 9
5.4739513 -3.6492918 -1.2788019 6 2
15.246273 -10.171845 1.6034913 47 10
6.8366909 -4.5629544 -1.3018478 2 3
15.295725 -10.216414 2.2584829 14 11
10.42197 -6.9663692 -1.53921 1 4
15.369893 -10.277596 2.9284537 53 12
14.955529 -10.008076 -1.5743814 23 5
15.44135 -10.340985 3.6123962 69 13
15.044903 -10.079291 -0.94906032 14 6
18.083174 -12.123921 5.0263066 1 14
14.994768 -10.060878 -0.31519046 67 7
15.634429 -10.494022 5.0454187 1 15
3.7516127 -2.5324006 -1.2128261 6 0
15.165245 -10.244499 0.31944886 13 8
4.4466839 -3.0049751 -1.2390305 5 1
15.222476 -10.294771 0.96308637 14 9
5.4450898 -3.6852171 -1.2780387 6 2
15.274021 -10.34129 1.6137757 46 10
6.793221 -4.6028152 -1.2996577 2 3
15.337394 -10.399819 2.2753007 14 11
10.183745 -6.9078817 -1.5109363 1 4
15.404001 -10.456762 2.9487898 54 12
14.967702 -10.168221 -1.583097 20 5
15.456661 -10.504336 3.6326218 58 13
15.084823 -10.259334 -0.9560734 16 6
17.867603 -12.161053 4.9898643 2 14
15.101149 -10.282006 -0.31889039 15 7
15.678924 -10.683412 5.0837235 1 15
3.7418101 -2.5639894 -1.2154143 6 0
15.198904 -10.422499 0.32168275 13 8
4.4223828 -3.033741 -1.2381306 4 1
15.257263 -10.474267 0.96989006 14 9
5.4257026 -3.7275875 -1.2795652 6 2
15.311467 -10.52328 1.6254547 27 10
6.7511563 -4.6434121 -1.2977805 2 3
15.370705 -10.579799 2.2911439 14 11
10.056791 -6.9247708 -1.4992368 1 4
15.434728 -10.635782 2.9688137 50 12
13.933548 -9.6085224 -1.4807761 16 5
15.494458 -10.68891 3.6589534 60 13
15.108162 -10.430207 -0.96214432 28 6
17.856018 -12.33645 5.0105596 3 14
15.162246 -10.479272 -0.32171765 13 7
17.794964 -12.308037 5.7975469 2 15
3.7238188 -2.5900497 -1.2154143 6 0
15.232452 -10.602609 0.32395157 13 8
4.3915005 -3.0578589 -1.2354312 6 1
15.283727 -10.650181 0.97627503 19 9
5.3995466 -3.7653749 -1.2795652 6 2
15.329136 -10.693754 1.635216 11 10
6.7266741 -4.696084 -1.2993449 1 3
15.408751 -10.765295 2.3079619 44 11
9.9333563 -6.9425006 -1.4880248 1 4
15.487981 -10.832719 2.9935303 57 12
13.792677 -9.6541481 -1.4729321 7 5
15.538467 -10.880152 3.6871934 60 13
15.129844 -10.601904 -0.96821523 18 6
17.882742 -12.540246 5.0425029 2 14
15.203313 -10.665258 -0.32416099 21 7
17.760782 -12.468598 5.8146291 1 15
3.710381 -2.6193259 -1.2169672 6 0
15.265855 -10.784844 0.32625529 14 8
4.3795943 -3.095191 -1.2381306 4 1
15.318253 -10.833891 0.98328799 14 9
5.3506932 -3.7870998 -1.2742226 6 2
15.369557 -10.882253 1.6475922 10 10
6.6824431 -4.7349362 -1.2971548 2 3
15.436856 -10.946091 2.323561 46 11
9.8101683 -6.958847 -1.4768128 1 4
15.515067 -11.013762 3.0135541 58 12
13.924725 -9.8921289 -1.4943722 12 5
15.585354 -11.075933 3.7165778 62 13
15.17265 -10.790614 -0.9757517 12 6
15.676791 -11.157394 4.4423332 5 14
15.218079 -10.834926 -0.32608074 18 7
15.70191 -11.187664 5.1660285 3 15
3.6794412 -2.6361644 -1.2128261 6 0
15.312078 -10.978548 0.32887316 19 8
4.3483777 -3.1188757 -1.2354312 6 1
15.34609 -11.015103 0.98998702 14 9
5.330502 -3.8289437 -1.275749 6 2
15.398378 -11.064858 1.6589223 11 10
6.6460171 -4.7791662 -1.2965289 2 3
15.476073 -11.137076 2.3411102 52 11
9.6807957 -6.9691753 -1.464626 1 4
15.541978 -11.196862 3.0338905 54 12
13.611286 -9.813158 -1.4680512 4 5
15.614335 -11.261414 3.7421463 54 13
15.203835 -10.973421 -0.98266 12 6
15.704359 -11.343017 4.472477 4 14
15.240939 -11.012343 -0.32820997 22 7
15.740833 -11.381907 5.2048512 7 15
3.6546981 -2.657243 -1.2107556 6 0
15.332078 -11.155769 0.33096743 14 8
4.3328009 -3.1537445 -1.2372309 6 1
15.389894 -11.210165 0.99783736 19 9
5.3068147 -3.868377 -1.2765123 6 2
15.430226 -11.251914 1.6707755 11 10
6.6029153 -4.81846 -1.2946517 2 3
15.516578 -11.331484 2.3591471 52 11
9.5645847 -6.9874077 -1.454389 1 4
15.584626 -11.393695 3.0576684 56 12
13.709677 -10.030293 -1.4861796 2 5
15.646235 -11.451313 3.7688594 54 13
15.226758 -11.152466 -0.98914969 14 6
15.750528 -11.544538 4.5084691 5 14
15.287861 -11.209524 -0.33089763 26 7
15.774689 -11.57495 5.2426386 6 15
3.6407211 -2.6861334 -1.2123084 6 0
15.356782 -11.338552 0.33320135 14 8
4.3012729 -3.1769695 -1.2345314 6 1
15.426901 -11.40281 1.0053738 19 9
5.2828355 -3.9076657 -1.2772754 6 2
15.466612 -11.444692 1.683326 11 10
6.5548286 -4.8538604 -1.291836 2 3
15.545542 -11.519901 2.3757212 44 11
9.4135094 -6.9783506 -1.4387896 1 4
15.625276 -11.591665 3.0814466 55 12
14.141634 -10.498674 -1.5409135 8 5
15.680965 -11.645713 3.7967176 45 13
15.263945 -11.344274 -0.99668604 12 6
15.791516 -11.744928 4.5435615 5 14
15.323142 -11.400731 -0.33337587 25 7
15.832953 -11.788629 5.2892261 6 15
3.6234264 -2.7126427 -1.2128261 5 0
15.395678 -11.534211 0.33578432 4 8
4.2665133 -3.1975701 -1.2309321 5 1
15.527472 -11.645647 1.0172018 4 9
5.252286 -3.9420948 -1.2765123 6 2
15.464409 -11.611005 1.6918672 22 10
6.5397344 -4.9137416 -1.2955904 1 3
15.574219 -11.710465 2.3925393 49 11
9.2979326 -6.9937816 -1.4285525 1 4
15.682855 -11.805008 3.108979 52 12
13.997975 -10.544401 -1.5332438 15 5
15.729421 -11.852967 3.828392 49 13
15.294407 -11.533535 -1.0039084 16 6
15.838243 -11.952316 4.5809031 7 14
15.262328 -11.521885 -0.33379474 57 7
15.861253 -11.982721 5.3264966 3 15
3.5997858 -2.7343667 -1.2112732 6 0
15.47557 -11.763634 0.33930969 13 8
4.2533932 -3.2343557 -1.2336316 6 1
15.596784 -11.868665 1.0271456 4 9
5.2152653 -3.9715295 -1.2742226 6 2
15.302143 -11.657108 1.6829774 30 10
6.4958453 -4.9520922 -1.2937132 2 3
15.621502 -11.917639 2.4125259 48 11
9.1636667 -6.9934888 -1.4153906 1 4
15.703671 -11.99334 3.1296282 58 12
13.694485 -10.466437 -1.5079685 8 5
15.76638 -12.054307 3.8577764 46 13
15.330897 -11.729837 -1.0116541 14 6
15.924617 -12.192914 4.6303926 1 14
15.278358 -11.702328 -0.33592394 57 7
15.94127 -12.218909 5.3818831 1 15
3.5653069 -2.7476387 -1.2060968 6 0
15.54508 -11.988621 0.34266055 4 8
4.23071 -3.2639704 -1.2336316 6 1
15.6084 -12.050493 1.0334258 4 9
5.1874123 -4.0078416 -1.2742226 6 2
15.529367 -12.002459 1.7171425 26 10
6.4517403 -4.9900689 -1.291836 2 3
15.669783 -12.128468 2.4329998 45 11
9.0612535 -7.0159726 -1.4071035 1 4
15.735111 -12.192213 3.1527805 43 12
13.606911 -10.5508 -1.5063998 8 5
15.805945 -12.260347 3.8883057 46 13
15.362228 -11.924758 -1.0191905 14 6
15.956068 -12.394646 4.6645846 1 14
15.313135 -11.899503 -0.33850691 57 7
16.006554 -12.447306 5.4331293 7 15
3.5292966 -2.7593732 -1.2004027 28 0
15.612198 -12.215148 0.3460114 4 8
4.2108898 -3.2958293 -1.2345314 6 1
15.611945 -12.228133 1.0392876 4 9
5.1500349 -4.0366921 -1.2719328 6 2
15.33231 -12.022066 1.704592 15 10
6.4167457 -5.0349889 -1.291836 2 3
15.704947 -12.331964 2.4517674 46 11
8.9558544 -7.0349154 -1.398329 1 4
15.77385 -12.399427 3.1778102 43 12
14.019933 -11.028637 -1.5606107 7 5
15.841851 -12.466309 3.9184537 53 13
15.407273 -12.133039 -1.0277736 16 6
16.31455 -12.856738 4.7955065 2 14
15.347468 -12.098969 -0.34112474 56 7
16.224121 -12.799253 5.5371747 8 15
3.5265963 -2.7971504 -1.2060968 40 0
15.565699 -12.354922 0.34688404 3 8
4.1725163 -3.3130283 -1.2300324 6 1
15.65755 -12.441197 1.04808 4 9
5.1248021 -4.0749912 -1.2726961 6 2
15.743851 -12.523225 1.760023 4 10
6.3706203 -5.0710516 -1.2896459 2 3
15.742687 -12.540255 2.4712667 47 11
8.8413191 -7.0453091 -1.3880919 1 4
15.827448 -12.621322 3.2062812 48 12
13.869404 -11.067837 -1.552418 36 5
15.867974 -12.667236 3.9466937 52 13
15.431427 -12.327569 -1.0351007 16 6
16.011297 -12.799963 4.7325201 2 14
15.384442 -12.303235 -0.34384733 58 7
16.024265 -12.824086 5.4993873 6 15
3.5084877 -2.8229134 -1.2066144 41 0
15.630151 -12.58494 0.35026982 1 8
4.1492853 -3.3420773 -1.2300324 6 1
15.655839 -12.619141 1.0538369 8 9
5.0840034 -4.1008086 -1.2696431 6 2
15.798693 -12.747936 1.7760596 4 10
6.3350625 -5.1154032 -1.2896459 2 3
15.775191 -12.747168 2.4902785 47 11
8.7301664 -7.0569444 -1.3783424 1 4
15.858743 -12.828412 3.2306848 60 12
13.88007 -11.235847 -1.5623538 7 5
15.904263 -12.879019 3.9779863 74 13
15.461368 -12.529308 -1.0429511 10 6
15.915493 -12.906522 4.7307205 45 14
15.436388 -12.52246 -0.34695384 62 7
15.91035 -12.916163 5.4911051 61 15
3.4871981 -2.8461168 -1.2060968 41 0
15.75719 -12.869577 0.35512158 12 8
4.1228342 -3.3684969 -1.2291325 6 1
15.782284 -12.903857 1.0683863 19 9
5.0552506 -4.1362019 -1.2696431 6 2
15.787941 -12.92228 1.7849497 41 10
6.3083653 -5.1670156 -1.2915231 2 3
15.77793 -12.932491 2.5049026 54 11
8.6377068 -7.0824771 -1.3715178 1 4
15.722983 -12.901222 3.2212989 51 12
14.03996 -11.528449 -1.589372 28 5
15.73963 -12.928676 3.9592869 61 13
15.52164 -12.758696 -1.0529995 30 6
15.719653 -12.930657 4.6992278 43 14
15.455134 -12.717594 -0.34936228 60 7
15.728821 -12.952012 5.4595294 63 15
3.4672439 -2.8703923 -1.2060968 37 0
15.630001 -12.948651 0.35428387 45 8
4.1082201 -3.4046581 -1.231832 6 1
15.554989 -12.900248 1.0590705 63 9
5.0171876 -4.1638699 -1.2673534 6 2
15.56091 -12.918917 1.7694358 35 10
6.2615027 -5.2020931 -1.289333 1 3
15.595675 -12.966182 2.4902785 54 11
8.5147934 -7.0816789 -1.3598183 1 4
15.555099 -12.946228 3.2053428 62 12
13.861155 -11.54458 -1.5782162 16 5
15.564519 -12.967869 3.9379163 62 13
15.550307 -12.965226 -1.0610592 52 6
15.551189 -12.975167 4.6758327 51 14
15.441198 -12.887965 -0.35107261 57 7
15.55202 -12.989676 5.4295058 68 15
3.4382436 -2.8870747 -1.202991 41 0
15.448896 -12.981553 0.35222447 66 8
4.0873346 -3.4357638 -1.2327318 6 1
15.443152 -12.990527 1.057605 73 9
4.9879956 -4.1987948 -1.2673534 6 2
15.406333 -12.973336 1.7621148 41 10
6.209928 -5.2329507 -1.2862043 2 3
15.415239 -12.999241 2.4758978 51 11
8.4408693 -7.12047 -1.3559184 2 4
15.425094 -13.021378 3.1972082 61 12
13.926333 -11.764498 -1.5949501 24 5
15.46611 -13.069877 3.936008 53 13
15.37249 -12.999961 -1.0550931 54 6
15.512292 -13.127477 4.6915793 9 14
15.355426 -12.999328 -0.35117733 70 7
3.4376347 -2.9266915 -1.2097203 13 0
15.274936 -13.013787 0.35026982 73 8
4.0608873 -3.4609776 -1.231832 6 1
15.293585 -13.043501 1.0534182 66 9
4.9563141 -4.2301006 -1.2665902 6 2
15.375249 -13.127062 1.7687386 34 10
6.1696591 -5.2712488 -1.2852658 2 3
8.3559999 -7.1467934 -1.3500687 2 4
13.982122 -11.975664 -1.6106381 10 5
15.505004 -13.284702 3.9688272 44 13
15.198736 -13.031495 -1.0492313 66 6
15.560122 -13.350776 4.7334204 24 14
15.20134 -13.047543 -0.34967643 74 7
16.132029 -13.856151 5.6981602 45 15
3.4112701 -2.9455686 -1.2076497 6 0
15.230617 -13.160638 0.35135186 17 8
4.0307293 -3.4841456 -1.2300324 5 1
4.9236927 -4.2620287 -1.2658269 6 2
15.382639 -13.320162 1.7802432 35 10
6.1267371 -5.3090177 -1.2840142 2 3
8.2699146 -7.173737 -1.344219 2 4
16.073502 -13.952791 3.3711631 53 12
13.782357 -11.972377 -1.597216 6 5
16.003166 -13.906435 4.1210928 54 13
15.131505 -13.158254 -1.0509062 12 6
15.179259 -13.213746 -0.35128203 92 7
16.184938 -14.099134 5.7514768 55 15
3.3964369 -2.9744029 -1.2097203 6 0
15.279735 -13.390534 0.35463291 5 8
4.0004454 -3.5070615 -1.2282327 6 1
16.054354 -14.084247 1.1192569 19 9
4.8908672 -4.2937078 -1.2650636 6 2
6.0895238 -5.3516607 -1.2840142 2 3
16.025898 -14.093968 2.6204348 45 11
8.1719379 -7.1893373 -1.3364193 2 4
16.101728 -14.175617 3.3977571 48 12
13.637147 -12.014304 -1.5900694 9 5
16.060343 -14.154115 4.1611629 29 13
15.17259 -13.381145 -1.0602219 12 6
16.387659 -14.462923 5.046102 1 14
15.899138 -14.036715 -0.37020046 50 7
16.227995 -14.337132 5.8022056 50 15
3.3640335 -2.9877787 -1.2055792 5 0
15.991509 -14.212905 0.37344658 50 8
3.9904284 -3.5478528 -1.2327318 6 1
16.113804 -14.33671 1.1303521 17 9
4.8637056 -4.330359 -1.2658269 6 2
6.0682354 -5.4085007 -1.2874558 2 3
16.06637 -14.329711 2.6433463 42 11
8.0919247 -7.2197809 -1.3315445 2 4
16.149725 -14.419245 3.429044 55 12
13.648028 -12.194174 -1.6012254 9 5
16.284636 -14.555031 4.2455006 9 13
15.897576 -14.219067 -1.1177915 38 6
16.440208 -14.71474 5.0937915 1 14
15.931858 -14.264751 -0.37327206 45 7
16.262756 -14.571254 5.8508635 57 15
3.3603182 -3.026706 -1.2117908 5 0
16.027063 -14.446034 0.37662295 50 8
3.9626677 -3.573015 -1.231832 6 1
16.148264 -14.570609 1.1398772 15 9
4.8275275 -4.3589449 -1.2643005 6 2
16.093885 -14.536839 1.8973805 1 10
6.0039511 -5.4268904 -1.2818241 2 3
16.116104 -14.577351 2.6682076 44 11
8.0369072 -7.2721014 -1.3308133 2 4
16.195095 -14.664225 3.4603307 53 12
13.686584 -12.401534 -1.6158675 6 5
16.338268 -14.809443 4.2863336 2 13
15.941418 -14.459865 -1.1279447 48 6
16.397684 -14.884166 5.1126876 8 14
15.982891 -14.512744 -0.37683237 52 7
16.306469 -14.816948 5.9036627 50 15
3.3719122 -3.0800583 -1.2236965 6 0
16.070465 -14.689789 0.3800436 50 8
3.9232459 -3.5874414 -1.2273329 6 1
16.180235 -14.805688 1.1494024 14 9
4.8056664 -4.4004965 -1.2665902 6 2
16.216791 -14.854747 1.9240501 9 10
5.9455323 -5.4499855 -1.277444 7 3
16.152914 -14.816985 2.6913629 41 11
7.9625411 -7.3065577 -1.3269135 2 4
16.250921 -14.922562 3.4944336 52 12
13.718505 -12.605975 -1.6299868 8 5
16.455626 -15.126424 4.3447208 1 13
15.979724 -14.699259 -1.1378884 42 6
16.562927 -15.246402 5.1972694 1 14
16.03417 -14.764847 -0.38046247 49 7
16.361744 -15.077046 5.961638 55 15
3.3474932 -3.1008978 -1.2226613 10 0
16.130306 -14.952522 0.38391805 46 8
3.9038208 -3.6200435 -1.2291325 6 1
16.20092 -15.033761 1.1582996 16 9
4.7546873 -4.4152355 -1.2612475 6 2
16.233852 -15.080147 1.9385179 1 10
5.9449568 -5.5263286 -1.2855786 3 3
16.190063 -15.06054 2.7150056 48 11
7.88518 -7.337626 -1.3225262 2 4
16.2938 -15.172961 3.5263462 49 12
13.759892 -12.82233 -1.6455004 2 5
16.519079 -15.398901 4.3897519 1 13
16.016922 -14.941248 -1.1479371 40 6
16.58429 -15.48134 5.2377601 1 14
16.085623 -15.021095 -0.38416237 43 7
16.409941 -15.334676 6.0180607 51 15
3.3173149 -3.116256 -1.2195554 16 0
3.8756142 -3.6445386 -1.2282327 6 1
16.162477 -15.209458 1.1631144 13 9
4.7180305 -4.4429383 -1.259721 6 2
16.219542 -15.279181 1.9494997 4 10
5.9062314 -5.567697 -1.2855786 2 3
16.241922 -15.321676 2.7415729 45 11
7.8294311 -7.3884091 -1.321795 2 4
16.333969 -15.424682 3.5582585 49 12
13.787338 -13.028922 -1.6596197 8 5
16.542429 -15.637929 4.424861 1 13
16.002178 -15.137799 -1.1544266 14 6
16.569208 -15.685163 5.2674537 2 14
15.971655 -15.124778 -0.38395295 66 7
16.472158 -15.609653 6.0806952 57 15
3.2870862 -3.1313441 -1.2164496 16 0
3.8500762 -3.6715066 -1.2282327 6 1
16.266861 -15.523238 1.1783965 16 9
4.6925774 -4.4811916 -1.2612475 6 2
16.257988 -15.531042 1.9671052 1 10
5.8700738 -5.6115246 -1.2862043 2 3
16.292351 -15.585638 2.7683842 46 11
7.7504101 -7.416811 -1.3171639 2 4
16.381399 -15.687257 3.5923615 51 12
13.821194 -13.24479 -1.6747848 10 5
16.488123 -15.80602 4.439744 3 13
15.978263 -15.327955 -1.1603929 14 6
16.553493 -15.890875 5.2975974 5 14
15.903176 -15.271923 -0.38486049 48 7
16.51461 -15.870173 6.1371179 58 15
3.259588 -3.1488473 -1.2143791 16 0
16.173059 -15.634516 0.39264426 1 8
3.8243506 -3.6982956 -1.2282327 6 1
16.300184 -15.773924 1.188759 18 9
4.6513062 -4.504282 -1.2585762 5 2
16.346647 -15.835473 1.99116 1 10
5.8165722 -5.6386194 -1.2830757 3 3
16.344151 -15.855185 2.7959268 47 11
7.712688 -7.4845624 -1.3196013 2 4
16.435869 -15.960875 3.6286542 49 12
13.705528 -13.318739 -1.6719956 15 5
16.532227 -16.071274 4.4817219 7 13
16.025478 -15.589539 -1.1716975 17 6
16.615299 -16.174608 5.353385 5 14
15.953761 -15.536038 -0.38870001 58 7
16.561138 -16.138781 6.1961279 51 15
3.2402856 -3.1742301 -1.2154143 13 0
3.806787 -3.7330906 -1.2309321 6 1
16.303705 -15.999248 1.1971327 30 9
4.6239495 -4.5407705 -1.259721 6 2
16.357931 -16.069283 2.006151 1 10
5.7728391 -5.6749334 -1.282137 2 3
16.387314 -16.120644 2.8224943 46 11
7.6446853 -7.5229087 -1.3169203 3 4
16.481684 -16.230465 3.6636958 51 12
13.554029 -13.356759 -1.664849 13 5
16.598587 -16.362715 4.5305691 7 13
15.836628 -15.62249 -1.1658359 57 6
16.665623 -16.451756 5.4064736 6 14
15.789418 -15.592238 -0.3873387 73 7
16.625326 -16.429176 6.2629037 45 15
3.2180464 -3.196774 -1.2154143 16 0
16.310574 -16.214069 0.40144026 4 8
3.761287 -3.7403388 -1.2246336 6 1
16.33177 -16.252151 1.2074952 52 9
4.5921369 -4.5729408 -1.259721 6 2
16.418968 -16.356045 2.0275912 3 10
5.7316809 -5.7137032 -1.2818241 3 3
16.431774 -16.391672 2.849793 47 11
7.5680919 -7.5522575 -1.3127767 2 4
16.5371 -16.514027 3.7015526 54 12
13.399852 -13.390499 -1.6573535 17 5
16.72971 -16.723869 4.5981154 1 13
15.641046 -15.646505 -1.1594509 68 6
16.802399 -16.820004 5.4888058 1 14
15.602467 -15.624264 -0.38541895 75 7
16.680801 -16.715771 6.3276086 52 15
3.1956506 -3.219162 -1.2154143 12 0
16.430761 -16.56321 0.40723446 12 8
3.7364552 -3.767889 -1.2250834 9 1
16.37818 -16.5275 1.2194279 48 9
4.5490484 -4.5937285 -1.2566681 6 2
16.588924 -16.757708 2.0629764 1 10
5.6888752 -5.7507691 -1.2811985 2 3
16.496969 -16.688101 2.8812351 46 11
7.5082059 -7.5978484 -1.3115579 2 4
16.58658 -16.796335 3.7387843 49 12
13.23327 -13.409977 -1.6482893 17 5
16.769726 -16.999588 4.6416197 1 13
15.447303 -15.669978 -1.1531706 59 6
16.904745 -17.160406 5.5612402 2 14
15.411628 -15.650169 -0.38339445 75 7
16.734428 -17.005312 6.3928304 50 15
3.1717472 -3.2400129 -1.2148967 10 0
16.404226 -16.768999 0.40946838 4 8
3.7155097 -3.7994561 -1.2268831 44 1
16.431303 -16.81428 1.2320932 52 9
4.5168672 -4.6253748 -1.2566681 6 2
16.598181 -17.002848 2.0788388 3 10
5.6444497 -5.7861023 -1.2802597 2 3
16.554657 -16.981966 2.9119463 43 11
7.4466691 -7.6415505 -1.3100955 2 4
16.637053 -17.084375 3.7769542 46 12
12.707188 -13.057964 -1.5940785 9 5
16.783426 -17.252748 4.6786366 8 13
15.273492 -15.71156 -1.1483557 59 6
16.830698 -17.325529 5.5765367 37 14
15.223979 -15.677045 -0.38143981 81 7
16.784819 -17.29641 6.4580531 63 15
3.1503923 -3.2634664 -1.2154143 12 0
16.575531 -17.182459 0.41672856 2 8
3.6875415 -3.8238995 -1.2264332 39 1
16.490911 -17.112665 1.2454911 50 9
4.4953613 -4.6681089 -1.259721 6 2
16.592381 -17.236012 2.0931323 11 10
5.5957007 -5.8168254 -1.2783825 2 3
16.609039 -17.277441 2.9426575 46 11
7.3958902 -7.6962132 -1.310583 2 4
16.658306 -17.346861 3.8091795 71 12
12.489691 -13.010486 -1.5778675 4 5
16.659853 -17.366665 4.6778736 57 13
15.095708 -15.747159 -1.1432267 61 6
16.647661 -17.372152 5.5549412 52 14
15.085118 -15.752615 -0.38070679 66 7
16.615576 -17.362921 6.4394183 78 15
3.1275327 -3.2853806 -1.2154143 12 0
16.520226 -17.360075 0.41829926 14 8
3.6526983 -3.8410771 -1.2237337 39 1
16.519915 -17.37796 1.2565864 76 9
4.4526649 -4.6872125 -1.2566681 6 2
16.497709 -17.378881 2.0964441 54 10
5.5383015 -5.8361521 -1.2743154 3 3
16.493782 -17.392977 2.943145 57 11
7.3201342 -7.7246041 -1.3066832 2 4
16.474636 -17.391012 3.794162 67 12
12.284875 -12.977273 -1.5633998 3 5
16.465351 -17.405533 4.6572661 70 13
15.027967 -15.891629 -1.1462622 42 6
16.468422 -17.427048 5.5355959 61 14
15.121685 -16.013109 -0.38444161 54 7
16.430698 -17.405376 6.4135361 76 15
3.1130321 -3.3150423 -1.21852 11 0
16.335684 -17.407909 0.41669366 55 8
3.6238024 -3.8630085 -1.222834 41 1
16.323067 -17.412725 1.2508295 80 9
4.4144654 -4.7124524 -1.2551417 6 2
16.315027 -17.422421 2.0882516 50 10
5.5055208 -5.8833275 -1.2761924 3 3
16.296028 -17.426504 2.9294956 60 11
7.2511191 -7.7595654 -1.3040022 2 4
16.290792 -17.439199 3.7797699 70 12
12.089289 -12.950573 -1.5499777 4 5
16.284513 -17.456892 4.6404753 66 13
15.080112 -16.17144 -1.1588228 51 6
16.382227 -17.580086 5.5477428 49 14
15.17033 -16.290976 -0.38856038 46 7
16.25482 -17.461687 6.392313 74 15
3.0892305 -3.3372333 -1.21852 11 0
16.143131 -17.445206 0.41487861 60 8
3.6053278 -3.8988559 -1.2259833 37 1
16.124851 -17.449873 1.2451773 90 9
4.3787942 -4.7402716 -1.2543784 6 2
16.142639 -17.487482 2.0821507 37 10
5.4498863 -5.9080539 -1.2730639 2 3
16.273552 -17.647837 2.9475322 57 11
7.1819735 -7.7939405 -1.3013209 2 4
16.30341 -17.705002 3.8119955 69 12
11.901429 -12.929113 -1.5374273 4 5
16.346992 -17.770998 4.6935201 50 13
15.118093 -16.446564 -1.1707554 38 6
15.183366 -16.534939 -0.39184144 10 7
15.557364 -16.954103 6.1655874 16 15
3.0580428 -3.3501582 -1.2154143 11 0
16.153996 -17.709494 0.41840398 72 8
3.579334 -3.9253707 -1.2264332 6 1
16.158678 -17.733271 1.2573192 84 9
4.3474054 -4.7743878 -1.2551417 6 2
16.187805 -17.783928 2.1039395 20 10
5.4071794 -5.9444962 -1.272751 2 3
7.1287222 -7.8453588 -1.3015647 2 4
27.170624 -29.923014 6.4016118 29 12
11.717138 -12.908615 -1.5252254 3 5
27.172974 -29.957104 7.8617129 31 13
15.436161 -17.029686 -1.2045645 20 6
27.139702 -29.951923 9.3314199 33 14
16.048712 -17.724113 -0.41735685 52 7
15.49047 -17.1196 6.1862931 39 15
3.0319955 -3.3685541 -1.2143791 11 0
26.960768 -29.963993 0.70357633 31 8
3.5648727 -3.9647543 -1.2309321 6 1
26.926933 -29.95792 2.1110234 31 9
4.3095593 -4.7980256 -1.2536151 6 2
26.898968 -29.968866 3.5231838 31 10
5.3560371 -5.9694009 -1.2702481 2 3
26.913355 -30.016493 4.950089 5 11
7.0777516 -7.8993711 -1.3022959 2 4
26.858248 -29.986609 6.375957 28 12
11.539038 -12.892118 -1.5137209 3 5
26.838833 -30.007059 7.8254585 34 13
24.80629 -27.744326 -1.9504566 4 6
26.822172 -30.020048 9.2940779 33 14
26.792244 -30.007626 -0.70218009 24 7
15.548532 -17.420658 6.2566919 45 15
3.0115614 -3.3920031 -1.2154143 11 0
26.663336 -30.052757 0.70127261 5 8
3.5429752 -3.99476 -1.2327318 6 1
15.255576 -17.213003 1.2054019 18 9
4.2785616 -4.8309345 -1.2543784 6 2
26.576809 -30.018497 3.5076699 10 10
5.3129234 -6.0051675 -1.2699351 2 3
26.566402 -30.048985 4.9247408 23 11
7.014617 -7.9369521 -1.3005898 2 4
26.541021 -30.05197 6.3503013 33 12
11.344602 -12.854351 -1.4999503 3 5
26.51317 -30.05213 7.789968 34 13
26.502443 -30.082281 9.2558365 32 14
15.135386 -17.185856 -0.39972994 16 7
15.522256 -17.637547 6.2955146 32 15
2.98908 -3.4143989 -1.215932 10 0
16.356781 -18.697365 0.43362248 6 8
3.5329599 -4.0399342 -1.2390305 6 1
26.307575 -30.103865 2.0952177 35 9
4.2395658 -4.8547716 -1.252852 6 2
26.265707 -30.087732 3.4942482 30 10
5.2721696 -6.0436006 -1.2702481 2 3
26.243795 -30.105032 4.903779 22 11
6.9433861 -7.9677711 -1.2976649 2 4
26.213818 -30.102455 6.3221431 28 12
11.170879 -12.837044 -1.4887943 3 5
26.202215 -30.12096 7.7602024 41 13
15.029368 -17.28931 -1.2005869 2 6
26.176764 -30.134161 9.2153454 32 14
26.158312 -30.123537 -0.69638592 27 7
15.550681 -17.920574 6.3576312 43 15
2.9676948 -3.4381077 -1.2169672 10 0
16.129202 -18.699049 0.43103954 17 8
3.5135782 -4.074831 -1.2421798 15 1
25.97813 -30.149107 2.0856926 34 9
4.2081318 -4.8872261 -1.2536151 6 2
25.948433 -30.146545 3.4799545 30 10
5.2221198 -6.0712743 -1.2683709 2 3
25.934645 -30.173105 4.8852549 22 11
6.872067 -7.997982 -1.29474 2 4
14.790854 -17.226339 3.5961158 3 12
10.974604 -12.790729 -1.4745009 2 5
25.889044 -30.183933 7.7296729 37 13
15.978007 -18.641861 -1.286732 7 6
25.851665 -30.18297 9.1748543 31 14
25.835527 -30.174789 -0.69338411 27 7
15.626142 -18.263563 6.4404531 50 15
2.9448721 -3.4602129 -1.2174848 11 0
16.051378 -18.873648 0.43247062 4 8
3.4762096 -4.0888677 -1.2390305 13 1
25.659689 -30.203392 2.0770049 34 9
4.168828 -4.9104986 -1.2520887 6 2
25.636784 -30.208475 3.4663582 30 10
5.1808848 -6.1090903 -1.2686837 3 3
25.625828 -30.238329 4.8667307 21 11
6.8070822 -8.035161 -1.2930338 3 4
14.764682 -17.440748 3.6192682 1 12
10.774374 -12.736217 -1.45951 2 5
25.576271 -30.244009 7.6991434 36 13
23.276825 -27.544403 -1.8899564 13 6
25.538473 -30.242109 9.1384115 31 14
25.527498 -30.239815 -0.69076627 27 7
15.682611 -18.590748 6.5170636 50 15
2.9181604 -3.4777281 -1.2164496 11 0
25.376968 -30.264542 0.68940496 35 8
3.4463272 -4.1115427 -1.2385805 16 1
25.348173 -30.262369 2.0688405 34 9
4.1394854 -4.9455042 -1.2536151 6 2
25.325539 -30.267527 3.4527619 30 10
5.1355758 -6.1420789 -1.2680578 3 3
25.314821 -30.29767 4.8477192 21 11
6.7317328 -8.0596333 -1.2893778 5 4
25.276398 -30.283897 6.2476807 31 12
10.575109 -12.674637 -1.4441707 2 5
25.257641 -30.293655 7.6667056 36 13
23.140215 -27.77375 -1.8945618 4 6
25.242241 -30.30743 9.106019 31 14
25.21982 -30.302015 -0.68814838 27 7
15.750093 -18.937426 6.5998859 50 15
2.8938107 -3.4980156 -1.2164496 11 0
25.070974 -30.316372 0.68668234 35 8
3.4076083 -4.1234851 -1.2349813 20 1
25.06146 -30.337196 2.0622463 34 9
4.1032271 -4.9705381 -1.252852 6 2
25.012186 -30.320637 3.4388168 29 10
5.0735407 -6.1525087 -1.263052 5 3
24.999441 -30.337528 4.8267579 21 11
6.668993 -8.0987711 -1.2881591 10 4
24.974266 -30.339334 6.2239027 31 12
10.397767 -12.640445 -1.4319688 2 5
24.944559 -30.346399 7.6357946 36 13
22.765503 -27.705315 -1.8792796 17 6
24.936054 -30.368456 9.071826 30 14
24.903646 -30.350578 -0.68528622 26 7
24.886734 -30.340765 10.514783 31 15
2.8797035 -3.5296071 -1.2205906 11 0
24.763948 -30.374422 0.68406457 35 8
3.3819244 -4.1496053 -1.2358811 18 1
24.73933 -30.37669 2.0531399 33 9
4.0684261 -4.999063 -1.252852 6 2
24.714693 -30.378908 3.4262664 29 10
5.0317111 -6.1893115 -1.2633649 2 3
24.694412 -30.397305 4.8087206 21 11
6.6187177 -8.1501408 -1.289134 27 4
24.666004 -30.394842 6.1998119 31 12
10.22393 -12.607496 -1.4201156 3 5
24.645937 -30.402632 7.6075554 35 13
22.690966 -28.011009 -1.8892236 13 6
24.619217 -30.41305 9.0335846 30 14
24.605909 -30.407465 -0.68277305 26 7
24.580776 -30.398094 10.474924 36 15
2.8598351 -3.5556464 -1.2226613 11 0
24.463604 -30.437462 0.68162119 39 8
3.3614166 -4.1837487 -1.2390305 14 1
24.43788 -30.438082 2.0457079 37 9
4.0260563 -5.0181556 -1.2505622 6 2
24.414751 -30.44191 3.4140646 34 10
4.9822025 -6.2165809 -1.2618005 3 3
24.389774 -30.4543 4.7906842 21 11
6.551733 -8.1837521 -1.2871841 78 4
24.353251 -30.441359 6.174469 34 12
10.053555 -12.575854 -1.4086111 2 5
24.343615 -30.46199 7.5796971 42 13
22.205713 -27.80666 -1.8649397 8 6
24.309052 -30.462328 8.997592 29 14
22.315489 -27.974148 -0.62462163 6 7
24.278851 -30.457174 10.43662 35 15
2.8289411 -3.5679557 -1.220073 19 0
24.164825 -30.499357 0.67921281 39 8
3.3369665 -4.2132239 -1.2408301 11 1
24.128109 -30.485794 2.0375438 37 9
3.9909248 -5.0461402 -1.2505622 6 2
24.110193 -30.495956 3.4011657 34 10
4.9472532 -6.2620611 -1.2639905 2 3
24.090466 -30.514765 4.7736225 21 11
6.4919806 -8.2261753 -1.2866967 85 4
24.045954 -30.491196 6.1503782 30 12
9.8690443 -12.518823 -1.3946662 2 5
24.04653 -30.524786 7.5533652 35 13
16.035439 -20.370089 -1.3586415 42 6
24.019196 -30.522949 8.9669991 32 14
21.907043 -27.858892 -0.61861801 15 7
23.979689 -30.51656 10.399349 35 15
2.7992053 -3.5815301 -1.2180026 15 0
21.813259 -27.919695 0.61844349 28 8
3.311069 -4.2410259 -1.2421798 14 1
23.84631 -30.554848 2.0312634 33 9
3.9613142 -5.079381 -1.2520887 6 2
23.792604 -30.529953 3.386349 33 10
4.8850913 -6.270658 -1.2589847 3 3
23.801718 -30.574654 4.7575359 21 11
6.4490204 -8.2901001 -1.2896215 24 4
23.760244 -30.554367 6.1303549 30 12
9.7019424 -12.485155 -1.3833359 3 5
23.737719 -30.569416 7.5232172 38 13
21.661001 -27.905077 -1.8513322 8 6
23.723108 -30.583643 8.935956 29 14
21.482933 -27.715597 -0.61209083 21 7
23.672022 -30.550802 10.355867 35 15
2.7782993 -3.6050911 -1.2195554 16 0
21.599512 -28.047537 0.61791992 28 8
3.2702372 -4.248023 -1.2376807 13 1
23.544739 -30.606606 2.0237269 37 9
3.9257572 -5.1069121 -1.2520887 6 2
23.511406 -30.596409 3.3758905 38 10
4.8327727 -6.293643 -1.2567947 3 3
23.495848 -30.620384 4.7390118 21 11
6.3921952 -8.3364954 -1.2898653 13 4
23.468245 -30.61759 6.1100183 33 12
9.5551805 -12.47508 -1.3747947 2 5
23.440199 -30.625259 7.4965043 40 13
21.349155 -27.903343 -1.8412839 20 6
23.421427 -30.633951 8.9026623 29 14
21.09589 -27.612249 -0.60654092 6 7
23.378429 -30.61092 10.320669 34 15
2.7606091 -3.6356497 -1.2231789 15 0
21.422522 -28.223129 0.61847842 16 8
3.2385781 -4.2697635 -1.2372309 18 1
23.238258 -30.659698 2.0161905 37 9
3.8828948 -5.1248055 -1.249799 6 2
23.213688 -30.660614 3.3645601 28 10
4.7876134 -6.3280635 -1.2567947 3 3
23.192902 -30.666508 4.7209749 21 11
6.3254633 -8.369832 -1.2881591 10 4
23.172359 -30.683849 6.0899944 33 12
9.3958292 -12.446073 -1.3643359 2 5
23.144243 -30.680012 7.4701724 37 13
21.058769 -27.935781 -1.8334334 12 6
23.126074 -30.689337 8.8716202 32 14
21.027706 -27.924984 -0.61017102 9 7
23.082125 -30.675547 10.286505 38 15
2.73979 -3.6610205 -1.2252494 13 0
21.372108 -28.579082 0.62291127 8 8
3.2133582 -4.2985115 -1.2390305 15 1
22.944759 -30.715574 2.0092824 36 9
3.843775 -5.1493134 -1.2490358 6 2
22.9252 -30.722929 3.3537531 32 10
4.7397771 -6.3565822 -1.2558562 5 3
22.896954 -30.729811 4.7053757 23 11
6.2609482 -8.4058275 -1.2869403 5 4
22.867949 -30.724447 6.0662165 33 12
9.2637215 -12.455436 -1.3580607 2 5
22.8557 -30.741585 7.4461308 37 13
20.788187 -27.981113 -1.8268391 16 6
22.817593 -30.735119 8.8374271 31 14
21.1409 -28.487011 -0.61921144 9 7
22.791458 -30.733526 10.252341 34 15
2.7038448 -3.6660659 -1.2205906 12 0
21.167322 -28.721151 0.62277168 24 8
3.1844263 -4.3224092 -1.2394803 13 1
22.656353 -30.77529 2.0027926 36 9
3.8030787 -5.1696963 -1.2475092 6 2
22.616909 -30.755423 3.3399823 32 10
4.6917748 -6.3847413 -1.2549174 3 3
22.612539 -30.794506 4.6909952 23 11
6.1891909 -8.4317284 -1.2842592 3 4
22.57345 -30.77503 6.0449414 32 12
9.107049 -12.424994 -1.3477764 3 5
22.565104 -30.797459 7.4213252 40 13
20.508566 -28.011139 -1.8194072 24 6
22.538031 -30.805588 8.812233 31 14
20.816376 -28.462811 -0.61551148 3 7
22.494272 -30.779591 10.215071 33 15
2.6804569 -3.6879783 -1.2216259 12 0
22.387007 -30.824379 0.66497159 38 8
3.1564629 -4.3476887 -1.2403802 9 1
22.361198 -30.822771 1.9956747 36 9
3.7784185 -5.2120152 -1.2513254 6 2
22.335001 -30.820606 3.3300464 32 10
4.6355014 -6.401341 -1.2517889 3 3
22.322525 -30.848698 4.675396 22 11
6.1313396 -8.4763403 -1.284503 3 4
22.281675 -30.82621 6.024292 32 12
8.987421 -12.443047 -1.3428956 4 5
22.267954 -30.841228 7.3942308 37 13
20.227205 -28.035398 -1.8117663 20 6
22.244919 -30.854689 8.7816391 31 14
21.032219 -29.183355 -0.62790269 19 7
22.204334 -30.832413 10.180906 33 15
2.6546447 -3.7066014 -1.2216259 18 0
22.094456 -30.872593 0.66266787 32 8
3.1146951 -4.3537698 -1.2358811 20 1
22.078104 -30.883898 1.989604 36 9
3.7647638 -5.2702174 -1.2589579 10 2
22.044035 -30.87039 3.3187165 32 10
4.5757828 -6.412643 -1.2477214 3 3
22.03171 -30.898722 4.6595526 22 11
6.0651007 -8.5092392 -1.2830406 3 4
22.004044 -30.894129 6.0073967 36 12
8.9003334 -12.505487 -1.3428956 3 5
21.978121 -30.891954 7.3694253 39 13
19.962711 -28.079884 -1.8055906 23 6
21.963512 -30.917093 8.7555447 31 14
21.186893 -29.834902 -0.63872319 30 7
21.916992 -30.885845 10.147778 33 15
2.6353862 -3.7345142 -1.2247318 18 0
21.80694 -30.924763 0.66050375 37 8
3.076365 -4.3642588 -1.2327318 15 1
21.788345 -30.932772 1.9829048 36 9
3.7256191 -5.2931604 -1.2581946 19 2
21.767218 -30.937172 3.3094776 37 10
4.5354471 -6.4508948 -1.2489729 3 3
21.740143 -30.944574 4.643466 20 11
5.9838719 -8.5205088 -1.2784096 3 4
21.720875 -30.95159 5.9889374 36 12
8.7956533 -12.542848 -1.3402809 2 5
21.702196 -30.959431 7.3491998 39 13
19.64817 -28.05007 -1.7948095 19 6
21.668915 -30.957916 8.7240515 31 14
20.916183 -29.89361 -0.63683832 30 7
21.631098 -30.938353 10.115166 37 15
2.613662 -3.7591662 -1.2268023 16 0
21.531181 -30.990852 0.65868872 37 8
3.0513802 -4.3936319 -1.2349813 16 1
21.496712 -30.975838 1.9759965 36 9
3.6717937 -5.2948413 -1.2524703 23 2
21.479193 -30.985218 3.298496 31 10
4.4779291 -6.4645381 -1.2455313 3 3
21.456928 -30.999294 4.6290855 22 11
5.9050403 -8.5343246 -1.2742659 3 4
21.431246 -30.996862 5.9686017 32 12
8.7022114 -12.595753 -1.3394095 4 5
21.416359 -31.010029 7.3255396 35 13
19.404221 -28.117521 -1.7904133 19 6
21.385885 -31.012182 8.6970577 31 14
20.630941 -29.928595 -0.63449973 26 7
21.352116 -30.997929 10.085661 37 15
2.5808039 -3.7677584 -1.2236965 13 0
21.246534 -31.041403 0.65659446 37 8
3.0184317 -4.4116106 -1.2340814 17 1
21.221321 -31.039419 1.9705535 36 9
3.6292021 -5.3122411 -1.2505622 20 2
21.192692 -31.032406 3.2876887 36 10
4.4404826 -6.5070643 -1.2477214 2 3
21.180717 -31.061411 4.6161675 20 11
5.8408446 -8.5687799 -1.2732911 3 4
21.144268 -31.04287 5.9488907 35 12
8.5916042 -12.618462 -1.3355745 3 5
21.137503 -31.067888 7.3041687 39 13
19.110882 -28.11025 -1.7814115 11 6
21.10858 -31.060329 8.670064 30 14
20.352966 -29.970982 -0.63237047 32 7
21.063599 -31.040735 10.051497 36 15
2.5555179 -3.7872849 -1.2242141 13 0
20.965422 -31.082516 0.65443033 36 8
2.9940946 -4.4422712 -1.2367809 16 1
20.947056 -31.090391 1.964692 38 9
3.5929592 -5.3368206 -1.2505622 13 2
20.913252 -31.087029 3.2779274 31 10
4.38727 -6.5240254 -1.2452185 3 3
20.906799 -31.112595 4.6025181 22 11
5.7775607 -8.6044035 -1.2725598 3 4
20.874132 -31.099142 5.9323082 31 12
8.4744482 -12.635113 -1.3310424 4 5
20.850142 -31.110317 7.2797451 39 13
18.816826 -28.087025 -1.7717816 7 6
20.8316 -31.11787 8.645319 27 14
20.094315 -30.039206 -0.63083464 32 7
20.78632 -31.08543 10.01992 36 15
2.5328884 -3.809418 -1.225767 16 0
20.688162 -31.138184 0.65254551 36 8
2.955163 -4.4495621 -1.2331817 18 1
20.670961 -31.147671 1.9591444 38 9
3.5588691 -5.3666825 -1.2517071 13 2
20.634018 -31.127361 3.2672944 36 10
4.329617 -6.5363793 -1.2417769 3 3
20.620056 -31.153509 4.5871625 22 11
5.7155733 -8.6385641 -1.2718287 3 4
20.593325 -31.14854 5.9141622 35 12
8.3772631 -12.675882 -1.3292993 3 5
20.570826 -31.14995 7.2560854 39 13
18.557585 -28.122686 -1.7658154 11 6
20.555996 -31.162968 8.6187754 33 14
19.831053 -30.086798 -0.62898475 32 7
20.516733 -31.150732 9.9945564 32 15
2.5115244 -3.835089 -1.2283553 14 0
20.41659 -31.187935 0.65066063 36 8
2.915493 -4.4570374 -1.2295824 16 1
20.391796 -31.18568 1.9527593 34 9
3.5179613 -5.3842087 -1.2501806 13 2
20.357386 -31.180563 3.2578816 35 10
4.2796273 -6.5574279 -1.2402126 3 3
20.344635 -31.196699 4.5730257 22 11
5.6367011 -8.6499825 -1.2676851 3 4
20.326918 -31.205233 5.8985186 31 12
8.269001 -12.704 -1.3261617 3 5
20.299334 -31.21051 7.2370038 39 13
18.266666 -28.095976 -1.7562902 18 6
20.27424 -31.207663 8.5917807 30 14
19.560642 -30.132259 -0.62706494 29 7
20.24428 -31.197292 9.9650517 36 15
2.4843147 -3.8504725 -1.2278377 16 0
20.137684 -31.23559 0.64870596 36 8
2.8850877 -4.476779 -1.2295824 17 1
20.111948 -31.231569 1.9467931 38 9
3.4728508 -5.3970799 -1.2475092 13 2
20.088631 -31.231274 3.2488174 35 10
4.2316079 -6.5838208 -1.2395868 7 3
20.069492 -31.249447 4.5601077 22 11
5.5536613 -8.6540384 -1.2625666 3 4
20.04244 -31.243294 5.8791208 31 12
8.1672068 -12.741289 -1.32407 3 5
20.025887 -31.265501 7.2171597 37 13
18.072226 -28.226175 -1.7564994 11 6
20.064276 -31.361576 8.5953798 10 14
18.538761 -28.999401 -0.60078162 3 7
20.223639 -31.647154 10.063402 12 15
2.4484122 -3.8551044 -1.2236965 16 0
19.878401 -31.31126 0.64737958 13 8
2.8519349 -4.4956646 -1.2291325 15 1
19.835552 -31.292025 1.9416642 38 9
3.4235284 -5.4029517 -1.2433115 13 2
19.80921 -31.28669 3.2397532 35 10
4.1854439 -6.615603 -1.2398998 32 3
19.816887 -31.335104 4.5523076 20 11
5.4867477 -8.6825304 -1.2611041 3 4
19.938589 -31.576324 5.9147878 14 12
8.0567904 -12.764299 -1.3205838 4 5
20.070005 -31.821342 7.3129458 13 13
17.795242 -28.2365 -1.7491724 7 6
20.211515 -32.08292 8.7541952 10 14
18.197369 -28.908117 -0.59624404 11 7
20.361811 -32.371578 10.247165 12 15
2.41222 -3.857362 -1.2190377 15 0
18.000738 -28.807201 0.59292811 14 8
2.8173828 -4.5105062 -1.2277828 16 1
19.687462 -31.543261 1.9486772 11 9
3.3775065 -5.4156504 -1.2406402 14 2
19.809549 -31.775896 3.27601 9 10
4.1234889 -6.6195111 -1.2352067 30 3
19.922586 -32.006973 4.6290855 7 11
5.4280953 -8.7239933 -1.2615916 4 4
20.091049 -32.315323 6.0267949 10 12
7.9674821 -12.820235 -1.3205838 3 5
20.205725 -32.537754 7.4449859 13 13
17.509222 -28.217491 -1.74038 7 6
20.346558 -32.802856 8.9116611 10 14
17.722263 -28.594229 -0.58720362 17 7
20.515724 -33.127193 10.440761 13 15
2.3933349 -3.887269 -1.2231789 15 0
17.811577 -28.940979 0.59317243 10 8
2.7796998 -4.5201054 -1.2250834 17 1
19.834192 -32.265251 1.9848937 8 9
3.3426206 -5.4418612 -1.2414035 13 2
19.939491 -32.487362 3.3349271 9 10
4.085568 -6.6592112 -1.2373967 15 3
20.067392 -32.734177 4.7143941 7 11
5.3577271 -8.7464409 -1.2593979 3 4
20.231663 -33.040958 6.1362991 11 12
7.8653088 -12.85515 -1.3184921 5 5
20.347755 -33.282703 7.5827498 14 13
17.284464 -28.283184 -1.7371352 7 6
20.530411 -33.621014 9.0947704 7 14
17.545124 -28.75481 -0.58797157 17 7
20.674034 -33.896099 10.638498 14 15
2.3618116 -3.89521 -1.2205906 15 0
17.532415 -28.938059 0.5905894 29 8
2.7448306 -4.5322542 -1.2232838 16 1
19.98278 -33.021496 2.0227849 12 9
3.292357 -5.4449034 -1.236824 18 2
20.096138 -33.248108 3.3988996 9 10
4.0318298 -6.6757355 -1.2352067 2 3
20.194279 -33.463234 4.7989717 5 11
5.2939663 -8.7759085 -1.258423 4 4
20.534857 -34.067902 6.3002424 4 12
7.7693987 -12.894738 -1.3170975 3 5
20.501484 -34.052845 7.7262378 11 13
16.937305 -28.155001 -1.7219577 24 6
20.668642 -34.371216 9.2594357 12 14
17.334572 -28.849573 -0.58748293 20 7
20.824707 -34.685551 10.840378 15 15
2.3335707 -3.9099443 -1.220073 15 0
19.979345 -33.489086 0.68067878 9 8
2.7151191 -4.5546536 -1.2241837 18 1
20.110268 -33.74868 2.0588965 8 9
3.247184 -5.4536924 -1.233771 14 2
20.243509 -34.026276 3.463918 10 10
4.000432 -6.7267933 -1.2395868 10 3
20.40209 -34.333725 4.903779 16 11
5.2234502 -8.7972908 -1.2562293 4 4
20.533375 -34.59589 6.3718896 8 12
7.6507306 -12.900681 -1.3122169 4 5
20.65659 -34.858921 7.8762145 16 13
16.702518 -28.197466 -1.7175615 10 6
20.828194 -35.19051 9.4407463 25 14
17.15514 -29.00775 -0.58825082 17 7
21.011843 -35.543247 11.063479 15 15
2.3029876 -3.919076 -1.2180026 15 0
20.186522 -34.379589 0.69589722 41 8
2.6939175 -4.5898356 -1.2286826 17 1
20.259129 -34.544655 2.0987766 8 9
3.199106 -5.4592905 -1.2299548 14 2
16.597645 -28.335302 2.8730018 6 10
3.9473858 -6.7443285 -1.2377096 13 3
20.582792 -35.195019 5.0061493 9 11
5.1494222 -8.80865 -1.252817 4 4
20.670952 -35.388271 6.4910927 8 12
7.5584736 -12.950337 -1.3118682 4 5
20.829407 -35.70245 8.034586 12 13
16.074747 -27.574877 -1.672762 3 6
20.992985 -36.040615 9.6292553 9 14
17.209846 -29.557604 -0.59701192 23 7
21.172186 -36.392063 11.281404 11 15
2.2746043 -3.9333856 -1.2174848 15 0
20.357201 -35.2313 0.71024317 10 8
2.6588857 -4.6034684 -1.2273329 18 1
20.399828 -35.347786 2.1388662 9 9
3.1589537 -5.4780903 -1.2291917 14 2
16.366589 -28.393524 2.8672497 13 10
3.8933051 -6.7597399 -1.2355195 15 3
20.683138 -35.940037 5.0914578 6 11
5.0818615 -8.8340607 -1.2513546 3 4
20.861456 -36.293835 6.6303191 9 12
7.4500175 -12.97169 -1.3087306 4 5
20.994097 -36.568909 8.1963911 9 13
15.792405 -27.530508 -1.6633415 3 6
21.156593 -36.911606 9.8222628 4 14
17.615444 -30.745852 -0.61851329 9 7
2.533839 -4.4261227 1.3665646 3 15
2.2432675 -3.9424529 -1.2154143 12 0
16.513187 -29.044857 0.58318961 7 8
2.6189795 -4.6083646 -1.2237337 17 1
20.590445 -36.260468 2.1853404 5 9
3.1225698 -5.5034251 -1.2299548 13 2
3.8489401 -6.7919111 -1.2364582 10 3
5.0190878 -8.8675957 -1.2511108 4 4
2.5282972 -4.4705706 0.81345934 7 12
7.3514366 -13.009508 -1.3073361 3 5
2.5201108 -4.4615445 0.996023 15 13
15.482023 -27.431362 -1.6507809 3 6
2.5242324 -4.4761372 1.1863918 6 14
16.443935 -29.171381 -0.58451599 2 7
2.5095134 -4.4554868 1.370188 10 15
2.2175767 -3.9613893 -1.2164496 12 0
2.5039022 -4.4765348 0.089530841 14 8
2.5772338 -4.6095266 -1.2192347 13 1
2.4975355 -4.4706459 0.26837882 15 9
3.0850303 -5.5268049 -1.2303365 7 2
2.4939647 -4.469749 0.44780618 22 10
2.5115221 -4.50491 -0.81690085 1 3
2.4865513 -4.4637828 0.62738341 36 11
2.4944634 -4.4798265 -0.6295771 4 4
2.4874213 -4.4708505 0.81033063 12 12
2.4898448 -4.4788857 -0.44832912 11 5
2.4850874 -4.4721651 0.99449658 13 13
2.4887316 -4.4824076 -0.26869282 16 6
2.4834685 -4.4766092 1.1818929 6 14
2.4903872 -4.4909282 -0.089635558 16 7
2.5495055 -4.6013222 1.4095285 3 15
2.189867 -3.9767745 -1.2164496 13 0
2.4745169 -4.4974098 0.08960066 18 8
2.5130608 -4.5693507 -1.203938 12 1
2.4604928 -4.4774704 0.26775077 15 9
2.4633646 -4.4864073 -0.99487817 10 2
2.4655759 -4.492291 0.44832912 38 10
2.456265 -4.4790335 -0.80907917 9 3
2.4467425 -4.4653654 0.62518978 33 11
2.4564531 -4.4849443 -0.62787092 8 4
2.4504588 -4.4777093 0.80845338 11 12
2.4497387 -4.4782495 -0.44658601 11 5
2.4490974 -4.480792 0.9925884 15 13
2.4516346 -4.4891553 -0.2680648 15 6
2.4398673 -4.4694633 1.1755942 6 14
2.4474835 -4.4871387 -0.089216709 16 7
2.4304204 -4.4595575 1.3608706 13 15
2.1556108 -3.9800744 -1.2128261 14 0
2.4400387 -4.5071154 0.089461036 21 8
2.4152703 -4.4650865 -1.1719949 10 1
2.4233091 -4.4818163 0.26701808 16 9
2.4271712 -4.4927068 -0.9925884 10 2
2.416172 -4.4760823 0.44501722 50 10
2.4219687 -4.4886951 -0.80782765 9 3
2.4228857 -4.4941478 0.6268959 9 11
2.4231999 -4.4984884 -0.62738341 8 4
2.4096222 -4.475153 0.80501187 12 12
2.4136956 -4.4864697 -0.44571447 13 5
2.4177566 -4.4977803 0.9925884 15 13
2.4172397 -4.4987016 -0.2676461 16 6
2.4086056 -4.4863877 1.1755942 6 14
2.4066455 -4.4864936 -0.088867649 19 7
2.3908796 -4.4589725 1.3556943 13 15
2.1257441 -3.9895401 -1.2112732 12 0
2.3944182 -4.4975624 0.088937461 19 8
2.3893995 -4.490025 -1.1742445 9 1
2.3853979 -4.4862804 0.26628536 15 9
2.3883784 -4.4956717 -0.98953551 10 2
2.379107 -4.4801073 0.44379702 32 10
2.3813138 -4.4880443 -0.80469894 9 3
2.3886621 -4.5056911 0.62616473 6 11
2.3861601 -4.5047708 -0.62592101 9 4
2.3755479 -4.486629 0.80407327 12 12
2.372999 -4.4856 -0.44397137 13 5
2.3743699 -4.4919853 0.98762739 15 13
2.3829753 -4.510169 -0.26733211 18 6
2.3781359 -4.504817 1.1760441 6 14
2.3650029 -4.4837298 -0.088483699 15 7
2.3894253 -4.5319481 1.3727763 6 15
2.0980377 -4.0063605 -1.2117908 15 0
2.3527598 -4.4946809 0.088553511 21 8
2.3427582 -4.4793787 -1.1670461 9 1
2.3569338 -4.5103154 0.26670405 15 9
2.3551168 -4.5087557 -0.98877227 11 2
2.3515968 -4.5058484 0.44466859 6 10
2.341831 -4.4909573 -0.80219603 9 3
2.3525612 -4.5134563 0.62494606 9 11
2.3528194 -4.5177979 -0.62543356 9 4
2.3561471 -4.5280457 0.80845338 11 12
2.342545 -4.5038252 -0.44414565 14 5
2.3501954 -4.5223889 0.9906804 18 13
2.3386755 -4.5040627 -0.26597136 11 6
2.3520153 -4.5316873 1.1787435 6 14
2.3373251 -4.5072322 -0.088623315 11 7
20.902241 -40.341732 12.174331 6 15
2.0709012 -4.0226274 -1.2123084 11 0
2.3305981 -4.530962 0.088937461 17 8
2.3034098 -4.4800272 -1.1629969 11 1
2.3272142 -4.5302134 0.26691341 14 9
2.3353441 -4.5499454 -0.99411488 10 2
2.3282681 -4.5381103 0.44623742 21 10
2.3230364 -4.5318069 -0.80657619 9 3
2.3138692 -4.5178075 0.62323987 11 11
2.3248405 -4.5411816 -0.62640852 8 4
2.3208804 -4.5373502 0.80720192 10 12
2.3210227 -4.5395823 -0.44606307 13 5
2.3167796 -4.5351892 0.9899171 16 13
2.3189778 -4.5434065 -0.26733211 17 6
2.31235 -4.5323744 1.1746944 6 14
2.3167005 -4.5448189 -0.089042179 17 7
21.133865 -41.495445 12.477667 7 15
2.041023 -4.0335398 -1.2112732 12 0
2.2997034 -4.546721 0.088937461 19 8
2.2676828 -4.4873028 -1.1607474 9 1
2.2837167 -4.5209908 0.26544797 12 9
2.2937045 -4.544704 -0.98953551 10 2
2.2902505 -4.541801 0.44501722 15 10
2.2850232 -4.5334024 -0.80407327 9 3
2.2830639 -4.5334525 0.62323987 9 11
2.2895119 -4.5502081 -0.62543356 9 4
2.2801783 -4.5336299 0.80376035 12 12
2.2839065 -4.5449944 -0.44501722 13 5
2.2859428 -4.5530071 0.99029869 15 13
2.2808318 -4.5448046 -0.26649469 14 6
2.279779 -4.5466652 1.1742445 6 14
2.2732708 -4.5376396 -0.088588417 15 7
21.273052 -42.481293 12.730273 7 15
2.0117998 -4.0438795 -1.2102379 12 0
2.2625649 -4.5519209 0.088728033 20 8
2.2353523 -4.4991436 -1.1598476 9 1
2.2467711 -4.5260901 0.26481998 15 9
2.2549422 -4.546536 -0.9864825 10 2
2.2468932 -4.5322933 0.44257683 15 10
2.2524416 -4.5474744 -0.80376035 9 3
2.2504787 -4.5475016 0.62299615 9 11
2.2549658 -4.5585694 -0.62445855 9 4
2.242346 -4.5370417 0.8015703 11 12
2.2458577 -4.546144 -0.44362271 13 5
2.2418647 -4.5420547 0.9845745 14 13
2.2463975 -4.5552435 -0.26618072 16 6
2.2367156 -4.5376067 1.1679459 6 14
2.2343805 -4.5368624 -0.08827427 13 7
21.654884 -44.008533 13.142314 8 15
1.9835197 -4.0578256 -1.2102379 12 0
2.2201164 -4.5438595 0.08827427 15 8
2.2021782 -4.5111375 -1.1589478 9 1
2.214159 -4.5376883 0.26461062 12 9
2.2213621 -4.5564852 -0.98533767 8 2
2.203855 -4.5245833 0.44031078 15 10
2.2145181 -4.5484924 -0.80125743 7 3
2.2125263 -4.5484333 0.62104625 9 11
2.2196152 -4.5670595 -0.6234836 7 4
2.2027802 -4.5344315 0.79844159 11 12
2.2062349 -4.5455804 -0.44205391 9 5
2.2006779 -4.5381632 0.9803766 15 13
2.2022719 -4.5434694 -0.26461062 11 6
2.2041335 -4.5513568 1.167496 6 14
2.1930723 -4.5325499 -0.08789032 11 7
2.1759403 -4.4991436 1.3391298 9 15
1.9575261 -4.0747161 -1.2112732 12 0
2.1727653 -4.5267978 0.087645985 15 8
2.1646776 -4.5119662 -1.1553485 12 1
2.1772468 -4.5422292 0.26398259 14 9
2.1878023 -4.5683408 -0.9845745 8 2
2.1678448 -4.528698 0.43926495 16 10
2.1741879 -4.546021 -0.79812872 7 3
2.1653132 -4.5315289 0.61665893 12 11
2.1782107 -4.5605664 -0.62055874 7 4
2.1668167 -4.5407853 0.79687726 14 12
2.1658084 -4.5407114 -0.44013649 10 5
2.1663589 -4.545948 0.97885019 18 13
2.1627717 -4.5425038 -0.26366857 15 6
2.1714282 -4.5627351 1.1665962 6 14
2.1595938 -4.5419545 -0.087785602 17 7
2.1511087 -4.5281844 1.3432709 13 15
1.9249102 -4.0795469 -1.2086849 10 0
2.1410491 -4.5396743 0.087611087 20 8
2.1239886 -4.5075769 -1.1503997 10 1
2.1386192 -4.5406818 0.26304054 16 9
2.1457894 -4.5600333 -0.97961342 10 2
2.1344807 -4.5401149 0.43891633 16 10
2.1373122 -4.5482006 -0.79593867 9 3
2.1310437 -4.5389748 0.61568397 14 11
2.1336741 -4.5487041 -0.61690265 9 4
2.1325047 -4.548275 0.79562581 14 12
2.1332104 -4.5539165 -0.43996218 12 5
2.1320727 -4.5556269 0.9777053 19 13
2.1241858 -4.5408382 -0.26272655 15 6
2.1279697 -4.5530672 1.1602976 7 14
2.1244481 -4.5496731 -0.087645985 15 7
2.116152 -4.5339689 1.3406827 12 15
1.8995342 -4.0978131 -1.2102379 11 0
2.1067834 -4.549067 0.087506369 30 8
2.0924389 -4.5201621 -1.1499498 9 1
2.1018367 -4.5446253 0.26241252 26 9
2.1073141 -4.5606446 -0.97656047 11 2
2.1010213 -4.5491123 0.43839338 30 10
2.0988874 -4.5486608 -0.79343569 9 3
2.0959795 -4.5465307 0.61470902 18 11
2.0976777 -4.5523052 -0.61544025 9 4
2.0998735 -4.5612574 0.79531288 19 12
2.100534 -4.5668874 -0.43978783 16 5
2.1018348 -4.5718174 0.97808701 21 13
2.089932 -4.5501122 -0.26241252 28 6
2.0953186 -4.566041 1.1598476 7 14
2.087595 -4.5513053 -0.087401658 38 7
