# .PCD v0.7 - Point Cloud Data file format
VERSION 0.7
FIELDS x y z intensity ring
SIZE 4 4 4 4 2
TYPE F F F F U
COUNT 1 1 1 1 1
WIDTH 1316
HEIGHT 1
VIEWPOINT 0 0 0 1 0 0 0
POINTS 1316
DATA ascii
7.4721775 -3.8056219 -1.3281288 16 3
14.829035 -7.5557709 2.0435054 16 11
12.61234 -6.4318538 -1.7383444 9 4
14.893719 -7.60183 2.6484358 53 12
14.573492 -7.4415917 -1.4316202 11 5
14.932974 -7.6317248 3.2597811 72 13
14.603899 -7.4699769 -0.85967052 16 6
14.985147 -7.6682863 3.8862545 56 14
14.656954 -7.5067992 -0.28744113 20 7
18.876204 -9.6760759 5.6836662 4 15
4.0585895 -2.0938971 -1.2236965 6 0
14.722596 -7.6021528 0.28922129 16 8
4.8166771 -2.4882021 -1.2516277 5 1
14.762774 -7.6326933 0.87097502 17 9
5.8655972 -3.0352435 -1.2837629 6 2
14.823647 -7.6740046 1.4603816 16 10
7.4471812 -3.8586028 -1.3284416 5 3
14.87151 -7.7119513 2.056911 15 11
12.553035 -6.512435 -1.7363946 7 4
14.9034 -7.7383933 2.6596992 59 12
14.592355 -7.5833549 -1.4387671 10 5
14.968167 -7.7819757 3.2792435 63 13
14.638209 -7.6169229 -0.86479938 16 6
15.002483 -7.8131266 3.9051502 52 14
14.68222 -7.6495948 -0.28897694 17 7
18.782499 -9.7942219 5.6759019 2 15
4.0404515 -2.1203849 -1.2226613 6 0
14.766535 -7.7558913 0.29114106 16 8
4.7991891 -2.5217679 -1.2516277 5 1
14.797516 -7.7820525 0.87620866 17 9
5.8355784 -3.071547 -1.2818549 6 2
14.834939 -7.8116517 1.4668311 13 10
7.402586 -3.9012895 -1.3253129 2 3
14.9051 -7.8618927 2.0690978 15 11
12.475661 -6.5832362 -1.7320073 10 4
14.943336 -7.8920646 2.676594 57 12
14.604231 -7.7194924 -1.4452165 15 5
15.001987 -7.9330888 3.2987061 72 13
14.662351 -7.7600389 -0.86940503 16 6
15.030231 -7.9614573 3.9267457 50 14
14.713272 -7.7968526 -0.29065239 20 7
15.313973 -8.1220245 4.6447668 9 15
4.010211 -2.1403539 -1.2180026 6 0
14.770236 -7.889884 0.29229292 16 8
4.7883415 -2.5588844 -1.2534273 5 1
14.827364 -7.9303823 0.88123292 16 9
5.813993 -3.1122115 -1.2818549 5 2
14.866107 -7.9611182 1.4753724 12 10
7.3386068 -3.9332774 -1.3187426 2 3
14.92682 -8.0070448 2.0798223 15 11
12.481872 -6.6983309 -1.7393193 9 4
14.967928 -8.0391912 2.6909862 60 12
14.625443 -7.861824 -1.4527119 17 5
15.022318 -8.0785418 3.3154974 64 13
14.699271 -7.9114327 -0.87484795 16 6
15.056635 -8.1105528 3.9483407 52 14
14.739456 -7.9430175 -0.29225799 12 7
15.142977 -8.1672945 4.610085 54 15
4.0002646 -2.1710625 -1.2195554 5 0
14.804411 -8.0414858 0.29407305 16 8
4.7463894 -2.5792243 -1.2471286 5 1
14.859367 -8.0814152 0.88646656 17 9
5.793848 -3.1536634 -1.2822365 6 2
14.895905 -8.1113958 1.4839137 11 10
7.3144379 -3.9863052 -1.3193684 2 3
14.954206 -8.1566839 2.0915217 20 11
11.912041 -6.5000501 -1.6661978 6 4
14.998122 -8.1908293 2.7066293 60 12
14.661114 -8.0134268 -1.4617761 11 5
15.022398 -8.2143021 3.3280907 68 13
14.710258 -8.0502939 -0.87882549 16 6
15.011609 -8.2220211 3.9514899 45 14
14.773085 -8.0947313 -0.29403815 12 7
14.982265 -8.2161493 4.5785089 50 15
3.9883933 -2.2008033 -1.2205906 6 0
14.828433 -8.1891117 0.29567868 15 8
4.7419133 -2.6198368 -1.2507279 5 1
14.884735 -8.2303791 0.89138615 69 9
5.7785616 -3.1978371 -1.2837629 6 2
14.889464 -8.2431755 1.4889687 42 10
7.2656965 -4.025784 -1.3156141 2 3
14.884746 -8.2541456 2.0898156 53 11
12.230905 -6.7852831 -1.717383 2 4
14.868039 -8.2550631 2.6934888 49 12
14.68144 -8.158165 -1.4694458 11 5
14.848002 -8.2541113 3.3021407 57 13
14.730493 -8.1955204 -0.88343102 16 6
14.810827 -8.2469864 3.9136984 43 14
14.805306 -8.2472982 -0.2958183 33 7
14.808114 -8.2556353 4.5427918 55 15
3.9796715 -2.2323742 -1.2226613 5 0
14.725565 -8.2669811 0.29477116 44 8
4.7099152 -2.6452432 -1.2471286 5 1
14.722449 -8.2753735 0.88510579 78 9
5.7560959 -3.2381008 -1.2837629 6 2
14.718694 -8.2834063 1.4776384 43 10
7.2288089 -4.0715623 -1.3140497 3 3
14.698793 -8.2857246 2.071779 47 11
11.723295 -6.6111302 -1.6525484 21 4
14.668983 -8.2790442 2.6678338 47 12
14.670369 -8.289958 3.2754273 56 13
14.664226 -8.2932415 -0.88290769 56 6
14.635872 -8.2839508 3.8826551 52 14
14.639483 -8.2893686 -0.29365417 63 7
14.669444 -8.313096 4.5179458 73 15
3.947207 -2.2505341 -1.2174848 6 0
14.556336 -8.3061543 0.29253724 59 8
4.6981025 -2.6819243 -1.2489282 5 1
14.54119 -8.3076086 0.87767404 74 9
5.7197151 -3.270411 -1.2807101 6 2
14.516961 -8.3038502 1.4631705 43 10
7.2019215 -4.1229105 -1.3143625 2 3
14.520021 -8.3190603 2.0547173 64 11
11.659634 -6.6829405 -1.6501111 10 4
14.550856 -8.3468494 2.6568832 56 12
14.464159 -8.3038282 -1.4591614 42 5
14.603624 -8.3872843 3.2735193 61 13
14.488223 -8.327734 -0.87579 58 6
14.702684 -8.4578333 3.9159479 53 14
14.466866 -8.3255367 -0.29135045 67 7
14.776781 -8.5107574 4.5691919 73 15
3.9230421 -2.2731931 -1.2148967 6 0
14.41669 -8.360425 0.29089671 75 8
4.6758938 -2.7127018 -1.2480285 5 1
14.450023 -8.3898678 0.87568527 86 9
5.700139 -3.3122351 -1.2814733 6 2
14.517201 -8.4390402 1.4690971 52 10
7.1490588 -4.1591811 -1.3099824 2 3
14.64 -8.5241051 2.0800662 52 11
11.511491 -6.7052274 -1.6357305 2 4
14.66118 -8.5467186 2.6878574 56 12
14.278486 -8.330307 -1.4462622 41 5
14.654929 -8.5533581 3.2983246 63 13
14.353848 -8.3843517 -0.87118435 84 6
14.670197 -8.5760059 3.9231462 57 14
14.379045 -8.4091692 -0.29075709 81 7
14.690328 -8.5980978 4.5609097 64 15
3.9120708 -2.3034661 -1.2164496 5 0
14.535422 -8.5654364 0.29449192 74 8
4.646769 -2.7393415 -1.245329 4 1
14.552794 -8.5859404 0.88552445 86 9
5.683639 -3.3559411 -1.2829998 6 2
14.53513 -8.585783 1.4769412 67 10
7.1113453 -4.2039628 -1.308418 2 3
14.561342 -8.6149845 2.0773852 56 11
11.363609 -6.7257743 -1.6213499 1 4
14.607953 -8.6528902 2.6891088 48 12
14.377659 -8.5232573 -1.462299 47 5
15.14704 -8.9829321 3.4231136 56 13
14.449543 -8.5761003 -0.88060486 88 6
15.134385 -8.9897127 4.0639653 54 14
14.464392 -8.5951567 -0.2936891 68 7
3.8992097 -2.3327043 -1.2174848 5 0
14.447819 -8.6502666 0.29393342 67 8
4.6175013 -2.765707 -1.2426296 5 1
14.490788 -8.6863022 0.88541979 71 9
5.6533375 -3.3914983 -1.2814733 6 2
15.052257 -9.0335846 1.5358585 47 10
7.0767441 -4.2504559 -1.3074795 2 3
15.210318 -9.1428947 2.179024 13 11
11.238123 -6.7578855 -1.6101379 2 4
15.159882 -9.1233873 2.8023674 48 12
14.338286 -8.6357603 -1.4643908 48 5
15.215123 -9.1674871 3.4528797 64 13
14.372216 -8.6664543 -0.87955821 70 6
15.158016 -9.1475086 4.0873604 51 14
14.416018 -8.7031622 -0.29393342 58 7
15.344331 -9.2709084 4.8036819 6 15
3.8976874 -2.3688993 -1.2221435 6 0
4.5980802 -2.7978756 -1.2426296 4 1
5.6211405 -3.4257746 -1.2795652 5 2
15.085789 -9.197567 1.5457941 52 10
7.0317211 -4.2904959 -1.3046635 2 3
15.247769 -9.3109322 2.1936483 17 11
11.075477 -6.7658072 -1.5935637 2 4
15.178401 -9.2794867 2.817698 56 12
14.69063 -8.988328 -1.5067484 18 5
15.24285 -9.3298559 3.4738688 61 13
14.875098 -9.1119003 -0.91420454 12 6
15.186825 -9.3101435 4.1125555 50 14
14.868009 -9.1182671 -0.30443978 35 7
15.394487 -9.4485435 4.8399162 7 15
3.8613291 -2.3838742 -1.215932 6 0
15.131994 -9.3493595 0.3104783 13 8
4.5784359 -2.8299077 -1.2426296 5 1
15.149432 -9.3710957 0.93356889 9 9
5.5987568 -3.4659674 -1.2799468 6 2
15.107597 -9.3561602 1.5546842 47 10
7.0066342 -4.3426042 -1.3056022 2 3
15.286985 -9.4820271 2.20876 8 11
10.987491 -6.8178444 -1.587714 2 4
15.21226 -9.4467096 2.8361573 53 12
14.705366 -9.1390457 -1.5147668 23 5
15.290721 -9.5065298 3.4998188 61 13
14.911175 -9.2777786 -0.92038018 14 6
15.233948 -9.4859858 4.1431484 39 14
14.883763 -9.2715368 -0.30608028 43 7
15.456019 -9.6355028 4.8802919 1 15
3.8544118 -2.4169307 -1.2190377 6 0
15.325505 -9.6173992 0.31581876 10 8
4.568471 -2.8680189 -1.245329 5 1
15.171581 -9.5318804 0.93901187 9 9
5.5810714 -3.5091491 -1.2814733 6 2
15.129612 -9.5165653 1.5637484 53 10
6.9711308 -4.3882561 -1.3046635 1 3
15.280883 -9.6266108 2.2175348 8 11
10.859501 -6.8465352 -1.5762583 2 4
15.247858 -9.6169615 2.8552423 55 12
14.164397 -8.9405251 -1.4654367 27 5
15.305295 -9.6681299 3.5188997 62 13
14.945656 -9.4446001 -0.92655581 16 6
15.41111 -9.7462635 4.209734 7 14
14.903214 -9.4323444 -0.30786046 65 7
15.512424 -9.8217115 4.9196329 1 15
3.8239841 -2.4361467 -1.2148967 6 0
15.340621 -9.7768173 0.31752908 9 8
4.5445447 -2.8985405 -1.2444292 4 1
15.220832 -9.7154236 0.94633883 9 9
5.5498185 -3.5437996 -1.2799468 6 2
15.168571 -9.6932468 1.5749043 48 10
6.9328942 -4.4337707 -1.3034122 1 3
15.233371 -9.7458935 2.2204597 7 11
10.779674 -6.901845 -1.5716273 2 4
15.275118 -9.7876368 2.8733885 55 12
15.343184 -9.8425884 3.5433233 56 13
14.960045 -9.6041784 -0.93168473 14 6
15.527978 -9.9726124 4.2605729 0 14
14.917744 -9.5880556 -0.30953586 61 7
15.529482 -9.9888983 4.9475851 1 15
3.8068836 -2.4627831 -1.2148967 6 0
15.367627 -9.9493742 0.31955358 9 8
4.5111132 -2.9217219 -1.2408301 5 1
15.415767 -9.9920015 0.96277237 14 9
5.5342002 -3.5898325 -1.2822365 6 2
15.199141 -9.862896 1.5851886 43 10
6.9150257 -4.4906707 -1.3059151 1 3
15.258115 -9.9163094 2.2343528 7 11
10.674643 -6.9401431 -1.5633401 2 4
15.31404 -9.9640646 2.8937252 51 12
13.415343 -8.7320118 -1.4004184 2 5
15.377732 -10.016971 3.5673652 66 13
14.986327 -9.7694635 -0.93754643 14 6
18.454901 -12.035191 5.0865932 1 14
14.947573 -9.7553558 -0.31156036 61 7
15.608172 -10.19426 4.9952078 1 15
3.8057439 -2.4999063 -1.220073 6 0
15.252757 -10.022999 0.31857625 9 8
4.4938626 -2.9552853 -1.2417299 4 1
15.263969 -10.041815 0.95753878 11 9
5.4997983 -3.6209424 -1.2799468 6 2
15.234729 -10.037825 1.5961703 48 10
6.8777013 -4.5332861 -1.3046635 2 3
15.306257 -10.096451 2.2514145 26 11
10.57623 -6.9816866 -1.5560279 2 4
15.341469 -10.131208 2.9118714 52 12
14.692122 -9.7097597 -1.5407393 65 5
15.413864 -10.194479 3.5921702 64 13
15.002765 -9.9263477 -0.94277996 14 6
15.539961 -10.289576 4.3028636 6 14
14.970785 -9.9202232 -0.31348014 60 7
15.564183 -10.317342 5.00349 6 15
3.7677431 -2.5118225 -1.2133437 6 0
15.169104 -10.12036 0.318297 15 8
4.4768844 -2.9879689 -1.2426296 4 1
15.186849 -10.143693 0.95712 19 9
5.4678564 -3.6548855 -1.2784203 6 2
15.253831 -10.199986 1.6054087 41 10
6.8426023 -4.5789943 -1.3040378 3 3
15.321168 -10.2605 2.2640889 16 11
10.451378 -7.0045147 -1.5448159 1 4
15.377014 -10.309567 2.9322081 55 12
14.766262 -9.9075594 -1.55573 39 5
15.448261 -10.372976 3.6169755 59 13
15.067395 -10.121052 -0.95125842 18 6
18.042471 -12.12861 5.0191078 1 14
15.007352 -10.095932 -0.31571403 65 7
15.639225 -10.524979 5.0511127 1 15
3.7512722 -2.5398021 -1.2138613 6 0
15.17093 -10.275355 0.3198328 13 8
4.448936 -3.0155549 -1.2408301 4 1
15.22627 -10.328349 0.96423781 14 9
5.4389586 -3.690764 -1.277657 6 2
15.284292 -10.379397 1.6163905 33 10
6.8129277 -4.6300611 -1.3046635 2 3
15.359152 -10.441989 2.2804193 13 11
10.211838 -6.9477763 -1.5165422 1 4
15.402451 -10.487155 2.951293 53 12
14.861405 -10.122566 -1.5731611 18 5
15.477671 -10.550235 3.6410174 64 13
15.085332 -10.290515 -0.9570154 14 6
17.823759 -12.163101 4.9817662 3 14
15.124758 -10.329019 -0.31969318 11 7
17.847477 -12.197558 5.7923703 1 15
3.7334497 -2.5659289 -1.2138613 6 0
15.194221 -10.45051 0.32189217 13 8
4.4181428 -3.0399122 -1.2381306 5 1
15.262363 -10.509153 0.97114617 14 9
5.4156423 -3.7318177 -1.2784203 6 2
15.314804 -10.557086 1.627372 12 10
6.7641788 -4.6662941 -1.3015349 2 3
15.372254 -10.612529 2.2935812 21 11
10.091214 -6.969264 -1.5058178 1 4
15.440989 -10.671923 2.9728811 56 12
13.928354 -9.6300707 -1.4814733 16 5
15.505349 -10.728408 3.6650593 59 13
15.110003 -10.462663 -0.96319103 20 6
17.866566 -12.376011 5.0177584 3 14
15.162393 -10.510687 -0.32203183 12 7
17.77141 -12.328466 5.795476 2 15
3.7265363 -2.5996678 -1.2174848 6 0
15.237527 -10.6338 0.32433555 13 8
4.3968124 -3.0706825 -1.2381306 4 1
15.288712 -10.681429 0.97742641 14 9
5.3965516 -3.7730939 -1.2799468 6 2
15.348472 -10.739133 1.6388766 10 10
6.7403512 -4.7178912 -1.3030992 2 3
15.419976 -10.801194 2.3116179 51 11
9.9447861 -6.9711761 -1.4911934 1 4
15.487672 -10.860706 2.9960332 54 12
13.857524 -9.7247829 -1.4811248 7 5
15.548965 -10.919888 3.6932991 54 13
15.139761 -10.636456 -0.96968073 22 6
17.904076 -12.587864 5.0528507 3 14
15.194946 -10.691079 -0.32430062 12 7
15.762926 -11.094817 5.1649933 1 15
3.700871 -2.6193929 -1.2148967 6 0
15.28041 -10.823136 0.32684866 14 8
4.3726292 -3.0982862 -1.2372309 6 1
15.326187 -10.867617 0.98464876 17 9
5.3620729 -3.8049963 -1.2780387 6 2
15.378995 -10.917168 1.6500325 11 10
6.6798735 -4.7453847 -1.2977805 2 3
15.452595 -10.985646 2.3279483 49 11
9.8323956 -6.9926858 -1.4814438 1 4
15.514475 -11.041872 3.0160568 56 12
13.846092 -9.8617449 -1.4872255 7 5
15.595794 -11.112056 3.7223022 59 13
15.174092 -10.819578 -0.97669369 16 6
15.672665 -11.183331 4.4450326 5 14
15.230873 -10.8721 -0.32663926 13 7
15.714952 -11.225928 5.1748285 6 15
3.6793554 -2.6429117 -1.2138613 6 0
15.311643 -11.006583 0.32915238 14 8
4.350893 -3.1287372 -1.2372309 5 1
15.365045 -11.057177 0.99208051 19 9
5.3305998 -3.8388953 -1.2768939 6 2
15.405865 -11.098803 1.6611885 10 10
6.6465826 -4.791903 -1.2977805 2 3
15.488213 -11.174561 2.34501 48 11
9.6964188 -6.9984236 -1.468282 1 4
15.539495 -11.223938 3.0360804 56 12
13.610591 -9.8379507 -1.4692715 3 5
15.633976 -11.30464 3.7501602 58 13
15.206597 -11.003696 -0.98370677 12 6
15.722056 -11.385053 4.4814749 3 14
15.246909 -11.045034 -0.32862884 12 7
15.76602 -11.429478 5.2177925 7 15
3.651449 -2.6617062 -1.2107556 6 0
15.342669 -11.19217 0.33149102 19 8
4.3289442 -3.1590359 -1.2372309 6 1
15.400382 -11.246629 0.99940753 22 9
5.3068395 -3.8783324 -1.277657 6 2
15.451853 -11.296626 1.6746104 11 10
6.5922418 -4.8230247 -1.2937132 2 3
15.53155 -11.371539 2.3635342 49 11
9.553216 -6.9995813 -1.4541451 1 4
15.591406 -11.427907 3.0617356 54 12
13.58174 -9.9621897 -1.4736292 2 5
15.655553 -11.491735 3.7749653 42 13
15.242097 -11.192339 -0.99103373 12 6
15.764678 -11.584542 4.5165672 5 14
15.291528 -11.245075 -0.3313165 12 7
15.800995 -11.623978 5.2560973 7 15
3.6400731 -2.6935124 -1.2133437 6 0
15.37667 -11.382289 0.33393434 14 8
4.3030963 -3.1876116 -1.236331 6 1
15.433428 -11.44099 1.0068393 16 9
5.2827888 -3.9176254 -1.2784203 6 2
15.481018 -11.488835 1.6866379 11 10
6.5654898 -4.8759627 -1.2952776 1 3
15.556952 -11.557827 2.379621 47 11
9.4531403 -7.0282044 -1.4463456 1 4
15.62968 -11.6288 3.0855138 49 12
13.794757 -10.267321 -1.5044824 8 5
15.697755 -11.692225 3.8047316 41 13
15.260901 -11.375125 -0.99752343 12 6
15.789652 -11.773532 4.5471606 5 14
15.332851 -11.441248 -0.33393434 23 7
15.841245 -11.829219 5.2975082 7 15
3.6165459 -2.715379 -1.2117908 4 0
15.395545 -11.567707 0.33613333 8 8
4.274507 -3.2128916 -1.2345314 5 1
15.54152 -11.690126 1.0191905 3 9
5.2546196 -3.9553277 -1.2784203 6 2
15.440223 -11.626595 1.6909957 27 10
6.5249786 -4.9169235 -1.294026 1 3
15.591136 -11.757298 2.3976579 45 11
9.2992516 -7.0151258 -1.4302588 1 4
15.672664 -11.831656 3.1102304 46 12
13.991187 -10.569941 -1.5341154 13 5
15.741049 -11.896226 3.8352609 49 13
15.294219 -11.566927 -1.0049552 10 6
15.821539 -11.97442 4.5809031 7 14
15.262169 -11.555255 -0.33414379 55 7
15.878381 -12.030519 5.3378839 2 15
3.6021111 -2.7440732 -1.2133437 6 0
15.546594 -11.851908 0.34122944 4 8
4.2581706 -3.2473817 -1.236331 6 1
15.569083 -11.881948 1.0264128 4 9
5.214396 -3.9823825 -1.2753674 6 2
15.30485 -11.692978 1.6850692 18 10
6.4904933 -4.9623566 -1.294026 1 3
15.631647 -11.959945 2.4166694 45 11
9.1869955 -7.0316138 -1.4205091 1 4
15.705729 -12.029669 3.1333826 51 12
13.771575 -10.555849 -1.5180787 7 5
15.771345 -12.093034 3.8631189 47 13
15.346193 -11.775549 -1.0137476 10 6
15.926125 -12.229381 4.6357913 1 14
15.292135 -11.746793 -0.33658713 60 7
15.990052 -12.291782 5.4041419 1 15
3.5691094 -2.7585213 -1.2086849 6 0
15.540982 -12.020102 0.34293979 3 8
4.2384787 -3.2794149 -1.2372309 6 1
15.594718 -12.07472 1.0336351 6 9
5.177156 -4.0114737 -1.2730777 6 2
15.506294 -12.019247 1.7164451 30 10
6.4494481 -5.0027046 -1.2927746 1 3
15.674787 -12.167377 2.4364121 46 11
9.0749674 -7.0468793 -1.4107596 1 4
15.739909 -12.231139 3.1571608 38 12
13.598731 -10.571085 -1.5069227 6 5
15.816704 -12.304102 3.8951752 46 13
15.372356 -11.967052 -1.02097 16 6
15.9363 -12.41054 4.6632357 5 14
15.320164 -11.939311 -0.33903044 53 7
16.025719 -12.498157 5.4455528 1 15
3.5376027 -2.7738347 -1.2045439 37 0
15.551636 -12.198423 0.34499919 3 8
4.2124152 -3.3065183 -1.236331 5 1
15.622128 -12.266932 1.0409623 9 9
5.1620798 -4.056324 -1.2761306 6 2
15.309245 -12.038536 1.7038947 20 10
6.4199052 -5.0501528 -1.2937132 2 3
15.719505 -12.374474 2.4563985 46 11
8.9787703 -7.0732107 -1.4034475 1 4
15.786617 -12.440698 3.1834416 41 12
14.109701 -11.127185 -1.5721152 17 5
15.846005 -12.505442 3.9237964 51 13
15.415954 -12.170418 -1.0293437 16 6
16.242254 -12.831962 4.7788601 7 14
15.358795 -12.142707 -0.34175304 53 7
16.193319 -12.807079 5.5319982 8 15
3.532249 -2.808671 -1.2092026 37 0
15.606924 -12.418756 0.34814063 1 8
4.1806631 -3.3278327 -1.2336316 6 1
15.639214 -12.457829 1.0478706 4 9
5.1259604 -4.086144 -1.2742226 6 2
15.769041 -12.574747 1.7645551 2 10
6.3613319 -5.0763669 -1.2890202 1 3
15.750623 -12.578058 2.4749229 45 11
8.8590717 -7.0771689 -1.3922355 1 4
15.827443 -12.652984 3.20941 47 12
13.974508 -11.175684 -1.5654916 17 5
15.884678 -12.712375 3.9547076 55 13
15.445975 -12.370134 -1.0370895 18 6
16.00701 -12.824035 4.73522 4 14
15.397483 -12.344535 -0.3444756 53 7
16.034203 -12.864206 5.5081873 35 15
3.5110509 -2.8320494 -1.2086849 48 0
15.724344 -12.687944 0.35267821 1 8
4.1573286 -3.3569379 -1.2336316 6 1
15.791769 -12.75601 1.0638855 1 9
5.0995545 -4.1221747 -1.2746042 6 2
15.854362 -12.824868 1.784078 4 10
6.3373799 -5.1282468 -1.2912103 2 3
15.8004 -12.794911 2.496372 42 11
8.7261658 -7.0713549 -1.3790736 1 4
15.86218 -12.858696 3.2341266 57 12
13.968869 -11.331964 -1.5736841 12 5
15.899189 -12.907104 3.9806576 76 13
15.476146 -12.568155 -1.0448351 12 6
15.879285 -12.904745 4.7239723 44 14
15.438143 -12.555188 -0.34733778 56 7
15.872838 -12.913309 5.4828229 62 15
3.4882038 -2.8540452 -1.2076497 41 0
15.685755 -12.843212 0.353865 14 8
4.1277614 -3.3809404 -1.231832 6 1
15.740246 -12.901604 1.0666069 11 9
5.0638552 -4.1535802 -1.2730777 6 2
15.75828 -12.930184 1.7833809 44 10
6.2928882 -5.1671972 -1.2896459 2 3
15.743712 -12.936635 2.5019777 50 11
8.6704521 -7.1270595 -1.3780986 1 4
15.641611 -12.866462 3.2078454 52 12
13.827429 -11.382249 -1.5668859 10 5
15.719275 -12.944152 3.958142 59 13
15.524538 -12.792891 -1.0542556 24 6
15.679789 -12.930016 4.6920295 43 14
15.465807 -12.758098 -0.34995565 57 7
15.683188 -12.946623 5.4491763 63 15
3.4607611 -2.8721588 -1.2050616 32 0
15.584942 -12.943462 0.35362068 45 8
4.1160488 -3.4196374 -1.2354312 6 1
15.523859 -12.906473 1.0580238 63 9
5.0226607 -4.1787858 -1.2700247 6 2
15.566555 -12.955762 1.7718763 48 10
6.2536254 -5.2084751 -1.2890202 1 3
15.561523 -12.969973 2.4873536 51 11
8.5594988 -7.1365685 -1.3683491 1 4
15.51197 -12.942444 3.1997108 58 12
13.791982 -11.515536 -1.571941 10 5
15.533597 -12.974288 3.9340999 60 13
15.494614 -12.950912 -1.0583378 36 6
15.515892 -12.977901 4.6699839 54 14
15.417773 -12.900404 -0.35089809 64 7
15.547987 -13.018589 5.4336472 56 15
3.4406252 -2.8962493 -1.2050616 33 0
15.41926 -12.988823 0.35191032 70 8
4.0950556 -3.4508007 -1.236331 6 1
15.405893 -12.99136 1.0561397 65 9
4.996366 -4.2162809 -1.270788 6 2
15.379813 -12.983152 1.7608945 45 10
6.2201295 -5.2545557 -1.2896459 2 3
15.399347 -13.018064 2.4758978 57 11
8.4488373 -7.1448774 -1.3585995 1 4
15.425761 -13.054249 3.2006495 60 12
13.9946 -11.847304 -1.6041886 39 5
15.472601 -13.107799 3.9417324 23 13
15.344407 -13.008401 -1.0542556 52 6
15.327336 -13.007728 -0.35089809 70 7
15.586301 -13.236862 5.4791994 52 15
3.4379528 -2.9352512 -1.2112732 11 0
15.255984 -13.029841 0.3502 78 8
4.0590138 -3.4691765 -1.2327318 6 1
15.311037 -13.090731 1.055721 65 9
4.9675512 -4.2501922 -1.270788 6 2
15.378093 -13.166658 1.771179 8 10
6.1782169 -5.2916327 -1.2883943 2 3
8.3445072 -7.1571612 -1.3498249 1 4
15.469974 -13.273427 3.2284949 32 12
13.938762 -11.968077 -1.6073263 11 5
15.520688 -13.335765 3.9776044 50 13
15.179775 -13.04745 -1.049022 76 6
15.551185 -13.376129 4.7356696 2 14
15.193716 -13.077886 -0.34992075 60 7
16.150225 -13.906102 5.7105837 60 15
3.4178936 -2.9585843 -1.2112732 6 0
4.0382514 -3.4992769 -1.2336316 6 1
15.339989 -13.301981 1.0640948 45 9
4.9436898 -4.2899156 -1.2723144 6 2
15.39494 -13.363759 1.783555 20 10
6.1411242 -5.3346357 -1.2883943 2 3
15.977965 -13.889433 2.5994735 48 11
8.2703743 -7.1943965 -1.3459252 2 4
16.075813 -13.989275 3.3752303 55 12
13.802279 -12.019302 -1.6012254 9 5
16.010374 -13.951982 4.1279621 51 13
15.134988 -13.193789 -1.0522668 100 6
16.335587 -14.25044 5.0047112 1 14
15.205989 -13.27438 -0.35232919 19 7
16.198259 -14.145583 5.7623477 60 15
3.3951836 -2.9816918 -1.2107556 4 0
15.309937 -13.450107 0.35571498 40 8
4.010181 -3.5255113 -1.2327318 6 1
16.075159 -14.142269 1.1220829 15 9
4.9018302 -4.3139477 -1.2692615 6 2
6.1161313 -5.3901982 -1.2912103 2 3
16.042915 -14.14373 2.6260407 51 11
8.1678467 -7.2059941 -1.3373944 2 4
16.113018 -14.225539 3.4043272 53 12
13.649338 -12.054696 -1.5932069 8 5
16.214151 -14.329941 4.2061934 10 13
16.42544 -14.532001 5.0631986 1 14
15.919949 -14.09469 -0.37114286 56 7
16.235434 -14.384119 5.8120408 53 15
3.3713996 -3.0027521 -1.2097203 4 0
16.005981 -14.265821 0.3742494 50 8
3.9883797 -3.5560148 -1.2336316 5 1
16.113146 -14.376478 1.1317128 15 9
4.8561902 -4.3358383 -1.2654454 6 2
16.139158 -14.414875 1.8931969 1 10
6.0562592 -5.4130192 -1.2865171 2 3
16.084816 -14.386538 2.6496835 47 11
8.0892324 -7.2376909 -1.3327633 2 4
16.15312 -14.462861 3.4340498 50 12
13.648795 -12.229174 -1.6033171 10 5
16.302309 -14.611823 4.2554226 3 13
15.904469 -14.265255 -1.1196755 36 6
16.425447 -14.742887 5.0955911 1 14
15.943172 -14.315038 -0.37400505 38 7
16.275446 -14.623643 5.8627691 53 15
3.3503544 -3.0262156 -1.2097203 4 0
16.042479 -14.500579 0.37746063 54 8
3.9663479 -3.586386 -1.2345314 6 1
16.154562 -14.617266 1.1417614 12 9
4.8330789 -4.3762236 -1.2673534 6 2
16.067667 -14.553946 1.8966832 1 10
6.0080762 -5.4458809 -1.284327 2 3
16.129551 -14.630513 2.6738136 43 11
8.014986 -7.272644 -1.3288634 2 4
16.202391 -14.712054 3.4662752 52 12
13.675154 -12.425991 -1.6165646 6 5
16.346632 -14.858653 4.2939658 6 13
15.953716 -14.511677 -1.1302474 42 6
16.384094 -14.913604 5.1149368 3 14
15.999575 -14.568705 -0.37770498 54 7
16.314323 -14.865726 5.9140153 50 15
3.3690329 -3.0860682 -1.2242141 9 0
16.077948 -14.737886 0.38070679 48 8
3.932596 -3.6060865 -1.231832 6 1
16.174261 -14.841765 1.150449 14 9
4.8038559 -4.4111857 -1.2677351 6 2
16.212175 -14.892202 1.9259676 1 10
5.9873633 -5.5037346 -1.2880815 2 3
16.167273 -14.871779 2.6972127 46 11
7.94941 -7.31498 -1.326426 1 4
16.257677 -14.970661 3.5003781 53 12
13.719936 -12.642669 -1.6322527 8 5
16.457586 -15.170675 4.3508272 1 13
15.985612 -14.745932 -1.1397727 40 6
16.547348 -15.274801 5.199069 1 14
16.042921 -14.814352 -0.38116056 52 7
16.367636 -15.124788 5.9714732 52 15
3.3389142 -3.1016247 -1.2211083 11 0
16.141634 -15.004983 0.38468596 50 8
3.9101796 -3.6361072 -1.2327318 6 1
16.198923 -15.074055 1.1596602 20 9
4.7815628 -4.4526424 -1.2700247 6 2
16.163214 -15.056624 1.9325914 1 10
5.9444599 -5.5413589 -1.287143 2 3
16.200954 -15.112921 2.7203677 46 11
7.9039536 -7.3757162 -1.3274009 2 4
16.298588 -15.219966 3.5319777 52 12
13.762355 -12.860574 -1.6479408 7 5
16.534851 -15.456809 4.3996739 1 13
16.029591 -14.99498 -1.1503445 31 6
16.593954 -15.533781 5.2476583 1 14
16.105505 -15.081813 -0.3851397 52 7
16.426575 -15.393242 6.0320373 57 15
3.3143666 -3.1222093 -1.220073 16 0
3.8790283 -3.6579685 -1.2309321 6 1
16.202234 -15.289584 1.1675106 13 9
4.7246685 -4.4616532 -1.2631556 6 2
16.214127 -15.316863 1.9514171 3 10
5.9013228 -5.5786529 -1.2862043 2 3
16.260891 -15.382538 2.7483978 47 11
7.8335257 -7.4129777 -1.3242323 2 4
16.335369 -15.469206 3.5632648 50 12
13.800337 -13.073161 -1.6631058 7 5
16.530552 -15.670465 4.4275322 2 13
15.965089 -15.145005 -1.1532753 12 6
16.542967 -15.698689 5.2652044 5 14
15.941818 -15.138802 -0.38374352 66 7
16.478354 -15.659252 6.0910473 48 15
3.2855046 -3.1385994 -1.2174848 15 0
3.8562136 -3.6876535 -1.231832 6 1
16.265202 -15.559667 1.1796526 16 9
4.6913533 -4.490994 -1.2623924 6 2
16.351387 -15.66399 1.98105 3 10
5.8589349 -5.6145921 -1.2852658 2 3
16.309116 -15.639878 2.7744777 45 11
7.7672601 -7.4537411 -1.321795 2 4
16.385021 -15.729147 3.5973673 51 12
13.815059 -13.271327 -1.676005 12 5
16.504253 -15.86576 4.4500475 6 13
15.978239 -15.365462 -1.1617537 10 6
16.559341 -15.935409 5.3056955 5 14
15.907763 -15.31908 -0.38548875 49 7
16.534166 -15.927867 6.1516113 48 15
3.2626772 -3.1595464 -1.2169672 16 0
16.267393 -15.764199 0.39540172 6 8
3.831023 -3.7138164 -1.231832 6 1
16.279469 -15.792437 1.1886544 22 9
4.662704 -4.5263705 -1.2631556 6 2
16.300131 -15.82906 1.987848 3 10
5.816762 -5.6526046 -1.2846401 2 3
16.358923 -15.908359 2.8017764 45 11
7.7092299 -7.4995165 -1.3205763 2 4
16.443251 -16.007124 3.6345987 54 12
13.676403 -13.322961 -1.6704268 14 5
16.553354 -16.131195 4.4927888 5 13
16.029301 -15.631418 -1.1733723 17 6
16.634579 -16.233006 5.3659825 5 14
15.947646 -15.568089 -0.38901415 70 7
16.588396 -16.204903 6.213728 46 15
3.2391617 -3.1808934 -1.2164496 13 0
16.450756 -16.166113 0.40259212 2 8
3.8050029 -3.7404711 -1.231832 6 1
16.311199 -16.045767 1.1991215 48 9
4.6197977 -4.5477939 -1.2601026 6 2
16.358162 -16.108828 2.0085912 1 10
5.7729363 -5.6889153 -1.2837014 2 3
16.397289 -16.169922 2.8276129 43 11
7.635488 -7.5322433 -1.3169203 2 4
16.501204 -16.289446 3.672456 46 12
13.513604 -13.349504 -1.6618856 13 5
16.621872 -16.425762 4.5423994 8 13
15.804749 -15.629188 -1.1648939 57 6
16.691219 -16.51734 5.4213204 2 14
15.750462 -15.591822 -0.38685003 70 7
16.6423 -16.486183 6.2768798 46 15
3.2333031 -3.2197874 -1.2226613 15 0
16.314833 -16.257982 0.40203363 4 8
3.7732761 -3.7614408 -1.2300324 6 1
16.35008 -16.310177 1.2103214 52 9
4.5851569 -4.5771613 -1.2593395 6 2
16.527266 -16.504206 2.0434535 8 10
5.7358747 -5.7318711 -1.284327 2 3
16.451038 -16.451038 2.8566177 40 11
7.5742974 -7.5769415 -1.3154578 2 4
16.551817 -16.569159 3.7093747 45 12
13.370813 -13.39417 -1.6557848 17 5
16.748095 -16.783207 4.6088009 1 13
15.604995 -15.648631 -1.1581948 61 6
16.867121 -16.9261 5.5166998 1 14
15.572073 -15.631981 -0.3851397 72 7
16.703979 -16.779951 6.3441725 50 15
3.2025898 -3.2340453 -1.2195554 12 0
16.417547 -16.590376 0.40740898 4 8
3.724997 -3.7655246 -1.222834 9 1
16.400099 -16.590109 1.222568 48 9
4.553091 -4.6090598 -1.2593395 6 2
16.48444 -16.692902 2.0525177 1 10
5.6984949 -5.7745881 -1.2849529 2 3
16.519777 -16.75206 2.8887911 41 11
7.5128546 -7.6211534 -1.3139954 2 4
16.596546 -16.847546 3.7456672 40 12
13.200104 -13.409097 -1.6461976 16 5
16.823305 -17.095629 4.6622272 1 13
15.416945 -15.677445 -1.1523333 57 6
16.928843 -17.226915 5.576087 2 14
15.372877 -15.649015 -0.38290578 72 7
16.754238 -17.067102 6.4083595 45 15
3.1799338 -3.2563248 -1.2195554 11 0
16.447968 -16.85486 0.41107398 4 8
3.7176688 -3.8109672 -1.2291325 45 1
16.44421 -16.868668 1.2346054 44 9
4.5180626 -4.6379213 -1.2585762 6 2
16.616316 -17.06308 2.0837195 3 10
5.6566648 -5.8128142 -1.2846401 2 3
16.57403 -17.043449 2.9190149 46 11
7.4608502 -7.6748395 -1.3142391 2 4
16.638189 -17.127361 3.78196 46 12
12.729595 -13.108428 -1.5986106 11 5
16.78968 -17.30142 4.6862693 16 13
15.244553 -15.720172 -1.1476229 65 6
16.797626 -17.327753 5.571588 46 14
15.195075 -15.685579 -0.38119546 76 7
16.773079 -17.32662 6.4616766 74 15
3.1490834 -3.2700961 -1.2164496 11 0
16.467386 -17.106169 0.41445976 4 8
3.6963768 -3.8424461 -1.2309321 54 1
16.502056 -17.160158 1.2476894 48 9
4.48911 -4.6713982 -1.2593395 6 2
16.641691 -17.329559 2.1020222 18 10
5.6019187 -5.8355074 -1.2811985 2 3
16.634911 -17.340664 2.9504571 50 11
7.3741183 -7.6923466 -1.3083893 3 4
16.626465 -17.350035 3.806051 71 12
12.495837 -13.048761 -1.5806565 4 5
16.638624 -17.387005 4.6778736 67 13
15.066782 -15.749968 -1.1422846 61 6
16.611612 -17.376984 5.5499926 55 14
15.092108 -15.798506 -0.38136998 57 7
16.584042 -17.366339 6.4342418 78 15
3.1294124 -3.2942562 -1.2174848 12 0
16.475601 -17.355591 0.41770592 23 8
3.655381 -3.8519678 -1.2259833 38 1
16.487677 -17.386538 1.2557491 76 9
4.4509869 -4.6969237 -1.257813 6 2
16.4795 -17.396149 2.0964441 54 10
5.548821 -5.8615627 -1.2783825 2 3
16.464334 -17.404459 2.9416823 58 11
7.3256917 -7.7494106 -1.3093643 2 4
16.438452 -17.395332 3.7907202 64 12
12.284058 -13.008204 -1.5653172 2 5
16.438684 -17.419926 4.6557398 70 13
15.049657 -15.953564 -1.1494024 38 6
16.428404 -17.427303 5.5292969 61 14
15.148728 -16.081062 -0.38562837 49 7
16.404125 -17.419811 6.4114656 78 15
3.1084003 -3.3193853 -1.21852 11 0
16.293903 -17.405954 0.41617009 48 8
3.619736 -3.8694875 -1.2232838 42 1
16.289188 -17.425287 1.2500968 74 9
4.4127254 -4.7221446 -1.2562865 6 2
16.273006 -17.426256 2.0859857 46 10
5.5053873 -5.8996744 -1.2780697 3 3
16.257124 -17.427528 2.926327 57 11
7.2484007 -7.7756786 -1.3052207 2 4
16.251617 -17.44603 3.7763286 64 12
12.088394 -12.981374 -1.5518951 3 5
16.292597 -17.508392 4.6488705 45 13
15.083361 -16.22027 -1.1608115 34 6
16.435038 -17.680017 5.5729375 57 14
15.185802 -16.347589 -0.38946792 46 7
16.218594 -17.471621 6.3876543 76 15
3.0838404 -3.3395863 -1.2180026 11 0
16.107908 -17.455973 0.41459936 64 8
3.6018829 -3.9046903 -1.2264332 40 1
16.104872 -17.471027 1.2452818 62 9
4.3788218 -4.7536006 -1.2562865 6 2
16.230581 -17.625912 2.0962698 41 10
5.4680786 -5.9423261 -1.2790084 2 3
16.27174 -17.695381 2.9516757 55 11
7.1805072 -7.8114786 -1.3027834 2 4
16.295128 -17.739452 3.815124 53 12
11.906269 -12.97067 -1.5403906 3 5
16.339872 -17.806866 4.6977177 12 13
15.137136 -16.507713 -1.1737909 31 6
16.010054 -17.478029 -0.41372675 68 7
15.517074 -16.951725 6.1578231 19 15
3.0539474 -3.3538921 -1.2154143 12 0
16.125616 -17.721823 0.41822946 72 8
16.153122 -17.770733 1.2585752 55 9
4.3402491 -4.7782416 -1.25476 6 2
5.4224782 -5.9759665 -1.2780697 2 3
7.1271305 -7.8628869 -1.3030272 2 4
27.112831 -29.932764 6.3966064 29 12
11.7098 -12.93678 -1.5266199 2 5
27.110006 -29.961163 7.8540802 34 13
27.084791 -29.975328 9.3269205 33 14
16.031065 -17.748159 -0.41746157 65 7
15.500609 -17.17293 6.1987162 39 15
3.0304589 -3.3751304 -1.2154143 11 0
26.897535 -29.977793 0.70301783 31 8
3.562628 -3.9720085 -1.231832 6 1
26.86908 -29.977636 2.1097672 36 9
4.3094049 -4.8113503 -1.2555233 6 2
26.849043 -29.986862 3.5214407 15 10
5.3595514 -5.9901228 -1.2730639 2 3
15.374754 -17.195726 2.8322439 4 11
7.0561895 -7.8946915 -1.3001022 1 4
26.787401 -29.991669 6.3690734 28 12
11.546232 -12.93646 -1.5170327 3 5
26.78124 -30.016388 7.8193531 34 13
24.375427 -27.339157 -1.9195784 4 6
26.753004 -30.026915 9.2846298 33 14
15.561439 -17.4842 6.2717032 43 15
3.0093834 -3.3990977 -1.2164496 12 0
15.208791 -17.190411 0.40063745 14 8
3.5399759 -4.0026221 -1.2336316 6 1
4.2887068 -4.8560333 -1.2593395 6 2
26.523003 -30.042131 3.5061011 30 10
5.3123751 -6.0214672 -1.2718123 2 3
26.507353 -30.06669 4.9215722 23 11
7.0048404 -7.9482284 -1.3008335 2 4
26.466396 -30.051937 6.3424797 28 12
11.335856 -12.880647 -1.5011705 2 5
26.454325 -30.069962 7.7850075 33 13
26.43469 -30.089977 9.2468386 32 14
15.119291 -17.215986 -0.39993933 76 7
15.516729 -17.680983 6.3032794 39 15
2.9893918 -3.4243896 -1.2180026 10 0
16.317514 -18.705116 0.43327346 4 8
3.532439 -4.0507379 -1.2408301 7 1
26.230089 -30.099918 2.0923917 34 9
4.2469649 -4.8769727 -1.2570497 6 2
26.204044 -30.101835 3.4916332 25 10
5.2689114 -6.0569177 -1.2714995 3 3
26.18741 -30.125168 4.9010983 22 11
6.9439726 -7.9909425 -1.2998585 2 4
26.152338 -30.116655 6.3174505 28 12
11.180003 -12.879271 -1.4921063 2 5
26.142124 -30.136753 7.7548594 37 13
14.786742 -17.058245 -1.1831068 2 6
26.106749 -30.127831 9.2036476 32 14
15.569888 -17.993397 6.3757486 48 15
2.9691927 -3.4495687 -1.2195554 11 0
16.162424 -18.78392 0.43254042 10 8
3.5142376 -4.0871205 -1.2444292 14 1
25.923052 -30.159618 2.0842273 29 9
4.2059956 -4.8968315 -1.25476 6 2
25.893339 -30.167629 3.4782112 30 10
5.2159853 -6.0791488 -1.2686837 2 3
25.883549 -30.18819 4.8825741 22 11
6.875102 -8.0241518 -1.2974212 2 4
14.776223 -17.251898 3.5976803 1 12
10.986174 -12.835914 -1.4781613 2 5
25.827732 -30.197674 7.723949 37 13
23.520746 -27.510075 -1.8968647 8 6
25.786917 -30.181931 9.1649551 31 14
25.782984 -30.198664 -0.69310486 27 7
15.643949 -18.329664 6.4570179 45 15
2.9456437 -3.4696994 -1.2195554 12 0
16.008905 -18.870375 0.43194708 4 8
3.4800341 -4.1035156 -1.2421798 14 1
25.602112 -30.210344 2.0753303 34 9
4.1717072 -4.9260755 -1.25476 6 2
25.584408 -30.221523 3.4642663 30 10
5.1810727 -6.1244645 -1.270561 2 3
25.560673 -30.236261 4.8613687 21 11
6.8139172 -8.0631819 -1.2962024 2 4
25.524319 -30.225348 6.2658267 4 12
10.772941 -12.766122 -1.4614276 2 5
25.522844 -30.255724 7.6941824 32 13
23.198101 -27.519369 -1.8862926 21 6
25.485188 -30.253914 9.1325636 31 14
25.463486 -30.238857 -0.69003326 23 7
15.704666 -18.663109 6.5356989 47 15
2.9139094 -3.4812908 -1.2164496 11 0
25.320726 -30.272512 0.68888134 35 8
3.450052 -4.1262155 -1.2417299 18 1
25.303499 -30.284121 2.0682125 34 9
4.1271486 -4.9430227 -1.2517071 6 2
25.278328 -30.286211 3.4513674 30 10
5.1179457 -6.1362123 -1.2655549 2 3
25.256182 -30.302654 4.843576 21 11
6.7345867 -8.0831032 -1.2918152 4 4
25.212839 -30.282875 6.2411103 27 12
10.573967 -12.7093 -1.4464366 2 5
25.204296 -30.304869 7.6617451 32 13
23.059032 -27.745169 -1.890689 4 6
25.178734 -30.31716 9.0983706 31 14
25.157234 -30.302032 -0.68745029 23 7
15.766417 -19.004232 6.6164503 42 15
2.9042902 -3.5194287 -1.2226613 12 0
25.005722 -30.32358 0.68605411 30 8
3.4174428 -4.1456895 -1.2403802 19 1
25.000027 -30.349037 2.0606761 34 9
4.1000266 -4.9808097 -1.2539968 6 2
24.954872 -30.326559 3.436028 29 10
5.0724735 -6.1687417 -1.2649293 5 3
24.940672 -30.352467 4.8235888 21 11
6.6628733 -8.1115141 -1.2888902 7 4
24.910574 -30.348221 6.2185836 27 12
10.39906 -12.678058 -1.4345835 2 5
24.89502 -30.361671 7.6319785 35 13
22.766041 -27.784967 -1.8825245 8 6
24.872641 -30.377607 9.0641775 30 14
24.851345 -30.362413 -0.68486732 26 7
24.817438 -30.342583 10.503395 31 15
2.8772106 -3.5366216 -1.2216259 12 0
24.702591 -30.385693 0.68354094 35 8
3.3871884 -4.1679339 -1.2399302 15 1
24.674227 -30.383293 2.0512557 33 9
4.0701022 -5.0154095 -1.2555233 6 2
24.649658 -30.385538 3.4231288 29 10
5.0280404 -6.2024689 -1.2646164 2 3
24.633202 -30.408615 4.8050647 21 11
6.6173258 -8.1717167 -1.2910839 33 4
24.599928 -30.400072 6.1938667 34 12
10.220099 -12.638801 -1.422033 2 5
24.584946 -30.414108 7.6018305 35 13
22.545155 -27.910599 -1.8803264 12 6
24.551023 -30.41555 9.0241365 30 14
24.547106 -30.42156 -0.68231928 26 7
24.518908 -30.408327 10.466642 31 15
2.8621194 -3.5686779 -1.225767 11 0
24.39982 -30.445061 0.68102783 34 8
3.3653188 -4.2006049 -1.2426296 15 1
24.380379 -30.453466 2.044452 37 9
4.0178189 -5.0222392 -1.2501806 6 2
24.352316 -30.451075 3.4112759 29 10
4.980917 -6.23279 -1.2636777 2 3
24.331121 -30.468161 4.7875156 21 11
6.5427775 -8.1959953 -1.2876717 75 4
24.29348 -30.453709 6.1700888 31 12
10.044681 -12.600785 -1.4098313 2 5
24.286375 -30.477528 7.5751171 35 13
22.081024 -27.729832 -1.8577173 8 6
24.241014 -30.464216 8.9881439 29 14
24.235788 -30.468559 -0.67956185 18 7
24.218267 -30.468361 10.428855 35 15
2.8299475 -3.5794799 -1.2226613 15 0
24.102385 -30.507961 0.67865425 39 8
3.3407426 -4.2301135 -1.2444292 13 1
24.078093 -30.510042 2.0369155 33 9
3.972934 -5.0378332 -1.2471277 6 2
24.042919 -30.498299 3.3976793 28 10
4.9226141 -6.2487912 -1.2599235 2 3
24.03433 -30.531216 4.7709417 21 11
6.4854002 -8.2414722 -1.2876717 64 4
23.989923 -30.507664 6.1469369 30 12
9.8641405 -12.553108 -1.396758 3 5
23.982058 -30.53054 7.5464964 31 13
16.009445 -20.395601 -1.3588508 5 6
23.942354 -30.523842 8.9562016 29 14
21.833578 -27.845392 -0.61764067 21 7
23.92157 -30.530247 10.392621 35 15
2.8025141 -3.5961018 -1.2216259 18 0
21.746033 -27.923952 0.61778033 24 8
3.3087354 -4.250258 -1.2435294 14 1
23.777439 -30.565472 2.029484 33 9
3.9448957 -5.0747471 -1.2494174 6 2
23.740173 -30.550558 3.3849547 33 10
4.87887 -6.2830052 -1.2599235 2 3
23.740278 -30.594753 4.7548547 21 11
6.431356 -8.2912531 -1.2884028 27 4
23.683178 -30.55418 6.1228461 26 12
9.7018394 -12.525582 -1.3861248 2 5
23.676981 -30.579247 7.5174932 38 13
21.592701 -27.907478 -1.849239 4 6
23.650005 -30.588495 8.9265079 29 14
21.499241 -27.816767 -0.61366153 6 7
23.609833 -30.569603 10.349657 29 15
2.7808709 -3.6201754 -1.2231789 14 0
21.534731 -28.054462 0.6173265 24 8
3.2671196 -4.2577929 -1.2390305 14 1
23.479618 -30.621361 2.0222616 33 9
3.9165366 -5.1115141 -1.2517071 6 2
23.445145 -30.609577 3.3732758 33 10
4.8384895 -6.3216186 -1.260862 3 3
23.439278 -30.646217 4.7373056 21 11
6.3805494 -8.3454113 -1.2898653 18 4
23.393738 -30.619884 6.1031351 30 12
9.5416174 -12.497991 -1.3756661 2 5
23.385504 -30.642351 7.4926882 37 13
21.336788 -27.978134 -1.8440052 16 6
23.353201 -30.644361 8.8950148 29 14
21.15547 -27.770521 -0.60936821 3 7
23.319788 -30.63377 10.31601 34 15
2.7613602 -3.6472015 -1.225767 15 0
21.35524 -28.226446 0.6178152 12 8
3.2396665 -4.2836061 -1.2399302 16 1
23.173754 -30.663433 2.0143065 37 9
3.873657 -5.1293311 -1.2494174 6 2
23.15645 -30.673916 3.3624685 28 10
4.7835321 -6.3410506 -1.2580462 2 3
23.131557 -30.685467 4.7182941 21 11
6.3221326 -8.3897533 -1.2898653 10 4
23.106916 -30.686195 6.0840502 33 12
9.4050179 -12.499025 -1.3685194 3 5
23.088402 -30.695042 7.4659748 33 13
20.987339 -27.922052 -1.8306072 16 6
23.052088 -30.691341 8.861722 29 14
21.356098 -28.443651 -0.62085193 12 7
23.031155 -30.69693 10.282882 34 15
2.7416077 -3.6741326 -1.2283553 14 0
22.912437 -30.728193 0.66905546 19 8
3.2155051 -4.313931 -1.2421798 15 1
22.889921 -30.731564 2.0082355 36 9
3.8330648 -5.1499505 -1.2478909 6 2
22.859682 -30.724535 3.350441 32 10
4.7462187 -6.3838029 -1.2599235 3 3
22.841002 -30.744223 4.7026944 21 11
6.2586732 -8.42731 -1.2888902 6 4
22.805016 -30.72938 6.0608978 33 12
9.2546291 -12.479561 -1.3592809 2 5
22.796383 -30.751383 7.4407883 37 13
20.793089 -28.069494 -1.830712 12 6
22.761904 -30.74972 8.8324785 31 14
21.083256 -28.492388 -0.61868781 6 7
22.733591 -30.745125 10.245611 34 15
2.702157 -3.6745067 -1.2221435 13 0
21.165092 -28.802244 0.62388861 12 8
3.1853106 -4.3362741 -1.2421798 15 1
22.59445 -30.78113 2.0011177 36 9
3.7946961 -5.173418 -1.2471277 6 2
22.563339 -30.772511 3.3384135 32 10
4.6921954 -6.4040341 -1.2574203 3 3
22.55545 -30.806829 4.6880703 21 11
6.1832733 -8.4483709 -1.2854779 5 4
22.512966 -30.782604 6.0402484 32 12
9.1096773 -12.465045 -1.3507397 3 5
22.5105 -30.81308 7.4175091 37 13
20.404667 -27.951031 -1.8136505 12 6
22.467432 -30.799244 8.8014355 28 14
21.242008 -29.13006 -0.62929887 13 7
22.436483 -30.790668 10.208341 33 15
2.6798389 -3.6979744 -1.2236965 13 0
22.32518 -30.829695 0.66441315 33 8
3.1515319 -4.3536706 -1.2408301 9 1
22.308775 -30.841021 1.9948375 36 9
3.7596364 -5.201375 -1.2475092 6 2
22.281445 -30.837229 3.3284779 32 10
4.6277151 -6.409409 -1.2521017 3 3
22.266657 -30.862125 4.6727147 22 11
6.1090474 -8.4704018 -1.2823093 3 4
22.228216 -30.842867 6.0214758 32 12
8.9968185 -12.492769 -1.3469048 4 5
22.214544 -30.857946 7.3907957 33 13
20.181046 -28.053886 -1.8111384 16 6
22.187031 -30.865149 8.7757902 31 14
21.005453 -29.232182 -0.62832159 13 7
22.148869 -30.846127 10.175213 33 15
2.658448 -3.7228811 -1.225767 16 0
22.037392 -30.883879 0.66224903 32 8
3.117666 -4.3708067 -1.2394803 16 1
22.025684 -30.901682 1.9887664 36 9
3.7630963 -5.283464 -1.2608659 13 2
21.981264 -30.87355 3.315753 32 10
4.5885816 -6.4496078 -1.2536659 3 3
21.978195 -30.914898 4.6573596 20 11
6.0509133 -8.5144625 -1.2825531 3 4
21.939152 -30.894218 6.0014524 32 12
8.888629 -12.526027 -1.3437673 3 5
21.922474 -30.904995 7.3652277 35 13
19.892305 -28.063738 -1.8027647 15 6
21.906811 -30.928648 8.7501459 28 14
21.132504 -29.846502 -0.63833922 27 7
21.859341 -30.895918 10.141048 33 15
2.6368394 -3.7476704 -1.2278377 18 0
21.752237 -30.938822 0.6601547 32 8
3.0870764 -4.3924651 -1.2394803 14 1
21.731363 -30.943556 1.9816489 32 9
3.7170968 -5.2967505 -1.257813 18 2
21.709127 -30.946331 3.3072119 31 10
4.538909 -6.4750147 -1.2524145 2 3
21.682112 -30.95376 4.6402974 20 11
5.9696913 -8.5256023 -1.277922 3 4
21.659521 -30.955994 5.983932 32 12
8.7963991 -12.581243 -1.34307 3 5
21.640949 -30.963953 7.3430939 39 13
19.570105 -28.021807 -1.7912506 19 6
21.605595 -30.959379 8.7159538 28 14
20.858406 -29.899824 -0.63634968 29 7
21.581249 -30.959021 10.112061 33 15
2.619416 -3.7786884 -1.2319787 16 0
21.467398 -30.991295 0.65806043 32 8
3.04968 -4.4042969 -1.2367809 15 1
21.439802 -30.986111 1.9747405 36 9
3.6722131 -5.3112674 -1.2551417 21 2
21.421185 -30.993874 3.2962303 31 10
4.4924717 -6.5049186 -1.2521017 3 3
21.400091 -31.009621 4.6261606 20 11
5.8998814 -8.5523643 -1.2757283 3 4
21.365524 -30.994226 5.9623442 29 12
8.6902075 -12.611296 -1.3399323 3 5
21.361908 -31.023729 7.321723 39 13
19.355883 -28.131418 -1.7895758 19 6
21.329206 -31.010992 8.6894093 30 14
20.581202 -29.945835 -0.63425541 29 7
21.295689 -31.008604 10.079449 32 15
2.5853462 -3.7857163 -1.2283553 13 0
21.196194 -31.04917 0.65621048 37 8
3.0166619 -4.4222603 -1.2358811 15 1
21.169884 -31.045523 1.9692975 36 9
3.6260257 -5.3215384 -1.2517071 19 2
21.135887 -31.042206 3.2855971 31 10
4.442533 -6.5271816 -1.2505373 2 3
21.134935 -31.075775 4.6144614 20 11
5.8422637 -8.5966291 -1.2762158 3 4
21.088568 -31.042534 5.9438848 31 12
8.5773354 -12.63539 -1.3360975 3 5
21.087492 -31.087622 7.3018789 39 13
19.070919 -28.125313 -1.780888 11 6
21.047701 -31.063959 8.6628656 27 14
20.299889 -29.982807 -0.63202143 32 7
21.015913 -31.052044 10.046838 36 15
2.5595181 -3.8032262 -1.2283553 14 0
20.907497 -31.090187 0.65397656 36 8
2.9908392 -4.4491611 -1.2376807 14 1
20.890263 -31.099714 1.963436 34 9
3.5865986 -5.343462 -1.2509438 14 2
20.861937 -31.092705 3.2758358 31 10
4.391356 -6.5498333 -1.2489729 3 3
20.851183 -31.123617 4.5998373 20 11
5.7600193 -8.6042137 -1.2713411 3 4
20.818604 -31.110199 5.9288669 31 12
8.4800549 -12.681714 -1.3347031 3 5
20.795776 -31.123077 7.2759285 35 13
18.804216 -28.153133 -1.7742937 7 6
20.763248 -31.109644 8.6349707 27 14
20.04015 -30.048935 -0.63045073 32 7
20.742895 -31.11442 10.01992 32 15
2.5311706 -3.8198338 -1.2278377 16 0
20.631411 -31.147032 0.65212661 31 8
2.9535477 -4.4623237 -1.2354312 18 1
20.609892 -31.161777 1.957993 34 9
3.5513723 -5.3716469 -1.2517071 13 2
20.573015 -31.141447 3.265377 36 10
4.3345804 -6.5662527 -1.2461572 2 3
20.563417 -31.162384 4.5842376 22 11
5.7063675 -8.6541595 -1.2728035 3 4
20.53676 -31.169304 5.9119725 31 12
8.3825474 -12.727294 -1.3333085 3 5
20.513233 -31.169104 7.2530317 39 13
18.507902 -28.143459 -1.765292 11 6
20.496317 -31.178936 8.6142759 30 14
19.769497 -30.09618 -0.62853092 29 7
20.456114 -31.165157 9.988863 36 15
2.505497 -3.8390296 -1.2283553 15 0
20.350111 -31.205097 0.65027666 36 8
2.9106169 -4.4648767 -1.2304822 17 1
20.326435 -31.204491 1.9517127 34 9
3.5117719 -5.3952765 -1.2513254 12 2
20.306213 -31.209164 3.2575331 35 10
4.2897115 -6.5980086 -1.24647 5 3
20.28042 -31.217176 4.5708318 22 11
5.6155381 -8.647172 -1.2659788 3 4
20.254145 -31.212492 5.8931999 31 12
8.2718048 -12.752075 -1.3298223 3 5
20.239609 -31.225885 7.2331877 37 13
18.227367 -28.1429 -1.7572322 11 6
20.210367 -31.216568 8.5854816 30 14
19.504597 -30.149517 -0.62678576 26 7
20.183508 -31.222843 9.9619455 32 15
2.4838572 -3.8645525 -1.2309434 15 0
20.078865 -31.252041 0.64839178 36 8
2.8783226 -4.4834485 -1.2300324 16 1
20.048838 -31.241268 1.9454323 34 9
3.4643686 -5.4025288 -1.2475092 12 2
20.026567 -31.254543 3.2475972 35 10
4.2265878 -6.5987778 -1.2411512 12 3
20.009682 -31.264212 4.5576701 22 11
5.5454092 -8.671113 -1.2637852 3 4
19.981636 -31.25643 5.875679 35 12
8.1589813 -12.772573 -1.3259875 3 5
19.979923 -31.30188 7.2183046 28 13
18.021423 -28.244432 -1.7558715 11 6
20.09985 -31.52615 8.6318216 6 14
18.383593 -28.856462 -0.59722137 17 7
20.27352 -31.835316 10.113095 12 15
2.4450936 -3.861784 -1.2247318 15 0
18.215872 -28.7924 0.5947082 26 8
2.8446136 -4.4979949 -1.2286826 18 1
19.779036 -31.299429 1.940408 34 9
3.4150372 -5.4083228 -1.2433115 14 2
19.763384 -31.310949 3.2394047 26 10
4.1825247 -6.631465 -1.2417769 31 3
19.826914 -31.460243 4.5659575 7 11
5.4873161 -8.7103376 -1.2640289 3 4
19.981827 -31.742884 5.9407558 10 12
8.0474482 -12.789027 -1.3219783 3 5
20.10811 -31.980635 7.3430939 9 13
17.754734 -28.259628 -1.7490679 7 6
20.251686 -32.246433 8.7910872 10 14
18.062386 -28.782747 -0.59313744 8 7
20.404852 -32.540733 10.291681 12 15
2.4139864 -3.8722022 -1.2226613 15 0
17.834385 -28.618729 0.58859986 21 8
2.8131425 -4.5177445 -1.2286826 16 1
19.736507 -31.708025 1.9573649 11 9
3.3729613 -5.4231071 -1.2414035 12 2
19.844036 -31.930441 3.2890835 9 10
4.1247811 -6.6396451 -1.2380226 31 3
19.976648 -32.181396 4.6507783 7 11
5.4190483 -8.7366257 -1.2623228 3 4
20.133793 -32.472473 6.0515118 10 12
7.9516716 -12.834735 -1.3209324 2 5
20.239843 -32.694469 7.47437 10 13
17.470533 -28.232067 -1.7399614 7 6
20.400148 -32.992008 8.9553013 10 14
17.73488 -28.704004 -0.58894891 2 7
20.570662 -33.30674 10.489419 9 15
2.3899257 -3.8938997 -1.2242141 14 0
17.709639 -28.876867 0.59128755 10 8
2.7784793 -4.5322895 -1.2273329 18 1
19.876339 -32.447945 1.9942094 12 9
3.3309934 -5.442081 -1.2402586 13 2
19.977304 -32.651134 3.3488724 9 10
4.0802541 -6.6740479 -1.2389611 8 3
20.096664 -32.897789 4.7334056 5 11
5.3496485 -8.7606916 -1.2603729 3 4
20.271313 -33.222775 6.1641445 11 12
7.8535767 -12.876327 -1.3195379 2 5
20.391172 -33.458607 7.6163321 14 13
17.19327 -28.23354 -1.732425 7 6
20.569572 -33.791134 9.1330128 7 14
17.436373 -28.666521 -0.58566785 22 7
20.721098 -34.093616 10.690262 9 15
2.3566897 -3.900569 -1.2211083 14 0
17.533346 -29.030983 0.59198564 14 8
2.7387147 -4.5382285 -1.2237337 15 1
20.006807 -33.165665 2.0299027 12 9
3.2857652 -5.4511766 -1.2372056 14 2
20.128181 -33.41959 3.4131932 9 10
4.0194483 -6.6762805 -1.2342681 2 3
20.266241 -33.688713 4.8272448 5 11
5.2709708 -8.7689009 -1.2562293 3 4
20.507618 -34.130405 6.3065 8 12
7.7511849 -12.910343 -1.3174462 3 5
20.540888 -34.239899 7.7613473 11 13
16.894896 -28.173487 -1.7216437 21 6
20.681738 -34.515636 9.2895784 4 14
17.30464 -28.902504 -0.5880065 17 7
20.893322 -34.910198 10.901459 10 15
2.3350232 -3.9248209 -1.2236965 18 0
2.7097523 -4.5601158 -1.2246336 17 1
20.149008 -33.934792 2.0683172 8 9
3.2386131 -5.4587865 -1.233771 13 2
20.285412 -34.205315 3.4792571 10 10
3.992882 -6.7381673 -1.2405255 10 3
20.385551 -34.428928 4.912797 5 11
5.2050948 -8.7943268 -1.2547668 3 4
20.507162 -34.675709 6.3806496 4 12
7.6416082 -12.931551 -1.3141342 4 5
20.704746 -35.051689 7.9132309 12 13
16.630796 -28.177223 -1.7147354 7 6
20.852085 -35.357468 9.476738 8 14
17.196877 -29.171211 -0.5910781 17 7
21.061882 -35.755978 11.119384 10 15
2.3007333 -3.9293568 -1.220073 19 0
20.141579 -34.426788 0.6962114 5 8
2.6876886 -4.5957441 -1.2291325 17 1
20.290493 -34.723019 2.1076739 8 9
3.1954761 -5.4727859 -1.2318629 13 2
16.553116 -28.361338 2.8730018 6 10
3.9397724 -6.75564 -1.2386482 13 3
20.554468 -35.273621 5.0127306 12 11
5.138576 -8.8218727 -1.2535481 3 4
20.734575 -35.625568 6.5286365 9 12
7.5471363 -12.977695 -1.313437 3 5
20.8769 -35.913345 8.0746555 8 13
16.005331 -27.555191 -1.6700405 3 6
21.027319 -36.230289 9.6710958 9 14
17.149347 -29.560387 -0.59652323 17 7
21.21188 -36.592411 11.333169 5 15
2.2655299 -3.9319324 -1.215932 14 0
17.957169 -31.190666 0.62821686 12 8
2.6516511 -4.6076393 -1.2273329 17 1
20.413973 -35.50098 2.1461933 4 9
3.1474104 -5.4779387 -1.2280468 14 2
16.339828 -28.450294 2.8703873 6 10
3.8836653 -6.7675605 -1.2358325 15 3
20.723425 -36.141247 5.1153445 7 11
5.0798249 -8.8626986 -1.2542794 4 4
20.891788 -36.479115 6.658164 4 12
7.444768 -13.004559 -1.3109967 3 5
21.018511 -36.744991 8.228447 9 13
15.743194 -27.544876 -1.6627135 3 6
2.6661634 -4.6667089 1.2408301 0 14
17.470963 -30.60503 -0.6151275 3 7
2.5268834 -4.4300976 1.3665646 10 15
