# .PCD v0.7 - Point Cloud Data file format
VERSION 0.7
FIELDS x y z intensity ring
SIZE 4 4 4 4 2
TYPE F F F F U
COUNT 1 1 1 1 1
WIDTH 1351
HEIGHT 1
VIEWPOINT 0 0 0 1 0 0 0
POINTS 1351
DATA ascii
3.9930799 6.6851835 -1.2333294 2 3
10.240349 17.130728 2.4505491 44 11
5.5241079 9.2374287 -1.3215513 3 4
10.284366 17.183928 3.1718657 53 12
8.8771172 14.820842 -1.5114548 5 5
10.329083 17.238157 3.9062419 49 13
10.061129 16.777681 -1.0252614 14 6
11.596383 19.32254 5.2026677 2 14
10.037935 16.719154 -0.34039176 36 7
10.527849 17.521292 5.477129 1 15
2.2694311 3.7546659 -1.1755562 7 0
10.204064 16.868855 0.34412655 3 8
2.6726248 4.4165053 -1.1917907 6 1
10.258391 16.938633 1.0378221 4 9
3.2370019 5.3407164 -1.2139269 6 2
10.314536 17.011232 1.7405002 8 10
4.0437527 6.663898 -1.2345809 2 3
10.284474 16.934958 2.4327562 41 11
5.6235061 9.25632 -1.3298384 3 4
10.319929 16.973303 3.1462104 48 12
8.9089069 14.641064 -1.4994273 6 5
10.37772 17.048239 3.8795288 53 13
10.107355 16.591047 -1.0181438 10 6
10.505552 17.231144 4.6591864 2 14
10.074234 16.517212 -0.33770406 23 7
10.478807 17.167048 5.3891301 2 15
2.2976081 3.7420242 -1.1765914 7 0
10.262963 16.70179 0.34217188 3 8
2.7084932 4.4060411 -1.1940402 6 1
10.267564 16.689682 1.0269363 4 9
3.2875891 5.3397207 -1.2188879 6 2
10.305578 16.731838 1.7192342 6 10
4.0984697 6.6489577 -1.2370839 2 3
10.325319 16.73773 2.4147193 44 11
5.7192659 9.2675142 -1.3371505 2 4
10.356163 16.768074 3.1214936 42 12
9.0988979 14.720875 -1.5140696 5 5
10.407683 16.831774 3.8467097 53 13
10.143061 16.391005 -1.0101887 8 6
10.595839 17.109337 4.6461391 1 14
10.118741 16.332586 -0.33536544 20 7
10.529177 16.981827 5.353931 3 15
2.325721 3.7291713 -1.1776267 7 0
10.349667 16.582235 0.34119454 3 8
2.7329946 4.3771076 -1.1913408 6 1
10.385946 16.620981 1.0271456 4 9
3.3237431 5.3149757 -1.2185063 6 2
10.303788 16.470306 1.6997112 3 10
4.1311579 6.5984197 -1.2330166 2 3
10.361824 16.537388 2.3961952 42 11
5.8080707 9.2660484 -1.3427565 2 4
10.397404 16.574879 3.0989671 49 12
9.4048395 14.980978 -1.5475373 29 5
10.442458 16.627356 3.8165617 52 13
10.178596 16.19466 -1.0024431 8 6
10.598809 16.850201 4.5957499 1 14
10.172875 16.166765 -0.33341077 16 7
10.62688 16.875217 5.3435783 1 15
2.3527343 3.7144747 -1.1781443 6 0
10.303512 16.254549 0.33592394 3 8
2.7655752 4.3612108 -1.1922406 6 1
10.363667 16.330534 1.0136429 9 9
3.3597152 5.2899847 -1.2181247 4 2
10.337312 16.270168 1.6864636 2 10
4.1877217 6.5860868 -1.2361453 2 3
10.393897 16.334011 2.3771837 42 11
5.9109936 9.2855597 -1.351531 2 4
10.437508 16.383598 3.0767534 46 12
9.4749146 14.861199 -1.5419594 21 5
10.478049 16.428251 3.7875586 48 13
10.211882 15.99863 -0.99469727 10 6
10.657447 16.683823 4.5705557 1 14
10.213341 15.982459 -0.33107215 13 7
10.711133 16.748531 5.327014 1 15
2.3880131 3.7125831 -1.182803 7 0
10.332314 16.051069 0.33320135 4 8
2.7959526 4.3417983 -1.1922406 6 1
10.424408 16.175522 1.0085139 6 9
3.402952 5.2762985 -1.2204144 5 2
10.377194 16.083761 1.6746104 2 10
4.2336025 6.5566888 -1.2361453 2 3
10.430099 16.141012 2.3596344 44 11
5.9993882 9.2807407 -1.3568934 2 4
10.462567 16.172676 3.0507853 49 12
9.2969074 14.359848 -1.4966384 14 5
10.518837 16.241005 3.7612274 52 13
10.247281 15.809628 -0.98737025 8 6
10.585954 16.319635 4.4909229 4 14
10.251739 15.798376 -0.32873353 12 7
10.619471 16.352547 5.2245216 7 15
2.3990839 3.673177 -1.1755562 7 0
10.36972 15.864722 0.33082783 11 8
2.8357944 4.3368521 -1.1962898 5 1
10.468183 15.997064 1.0019196 6 9
3.4386263 5.250772 -1.2200328 6 2
10.408432 15.887593 1.6617113 2 10
4.2965999 6.5534067 -1.2411512 2 3
10.469567 15.9566 2.3433039 47 11
6.1402793 9.3548002 -1.373955 2 4
10.491711 15.972112 3.0266945 46 12
9.4647942 14.39781 -1.5074457 10 5
10.555375 16.050709 3.7341323 51 13
10.282747 15.624249 -0.98025256 14 6
10.620301 16.124908 4.4576302 3 14
10.305679 15.641254 -0.32695338 11 7
10.647227 16.147379 5.1825924 7 15
2.4289398 3.6627791 -1.1776267 7 0
10.418303 15.698636 0.32887316 11 8
2.8713913 4.3250666 -1.1985391 5 1
10.526555 15.84374 0.99689537 6 9
3.4860704 5.2429872 -1.2238491 6 2
10.471648 15.74321 1.6542161 8 10
4.3367734 6.515029 -1.2395868 2 3
10.509174 15.775736 2.327461 44 11
6.2538757 9.3843889 -1.3846796 2 4
10.535007 15.796583 3.0072966 52 12
9.3781509 14.051322 -1.4779871 5 5
10.5865 15.855803 3.7058926 51 13
10.327209 15.455766 -0.97418153 10 6
10.653539 15.932115 4.424787 5 14
10.341236 15.459233 -0.32464966 11 7
10.67265 15.942624 5.1406641 6 15
2.4522922 3.6425285 -1.1765914 7 0
10.449432 15.509432 0.32642981 8 8
2.8993359 4.3016849 -1.1976395 5 1
10.531925 15.614223 0.9870562 4 9
3.5258827 5.223403 -1.2249938 5 2
10.506596 15.559091 1.6425371 12 10
4.3832579 6.4862309 -1.2398998 2 3
10.544545 15.59181 2.3111303 37 11
6.3931894 9.4462547 -1.4005226 2 4
10.57083 15.613054 2.9863341 51 12
9.4000225 13.873345 -1.4661338 9 5
10.615953 15.656148 3.6768894 50 13
10.353011 15.262632 -0.96654052 12 6
10.699931 15.762223 4.398243 3 14
10.387551 15.290549 -0.32266009 8 7
10.713108 15.763868 5.1070175 6 15
2.4804752 3.6280766 -1.1776267 7 0
10.571001 15.45591 0.32684866 8 8
2.9256411 4.274395 -1.1958399 5 1
10.638873 15.531866 0.98663753 8 9
3.5711391 5.2116184 -1.2280468 5 2
10.528648 15.3537 1.6287665 28 10
4.4329128 6.4595847 -1.2408383 2 3
10.576742 15.40653 2.2945561 22 11
6.4927039 9.4504766 -1.4078349 2 4
10.612889 15.436096 2.9669366 44 12
9.6310081 14.002732 -1.486877 21 5
10.643728 15.463602 3.6490314 52 13
10.050692 14.591092 -0.92854464 22 6
10.762172 15.618134 4.3788972 1 14
10.097845 14.643132 -0.3104783 25 7
10.777358 15.616843 5.0842414 3 15
2.5145547 3.6233678 -1.1817677 7 0
10.138367 14.598065 0.31023398 40 8
2.9643056 4.2666693 -1.199439 5 1
10.155309 14.606132 0.93231285 37 9
3.6072197 5.184319 -1.2276652 6 2
10.216715 14.678048 1.5646199 25 10
4.5128994 6.4787297 -1.2505373 2 3
10.599307 15.205059 2.2757883 10 11
6.6198339 9.4928493 -1.4209967 1 4
10.631094 15.233649 2.9422197 47 12
9.5028038 13.606762 -1.4520146 6 5
10.68397 15.292351 3.6261344 52 13
13.826384 19.760824 5.5679884 2 14
12.301465 17.561811 5.7452655 1 15
2.5375662 3.6025648 -1.1807325 7 0
10.233113 14.517127 0.31002453 18 8
2.9985147 4.2522392 -1.2012386 5 1
10.191386 14.441869 0.92634654 4 9
3.6376626 5.150991 -1.225757 5 2
4.5591598 6.4486785 -1.2508501 2 3
10.274102 14.521378 2.1841426 4 11
6.752461 9.5403814 -1.4351336 1 4
9.4639082 13.351541 -1.4317945 14 5
10.3544 14.602416 3.4795928 46 13
10.137847 14.286463 -0.91807747 56 6
10.148443 14.285528 -0.30587089 43 7
10.394377 14.620906 4.8067875 55 15
2.5649002 3.5879054 -1.1817677 7 0
10.2167 14.281072 0.30649915 52 8
3.0281255 4.2312036 -1.2012386 6 1
10.241955 14.300545 0.92184561 69 9
3.6815429 5.1366382 -1.2284284 6 2
10.261601 14.312142 1.5407393 40 10
4.6144361 6.4311352 -1.2536659 2 3
10.321964 14.37513 2.1729305 54 11
6.8768096 9.573617 -1.4473205 1 4
10.348114 14.395634 2.8079989 48 12
9.4021454 13.070034 -1.4086111 5 5
10.397607 14.448503 3.4601305 44 13
10.296863 14.297995 -0.92341572 38 6
10.293528 14.277594 -0.30723214 48 7
10.422726 14.446152 4.7731414 6 15
2.5876174 3.5667846 -1.1807325 6 0
10.39134 14.312963 0.30873308 52 8
3.0621717 4.2162671 -1.2030382 5 1
10.39673 14.304627 0.92676514 53 9
3.7334781 5.1330404 -1.233771 6 2
10.404641 14.299763 1.5471888 35 10
4.6650324 6.4067502 -1.2552303 2 3
10.419732 14.29951 2.1724429 44 11
7.0159774 9.6248312 -1.4624323 1 4
10.433228 14.302293 2.8039317 43 12
9.998311 13.696034 -1.4835651 9 5
10.447271 14.305806 3.4433393 58 13
10.467145 14.322507 -0.92969596 48 6
10.475614 14.318352 -0.30967551 51 7
10.479959 14.313803 4.7534709 60 15
2.6227629 3.5626345 -1.1853913 6 0
10.565734 14.341496 0.31093207 48 8
3.0892203 4.191649 -1.2021384 5 1
10.568657 14.329746 0.93315017 55 9
3.759896 5.094214 -1.2307181 6 2
10.587058 14.338973 1.5593904 33 10
4.7131681 6.3787928 -1.256169 2 3
10.593661 14.326975 2.1877987 43 11
7.1302152 9.6394558 -1.4721818 1 4
10.625669 14.354536 2.8286483 48 12
10.469631 14.133407 -1.5388217 36 5
10.624037 14.336628 3.4685261 52 13
10.552605 14.229834 -0.92843997 12 6
10.635557 14.331248 4.1202035 44 14
10.655663 14.342644 4.7876348 55 15
2.6441009 3.5395956 -1.1838384 6 0
10.682362 14.289806 0.31142077 12 8
3.1254086 4.1793456 -1.2048379 5 1
10.74024 14.351557 0.93943048 22 9
3.8000758 5.0741262 -1.2322445 6 2
10.729912 14.322117 1.5656657 47 10
4.7646956 6.3552165 -1.2580462 2 3
10.779206 14.366988 2.2053478 43 11
7.2783675 9.6974039 -1.4887561 1 4
10.801556 14.381084 2.8486719 54 12
10.564449 14.055199 -1.5382988 37 5
10.806464 14.371944 3.4952393 54 13
10.586836 14.06964 -0.92278761 12 6
10.812717 14.359395 4.1498966 38 14
10.607124 14.081251 -0.30772081 2 7
10.83461 14.372802 4.8228345 34 15
2.6699159 3.5225883 -1.184356 6 0
10.833825 14.283389 0.31292164 3 8
3.1615791 4.1667371 -1.2075372 5 1
10.881239 14.33031 0.94298941 1 9
3.8294661 5.03966 -1.2303365 5 2
10.748855 14.140586 1.5539868 7 10
4.8352551 6.3563881 -1.2649293 1 3
10.870805 14.24933 3.4837909 7 13
2.7062197 3.519177 -1.1895324 1 0
3.2096112 4.1692705 -1.2147356 0 1
1.0963652 1.4012672 0.15566015 1 10
1.1043438 1.4094348 0.21985231 1 11
1.1008922 1.4035153 0.28252068 0 12
1.1379318 1.4496945 -0.16123812 1 5
1.1021413 1.4035938 0.34689078 0 13
1.1431488 1.4537272 0.4269571 0 14
1.0838088 1.3767812 0.46949777 1 15
1.0838126 1.3693948 -0.46794486 1 0
1.1012633 1.3904449 0.030960569 2 8
1.1311965 1.4256804 -0.35375988 0 2
1.1061218 1.3935785 0.15566015 1 10
1.1192741 1.4091386 -0.28502363 0 3
1.0943925 1.3768274 0.2159525 1 11
1.1057431 1.389613 0.28126919 0 12
1.1008627 1.3824877 -0.15461428 1 5
1.1070197 1.3897233 0.3453643 0 13
1.0943191 1.3727945 -0.092006624 1 6
1.0803549 1.3543068 0.39996299 0 14
1.0976208 1.3754584 -0.030716237 1 7
1.086161 1.3601238 0.46639192 1 15
1.1021763 1.3718107 0.030716237 2 8
1.0702566 1.3306546 0.089494489 1 9
1.1158239 1.3858223 0.15566015 1 10
1.1117324 1.379756 -0.28064346 0 3
1.1313912 1.4031501 0.22131474 1 11
1.114429 1.3811268 -0.21790241 1 4
1.1205032 1.3871678 -0.15600878 1 5
10.982412 13.571848 4.030673 0 14
1.1074353 1.3675687 -0.030716237 1 7
2.8235486 3.4657178 -1.1978146 1 0
1.0965658 1.3454819 0.030297378 1 8
3.3193252 4.0698967 -1.2124861 0 1
4.0315738 4.9379196 -1.2391137 1 2
10.904153 13.346012 1.5077944 8 10
11.054667 13.515783 2.1439257 0 11
10.971147 13.394577 2.7422965 39 12
10.148705 12.386067 -1.4009414 0 5
10.785231 13.144179 -0.89107209 2 6
11.133761 13.544832 4.6980834 2 15
2.8230641 3.4161363 -1.1874619 6 0
10.921476 13.206494 0.29913425 8 8
3.3501437 4.0496254 -1.2133859 5 1
10.946915 13.223152 0.89965516 6 9
4.0467658 4.8847542 -1.2330078 2 2
10.929673 13.188261 1.4985558 40 10
5.1133986 6.1656876 -1.2686837 1 3
11.073769 13.343152 2.1290576 4 11
8.1660023 9.8360033 -1.5696774 2 4
11.005061 13.246244 2.7275918 46 12
10.691805 12.86007 -1.4631705 8 5
11.053636 13.290548 3.3601465 58 13
10.8039 12.981067 -0.88510579 16 6
11.055946 13.27448 3.9883823 26 14
10.817481 12.983555 -0.29498056 5 7
11.194655 13.426707 4.6841073 1 15
2.856771 3.40819 -1.1916029 6 0
10.951724 13.056386 0.29745883 6 8
3.3708162 4.0171833 -1.2106866 6 1
10.961904 13.054636 0.89337492 8 9
4.1123443 4.89396 -1.2425482 5 2
10.968916 13.049106 1.4914091 47 10
5.158865 6.1328602 -1.2693094 2 3
11.087384 13.171364 2.1139457 6 11
8.2830639 9.8364496 -1.5789393 1 4
11.03871 13.099612 2.7131999 47 12
10.113432 11.993091 -1.3725287 7 5
11.085382 13.14103 3.3418288 66 13
10.836286 12.836648 -0.88039553 16 6
11.118175 13.161238 3.9775846 33 14
10.860104 12.851207 -0.2936891 3 7
11.230735 13.280371 4.660296 1 15
2.8792436 3.3866913 -1.1910853 6 0
11.011509 12.943057 0.29662108 6 8
3.4013054 3.9965205 -1.2115864 6 1
11.01263 12.930651 0.89013004 9 9
4.1476836 4.8666253 -1.2429299 6 2
10.995116 12.896403 1.4826934 46 10
5.1989875 6.0936918 -1.2686837 2 3
11.113333 13.016644 2.1015153 6 11
8.4391956 9.881032 -1.5955136 2 4
11.063154 12.944142 2.6969306 49 12
10.227993 11.958531 -1.3767121 5 5
11.111761 12.98724 3.3223665 58 13
10.851603 12.6742 -0.87442923 16 6
11.160331 13.025588 3.9600382 47 14
10.880591 12.6946 -0.29183912 5 7
13.790798 16.078648 5.6759019 1 15
2.9116476 3.376749 -1.1947087 6 0
11.02713 12.779574 0.29463151 4 8
3.4342165 3.9785786 -1.2133859 5 1
11.00341 12.738582 0.88217497 6 9
4.1841259 4.8405209 -1.2436931 6 2
11.023634 12.748496 1.4745009 47 10
5.2633767 6.0826421 -1.2740024 2 3
11.105176 12.824691 2.0829911 6 11
8.5495644 9.8698893 -1.6033133 2 4
11.085971 12.788975 2.6806614 48 12
10.26162 11.829643 -1.3700883 20 5
11.135249 12.832243 3.3025222 60 13
10.884814 12.534801 -0.87003303 12 6
11.18197 12.867926 3.9357436 47 14
10.913846 12.554949 -0.29037315 5 7
11.283195 12.97069 4.6064615 1 15
2.9300625 3.3505242 -1.1926383 6 0
11.138474 12.727856 0.29522491 4 8
3.4644742 3.9574404 -1.2142857 5 1
11.20131 12.786145 0.89086276 9 9
4.2204056 4.8141446 -1.2444563 6 2
11.046682 12.596327 1.4657853 47 10
5.31744 6.0591106 -1.2768183 2 3
11.185264 12.736415 2.0812848 6 11
8.7352896 9.9396734 -1.6247622 6 4
11.105857 12.632639 2.6640792 50 12
9.9070358 11.261079 -1.3122169 6 5
11.168411 12.685922 3.2853494 57 13
10.916616 12.395554 -0.86563683 12 6
11.210974 12.720833 3.9145982 44 14
10.934633 12.398537 -0.2885581 5 7
11.27634 12.781506 4.567121 4 15
2.9629381 3.3395872 -1.1962616 7 0
11.075739 12.479288 0.29124579 5 8
3.5056448 3.9471183 -1.2187848 5 1
11.183722 12.583249 0.88227969 8 9
4.2473869 4.7772293 -1.2425482 4 2
11.071644 12.444019 1.457244 46 10
5.3540936 6.0135279 -1.2752539 2 3
11.226383 12.604645 2.0725102 5 11
8.8189974 9.8947487 -1.6274434 19 4
11.14074 12.490932 2.6509387 47 12
10.262636 11.502355 -1.348648 5 5
11.191319 12.534424 3.2662685 63 13
10.943826 12.248608 -0.86082184 12 6
11.241065 12.576879 3.8943524 47 14
10.97026 12.265263 -0.28723168 5 7
11.41132 12.74943 4.5847206 1 15
2.9848886 3.3173847 -1.195744 6 0
11.116584 12.346213 0.2899892 8 8
3.5278986 3.9167564 -1.2169852 5 1
11.124203 12.341674 0.87076569 9 9
4.2972426 4.7642078 -1.2471277 4 2
11.10486 12.307251 1.4502716 43 10
5.4078574 5.9892006 -1.2780697 1 3
11.257735 12.459181 2.0617857 5 11
8.9104843 9.8579788 -1.6315869 9 4
11.169374 12.348387 2.6371727 49 12
9.8539886 10.886513 -1.2846756 1 5
11.217944 12.389039 3.2487142 57 13
10.968722 12.105305 -0.85611171 14 6
11.273178 12.432597 3.874557 48 14
11.004568 12.132092 -0.2859053 7 7
11.424735 12.586493 4.554698 1 15
3.007977 3.2964637 -1.195744 6 0
11.257783 12.328853 0.29142028 8 8
3.5472729 3.8833966 -1.2142857 6 1
11.253209 12.310892 0.87411529 8 9
4.3303986 4.7340913 -1.2471277 5 2
11.139394 12.173575 1.4436477 51 10
5.4668803 5.9702396 -1.282137 2 3
11.269341 12.298326 2.0481365 6 11
9.0354271 9.8569918 -1.641824 6 4
11.201897 12.21188 2.6246576 47 12
10.207294 11.119818 -1.3205838 6 5
11.249719 12.251131 3.2330678 61 13
10.988093 11.957847 -0.85108739 14 6
11.29639 12.284732 3.8529615 47 14
11.024011 11.984334 -0.2842299 6 7
11.477008 12.468043 4.5407214 2 15
3.0401001 3.2853105 -1.1993675 5 0
11.291952 12.194204 0.29009393 8 8
3.5901875 3.8756945 -1.2196846 6 1
11.232972 12.11778 0.86595082 4 9
4.3633451 4.703742 -1.2471277 5 2
11.165834 12.03271 1.4361523 48 10
5.5017099 5.9246883 -1.2805728 1 3
11.241408 12.097204 2.0276623 7 11
9.4662409 10.18332 -1.7071459 10 4
11.219601 12.061067 2.6090145 49 12
10.49645 11.275786 -1.3477764 12 5
11.27476 12.107645 3.2158949 63 13
11.025011 11.831164 -0.84752852 14 6
11.318085 12.137159 3.8313665 48 14
11.061029 11.857363 -0.28304312 6 7
11.49654 12.315595 4.5143223 2 15
3.0497425 3.2499194 -1.1941911 6 0
11.190639 11.916824 0.28534684 8 8
3.6198258 3.8533764 -1.2205844 6 1
11.321401 12.043428 0.86626482 9 9
4.3960748 4.6731677 -1.2471277 5 2
11.179932 11.880466 1.4272624 52 10
5.5551229 5.8990803 -1.2833885 2 3
11.279302 11.969312 2.0193753 6 11
9.5289278 10.108323 -1.7056835 10 4
11.238466 11.913473 2.5939965 48 12
10.382077 10.997945 -1.3231984 7 5
11.306446 11.972972 3.2010119 61 13
11.04973 11.692932 -0.84313232 14 6
11.346307 11.99838 3.8124702 44 14
11.088576 11.72174 -0.28164694 6 7
11.518491 12.167692 4.4894753 1 15
3.0790155 3.2355464 -1.1967793 6 0
11.171514 11.731248 0.2827639 4 8
3.6520162 3.8336558 -1.2223841 6 1
11.272905 11.825316 0.85621631 9 9
4.4340134 4.6480455 -1.2486541 4 2
11.204829 11.741588 1.4199414 51 10
5.6043568 5.8687263 -1.2852658 2 3
11.34476 11.871617 2.0162065 17 11
9.6092539 10.04848 -1.7071459 9 4
11.272205 11.783337 2.5827332 49 12
11.051042 11.544064 -1.3981524 9 5
11.317135 11.813783 3.1800227 65 13
11.082728 11.565036 -0.83946884 16 6
11.373139 11.859807 3.7935746 47 14
11.119558 11.587265 -0.28032055 6 7
11.433244 11.909995 4.4237351 6 15
3.1087987 3.2203801 -1.1993675 6 0
11.271199 11.671669 0.28321764 6 8
3.6739388 3.8018186 -1.2205844 6 1
11.318356 11.704151 0.85328549 9 9
4.4663548 4.6169767 -1.2486541 4 2
11.235909 11.606705 1.4133176 52 10
5.6489573 5.8313093 -1.2858914 3 3
11.399739 11.763611 2.011332 8 11
9.6625834 9.9640541 -1.704221 9 4
11.305336 11.64992 2.5711572 53 12
11.071686 11.405166 -1.3906569 9 5
11.348721 11.682383 3.1659031 61 13
11.096985 11.41526 -0.83433986 13 6
11.402674 11.725634 3.7760284 45 14
11.163922 11.472093 -0.27941301 7 7
11.454831 11.762827 4.3994064 6 15
3.1312037 3.1985993 -1.1993675 5 0
11.313849 11.54929 0.2822054 8 8
3.7113008 3.7872138 -1.2241837 5 1
11.320086 11.54356 0.84731919 9 9
4.5034041 4.5891018 -1.249799 4 2
11.265017 11.475379 1.406868 53 10
5.714448 5.8170958 -1.2915231 12 3
11.395942 11.59256 1.9959762 11 11
9.7124243 9.8765383 -1.7008086 10 4
11.339278 11.522845 2.5605195 52 12
11.077525 11.248987 -1.3812442 9 5
11.380409 11.552515 3.1521647 68 13
11.125926 11.286312 -0.83057171 13 6
11.421968 11.578534 3.7548831 45 14
11.170696 11.319866 -0.27759799 6 7
11.471516 11.61659 4.3745594 6 15
3.1616242 3.1848879 -1.2024734 6 0
11.329375 11.404763 0.2805998 8 8
3.7266626 3.7501516 -1.2205844 6 1
11.301819 11.365116 0.83999223 8 9
4.5353298 4.5575523 -1.249799 6 2
11.290036 11.341386 1.4000698 51 10
5.7507339 5.7728634 -1.2905844 22 3
11.451375 11.487409 1.991589 9 11
9.7418909 9.7691345 -1.693984 10 4
11.355268 11.379076 2.5461278 56 12
11.136079 11.151641 -1.3788038 9 5
11.408052 11.420008 3.1376631 68 13
11.159264 11.163162 -0.82722223 13 6
11.447394 11.443402 3.736887 46 14
11.222576 11.214747 -0.2769348 7 7
11.505858 11.489809 4.3569603 6 15
3.1728187 3.1518443 -1.1983322 6 0
11.283827 11.201423 0.27752817 8 8
3.7665854 3.7377696 -1.2250834 6 1
11.37379 11.278911 0.83946884 9 9
4.5628538 4.5216331 -1.2486541 5 2
11.313731 11.20761 1.3932717 53 10
5.8133578 5.7548108 -1.2955904 26 3
11.398638 11.275954 1.9686776 9 11
9.7689219 9.660408 -1.6869156 11 4
11.383849 11.249538 2.5348644 52 12
11.139942 11.000827 -1.3697397 13 5
11.437202 11.290434 3.1239252 68 13
11.17863 11.027476 -0.82293069 15 6
11.477043 11.313954 3.7206905 46 14
11.270686 11.10665 -0.27620178 7 7
11.533486 11.357695 4.3372898 6 15
3.1961241 3.1309705 -1.1988499 6 0
11.341746 11.102789 0.2770395 8 8
3.7981575 3.7168369 -1.2268831 5 1
11.373715 11.122429 0.83371186 11 9
4.6027365 4.4978991 -1.2509438 4 2
11.33184 11.069877 1.3859506 48 10
5.866117 5.7265024 -1.2984062 11 3
11.49271 11.21135 1.9713587 7 11
9.8005972 9.5573235 -1.6808221 10 4
11.399859 11.109129 2.5210981 53 12
11.176499 10.883872 -1.3648589 21 5
11.452442 11.148687 3.1067524 74 13
11.215253 10.910177 -0.81999987 15 6
11.505447 11.184653 3.704494 48 14
11.327872 11.008184 -0.27571312 10 7
11.552902 11.219027 4.3150315 6 15
3.2165148 3.107239 -1.1983322 6 0
11.469337 11.071948 0.27826118 9 8
3.8240137 3.6902301 -1.2268831 5 1
11.456839 11.0483 0.83413053 11 9
4.6396799 4.4711056 -1.2524703 6 2
11.357195 10.940728 1.3796754 48 10
5.9173374 5.6963687 -1.3009092 2 3
11.476275 11.040017 1.9552718 7 11
9.8298779 9.4528942 -1.674485 10 4
11.431555 10.985478 2.5110862 56 12
11.207665 10.762794 -1.3594552 21 5
11.474755 11.015442 3.0918691 68 13
11.227735 10.770772 -0.81539428 16 6
11.5312 11.054161 3.6878476 46 14
11.306271 10.83475 -0.2733396 9 7
11.607224 11.115383 4.3062315 6 15
3.2521167 3.0980327 -1.2035086 6 0
11.444974 10.895087 0.27581784 6 8
3.8440359 3.6580698 -1.2250834 5 1
11.452646 10.890966 0.82826895 8 9
4.6764722 4.4440174 -1.2539968 4 2
11.391408 10.821379 1.3746203 51 10
6.0042357 5.6998024 -1.3112338 1 3
11.495461 10.904981 1.9455223 11 11
9.8322496 9.3239412 -1.6637604 10 4
11.464953 10.864641 2.5017002 36 12
11.236238 10.640448 -1.3538773 21 5
11.500055 10.886471 3.0781307 72 13
11.250422 10.642714 -0.81162608 15 6
11.538696 10.907798 3.6658025 48 14
11.38745 10.761047 -0.27347922 11 7
11.639592 10.991642 4.2896671 2 15
3.2863369 3.0871587 -1.2081673 6 0
11.522211 10.816296 0.27585274 8 8
3.8723245 3.6338096 -1.2259833 6 1
11.534224 10.816217 0.82868761 9 9
4.6987877 4.4032063 -1.2517071 4 2
11.411419 10.689835 1.3679966 47 10
6.0727243 5.6847453 -1.3174912 1 3
11.537976 10.793266 1.9399164 10 11
9.8565063 9.2171087 -1.6569357 11 4
11.479912 10.727684 2.4885597 45 12
10.909792 10.1878 -1.3059417 54 5
11.529853 10.763051 3.0659192 72 13
10.930117 10.196073 -0.78336465 31 6
11.557548 10.773825 3.6478064 51 14
10.957572 10.21096 -0.26143706 21 7
11.682113 10.878517 4.2772436 1 15
3.2922211 3.0496981 -1.2024734 6 0
11.001648 10.184073 0.26168138 46 8
3.9119003 3.6199243 -1.2304822 5 1
11.019962 10.190318 0.78660947 63 9
4.730855 4.3716278 -1.2520887 4 2
11.051102 10.208385 1.316226 48 10
6.147099 5.6743684 -1.325 2 3
11.105271 10.244066 1.8550954 40 11
9.881216 9.1117344 -1.6503549 11 4
11.207332 10.327355 2.413784 33 12
10.954268 10.087093 -1.302804 42 5
11.545485 10.627786 3.0502727 65 13
10.976044 10.096532 -0.78158528 46 6
11.59088 10.654625 3.6347592 44 14
10.972638 10.082797 -0.26011065 42 7
11.67098 10.716985 4.2456679 2 15
3.3262684 3.0383654 -1.207132 6 0
11.076909 10.111064 0.2617861 63 8
3.9428344 3.59778 -1.2322818 5 1
11.084931 10.107753 0.78619081 68 9
4.7786736 4.3543615 -1.2566681 6 2
11.097061 10.108176 1.3132627 37 10
6.1894846 5.6339741 -1.3256258 2 3
11.123653 10.1182 1.8463207 112 11
9.9093332 9.0104809 -1.644505 12 4
11.151966 10.133289 2.3865645 49 12
10.989021 9.9782276 -1.2986206 41 5
11.177475 10.145789 2.9342608 71 13
11.05366 10.026367 -0.7821086 60 6
11.213046 10.163809 3.4939396 49 14
11.082776 10.042197 -0.26105312 58 7
3.3387871 3.0073125 -1.2040263 6 0
11.062503 9.9572363 0.25979653 68 8
3.9620612 3.5649524 -1.2304822 6 1
11.110667 9.9900637 0.78305066 82 9
4.8104167 4.322206 -1.2570497 4 2
11.152536 10.017144 1.3115195 39 10
6.2536578 5.6130576 -1.3309445 2 3
11.216187 10.060177 1.8499768 61 11
9.9247007 8.898675 -1.6367054 12 4
11.256275 10.085505 2.3937604 53 12
10.981228 9.8321571 -1.2895564 52 5
11.277291 10.093696 2.9418933 69 13
11.005783 9.8437653 -0.77383947 67 6
11.327319 10.124239 3.507437 53 14
11.027349 9.8526678 -0.2581211 61 7
11.341043 10.12583 4.073812 71 15
3.3611438 2.9852145 -1.2045439 6 0
11.088381 9.8412638 0.25878429 45 8
3.9839356 3.5346205 -1.2295824 5 1
11.103927 9.8446722 0.7777124 81 9
4.8404741 4.2885175 -1.2570497 6 2
11.140164 9.8663874 1.3019325 60 10
6.3030472 5.5784268 -1.3331347 1 3
11.158261 9.8685341 1.8290153 68 11
9.946476 8.7906199 -1.6298808 12 4
11.193172 9.8889704 2.3656023 55 12
11.145192 9.8396463 -1.3007122 29 5
11.224094 9.9023371 2.9094558 101 13
11.152129 9.8353872 -0.77928245 33 6
11.254447 9.918642 3.4633465 54 14
11.180109 9.8461962 -0.26004085 46 7
11.282408 9.9327946 4.0277419 70 15
3.396955 2.9738114 -1.2097203 6 0
11.287736 9.8781834 0.261821 42 8
4.0149946 3.511153 -1.2313821 5 1
11.291394 9.8674755 0.78587681 48 9
4.8614225 4.2468729 -1.25476 6 2
11.318548 9.8807573 1.3144829 29 10
6.3487582 5.5383744 -1.3343862 2 3
11.330123 9.8804131 1.8458333 40 11
9.9567204 8.6766243 -1.6215936 13 4
11.36197 9.8942413 2.3862517 36 12
11.34736 9.878027 -1.316226 35 5
11.374415 9.8946114 2.9304447 51 13
11.368437 9.8824329 -0.78943563 41 6
11.383723 9.8922434 3.4817924 39 14
11.367856 9.8714828 -0.26279834 43 7
11.410102 9.901185 4.0479298 43 15
3.4147084 2.9474988 -1.2086849 6 0
11.494412 9.9147081 0.26496243 27 8
4.048264 3.4906726 -1.2340814 6 1
11.500722 9.9096527 0.79561126 43 9
4.8946633 4.2145386 -1.2555233 5 2
11.514097 9.9106789 1.329125 28 10
6.4202127 5.5222588 -1.3412693 2 3
11.537527 9.9168329 1.8680135 37 11
9.9884405 8.5823269 -1.6169626 11 4
11.568654 9.9330606 2.4150355 35 12
11.39961 9.7810059 -1.3141342 10 5
11.58628 9.9376593 2.9670801 46 13
11.412889 9.7820301 -0.78776091 11 6
11.593345 9.9296904 3.5240831 37 14
11.544343 9.8842201 -0.26527658 11 7
11.615458 9.9380922 4.0960703 52 15
3.4249055 2.9148216 -1.2050616 6 0
11.624278 9.8860455 0.26635864 12 8
4.0873837 3.4749458 -1.2385805 5 1
11.648769 9.896369 0.80105424 14 9
4.9299536 4.1853471 -1.2570497 5 2
11.563252 9.8132992 1.326859 48 10
6.4646358 5.4824138 -1.3425208 1 3
11.656455 9.878397 1.8760569 6 11
10.005703 8.4764566 -1.6101379 11 4
11.642242 9.8558836 2.4159741 51 12
11.42502 9.6651573 -1.3092535 20 5
11.674863 9.8730106 2.9720411 65 13
11.45649 9.6814938 -0.78608614 15 6
11.73981 9.9138861 3.547478 34 14
11.61459 9.8046789 -0.26531148 11 7
11.65798 9.8343306 4.0867529 60 15
3.4644084 2.906985 -1.2117908 6 0
11.732853 9.8380585 0.26726615 8 8
4.0966072 3.4338093 -1.2340814 5 1
11.778819 9.8661041 0.80524111 14 9
4.9680877 4.1583862 -1.2593395 5 2
11.596335 9.7029257 1.3228499 56 10
6.5330648 5.4624872 -1.3487781 1 3
11.837857 9.8909721 1.8940935 5 11
10.029597 8.3771238 -1.6045319 12 4
11.677397 9.7465239 2.409091 51 12
11.446317 9.5468769 -1.3040242 21 5
11.702786 9.7573242 2.9617374 73 13
11.473164 9.5590858 -0.78263193 15 6
11.748832 9.7818108 3.5294819 42 14
11.570557 9.6299715 -0.26276344 9 7
11.68922 9.7218218 4.073812 71 15
3.4771764 2.8765709 -1.2092026 6 0
11.747305 9.7113142 0.26604447 11 8
4.1264887 3.4100919 -1.2358811 6 1
11.78273 9.7302179 0.80084491 14 9
4.9969959 4.1236033 -1.2593395 5 2
11.617684 9.5836964 1.3176205 50 10
6.6045713 5.4443908 -1.3556613 1 3
11.793239 9.7146883 1.8760569 3 11
10.047991 8.2740955 -1.5981947 12 4
11.697869 9.6258516 2.3993921 51 12
11.466524 9.4287643 -1.2987949 23 5
11.729671 9.6417255 2.9514337 101 13
11.474803 9.4255066 -0.77823573 15 6
11.771647 9.6624584 3.515985 45 14
11.671517 9.5768604 -0.26353133 11 7
11.711989 9.6032305 4.0582829 67 15
3.5106473 2.8632143 -1.2138613 5 0
11.794665 9.6126413 0.26559073 12 8
4.1411304 3.3738151 -1.2331817 6 1
11.817845 9.6212416 0.79864681 16 9
5.027185 4.0898561 -1.259721 4 2
11.642573 9.4684153 1.3129141 51 10
6.6546831 5.4081154 -1.3581642 1 3
11.822248 9.6008339 1.8699634 15 11
10.054651 8.1624584 -1.5901513 12 4
11.70956 9.4991503 2.3881288 55 12
11.488733 9.3133526 -1.2939141 15 5
11.75704 9.5274649 2.9415116 66 13
11.510834 9.3212852 -0.77624696 15 6
11.791851 9.5420446 3.502038 42 14
11.674349 9.4435806 -0.26210025 11 7
11.738178 9.4884472 4.0443063 70 15
3.5275383 2.8362164 -1.2128261 6 0
11.817839 9.4949961 0.26461339 12 8
4.1767364 3.3545866 -1.2367809 5 1
11.84267 9.5047493 0.79582059 16 9
5.0663357 4.0632577 -1.2623924 4 2
11.66331 9.3507614 1.3078591 56 10
6.7154016 5.3800521 -1.3628573 2 3
11.839402 9.4783592 1.8621637 8 11
10.077294 8.0647774 -1.584789 11 4
11.723144 9.3752174 2.3774912 51 12
11.505219 9.1943655 -1.2885104 10 5
11.781857 9.4120626 2.9312079 71 13
11.539723 9.2120438 -0.77383947 15 6
11.820094 9.4291086 3.4907904 44 14
11.655562 9.2945299 -0.26021537 10 7
11.755787 9.3677416 4.0277419 71 15
3.5411985 2.8067191 -1.2107556 6 0
11.827405 9.3675652 0.26335683 12 8
4.2061667 3.3301821 -1.2385805 4 1
11.855483 9.3797064 0.79226178 14 9
5.1115184 4.0411859 -1.2665902 6 2
11.68454 9.2345181 1.3029783 56 10
6.7915502 5.3636489 -1.3706789 1 3
11.863208 9.3622761 1.8555828 8 11
10.105294 7.9721017 -1.5804018 11 4
11.751073 9.2638006 2.3699825 51 12
11.528434 9.0817642 -1.2839783 10 5
11.790205 9.2846451 2.917088 104 13
11.562946 9.099144 -0.7711181 15 6
11.839684 9.310216 3.4772935 45 14
11.735888 9.2252903 -0.26056442 11 7
11.772291 9.2472506 4.011178 70 15
3.5713632 2.7902541 -1.2143791 6 0
11.727008 9.1555595 0.2596918 12 8
4.2231684 3.2959409 -1.2367809 5 1
11.808852 9.2095098 0.78483003 9 9
5.1380596 4.0041924 -1.2662085 5 2
11.704711 9.1184406 1.2980976 56 10
6.847537 5.3306623 -1.3744334 1 3
11.887542 9.2475367 1.8492455 8 11
10.135634 7.8818569 -1.576502 11 4
11.774905 9.1500225 2.3618479 54 12
11.553789 8.9717321 -1.2797949 10 5
11.80821 9.1659927 2.9056394 69 13
11.577266 8.9802494 -0.76787323 15 6
11.864343 9.1962976 3.465596 43 14
11.678291 9.0488234 -0.25787675 10 7
11.796843 9.1340942 3.9977193 63 15
3.5938153 2.767612 -1.2154143 6 0
11.777962 9.0637093 0.25941256 9 8
4.2460742 3.2663791 -1.2367809 5 1
11.807937 9.0769377 0.7805385 9 9
5.181458 3.9801841 -1.2700247 6 2
11.726998 9.0049553 1.2935655 50 10
6.9347353 5.321209 -1.3844452 1 3
11.860445 9.0942631 1.8351088 6 11
10.138422 7.7710533 -1.5684586 13 4
11.797724 9.0363655 2.3537133 53 12
11.581334 8.864212 -1.27596 10 5
11.834493 9.0547009 2.8964806 66 13
11.600011 8.8688784 -0.7652564 15 6
11.872508 9.0706539 3.4493995 48 14
11.696681 8.9330883 -0.25689942 10 7
11.84343 9.0386219 3.9920251 31 15
3.6084328 2.7389507 -1.2138613 6 0
11.775633 8.9317112 0.25798148 8 8
4.2718801 3.2390113 -1.2376807 4 1
11.785058 8.9291439 0.77488625 9 9
5.1918998 3.9308805 -1.2658269 6 2
11.75781 8.8988123 1.2900794 56 10
6.9843197 5.2821984 -1.3869481 1 3
11.885633 8.9825201 1.829259 5 11
10.155996 7.6725621 -1.5628526 10 4
11.819527 8.922842 2.3455787 54 12
11.606353 8.7555447 -1.2719508 10 5
11.859794 8.9434958 2.8873219 101 13
11.621768 8.7576294 -0.76263964 15 6
11.896625 8.9582405 3.4381518 60 14
11.753967 8.8476048 -0.25679472 11 7
11.903155 8.9533968 3.9909899 32 15
3.6398418 2.7229507 -1.2180026 5 0
11.839298 8.8504868 0.25801638 9 8
4.3068767 3.218441 -1.2412798 5 1
11.85671 8.8538208 0.7755143 11 9
5.2270837 3.9004092 -1.2677351 5 2
11.766946 8.7771988 1.284327 51 10
7.0526996 5.2569232 -1.3932055 1 3
11.922585 8.8803453 1.8253592 5 11
10.21064 7.5996909 -1.5628526 5 4
11.837161 8.8070869 2.3368182 53 12
11.614431 8.6350756 -1.2661986 10 5
11.888817 8.8326416 2.8789263 104 13
11.637729 8.6429396 -0.75970882 16 6
11.91975 8.8459415 3.4269044 49 14
11.735062 8.7025204 -0.25501457 10 7
11.945193 8.8551283 3.9842606 46 15
3.6467922 2.6876655 -1.2138613 6 0
11.844449 8.7261038 0.25679472 11 8
4.3329358 3.1898501 -1.2421798 5 1
11.858627 8.7237749 0.77153671 11 9
5.2700019 3.875453 -1.2715513 5 2
11.78771 8.662097 1.2797949 54 10
7.0837688 5.2016449 -1.3919541 1 3
11.91708 8.7475595 1.8151222 6 11
10.340276 7.5845838 -1.5745521 5 4
11.855266 8.6894646 2.328058 59 12
11.635857 8.5255251 -1.2620151 10 5
11.896333 8.7099943 2.8659513 67 13
11.670263 8.5382118 -0.75782472 16 6
11.937177 8.7302933 3.4143071 56 14
11.800375 8.6239233 -0.25511929 11 7
11.964568 8.7375221 3.9697666 61 15
3.6717184 2.6666839 -1.215932 5 0
11.841852 8.594142 0.25539851 8 8
4.3393245 3.1480815 -1.2376807 4 1
11.903069 8.6290579 0.77049005 11 9
5.2944193 3.8353388 -1.270788 5 2
11.802707 8.5468779 1.2749141 51 10
7.1583176 5.1798563 -1.3994628 1 3
11.953633 8.6434479 1.8112223 5 11
10.450891 7.5540738 -1.5833267 7 4
11.880414 8.5810356 2.3211749 57 12
11.661025 8.4163904 -1.2581803 10 5
11.901131 8.5865202 2.8525946 73 13
11.682601 8.4226627 -0.75478923 16 6
11.962973 8.6184559 3.4039595 60 14
11.80674 8.5027714 -0.25396743 11 7
11.986076 8.6255703 3.9568257 77 15
3.7043858 2.6511021 -1.2205906 4 0
11.891803 8.504282 0.25518909 9 8
4.3611979 3.1177087 -1.2376807 4 1
11.911014 8.5085974 0.76714051 11 9
5.3242621 3.800565 -1.2715513 6 2
11.842626 8.4503841 1.2728225 58 10
7.236124 5.1595736 -1.4075974 1 3
11.944163 8.5102587 1.8007416 6 11
10.542179 7.5085673 -1.5891764 11 4
11.911059 8.4772739 2.3155432 55 12
11.683778 8.3093719 -1.2543454 10 5
11.933578 8.4838924 2.846107 104 13
11.703668 8.3142939 -0.75238174 26 6
11.975182 8.5008821 3.3904622 62 14
11.841351 8.4027786 -0.25344384 25 7
12.008184 8.5148582 3.9444025 68 15
3.7133305 2.6184959 -1.2174848 4 0
11.882229 8.3726768 0.25372308 16 8
4.3892303 3.0916743 -1.2394803 4 1
11.894995 8.3723555 0.76232564 14 9
5.3570886 3.7678196 -1.2730777 6 2
11.858955 8.3377075 1.2682904 54 10
7.2978301 5.1270995 -1.4126034 2 3
11.977289 8.4084158 1.7968417 22 11
10.55372 7.4062786 -1.5830829 12 4
11.929518 8.3655586 2.3077216 49 12
11.702343 8.200161 -1.250162 11 5
11.955533 8.3744678 2.8373299 105 13
11.73361 8.2129145 -0.75060236 24 6
11.98952 8.3858032 3.3778651 60 14
11.899724 8.3199062 -0.25344384 9 7
12.037244 8.4098015 3.9345672 70 15
3.7331073 2.5936108 -1.2180026 5 0
12.034019 8.3545275 0.25571266 13 8
4.4171109 3.0654006 -1.2412798 4 1
12.035213 8.3460207 0.76755917 13 9
5.3784208 3.7269738 -1.2719328 6 2
11.872649 8.2240858 1.263584 50 10
7.3724275 5.1030073 -1.4201121 1 3
12.012842 8.3087854 1.7934294 24 11
10.51373 7.2691989 -1.5694335 13 4
11.942123 8.2506313 2.2989612 51 12
11.719954 8.0910969 -1.2459785 11 5
11.978159 8.2662659 2.8289344 71 13
11.756133 8.106988 -0.74840426 18 6
12.017283 8.2808876 3.3693168 58 14
11.888352 8.1889839 -0.25197786 7 7
12.055879 8.2981777 3.9216263 75 15
3.7622814 2.5751255 -1.2216259 6 0
12.049141 8.2409534 0.25480512 12 8
4.4384022 3.0344908 -1.2412798 4 1
12.063505 8.2415113 0.76567513 14 9
5.4156594 3.6970825 -1.2746042 5 2
11.882053 8.1084251 1.2585289 51 10
7.4144025 5.0558662 -1.4213637 1 3
12.059068 8.216898 1.7917233 23 11
10.60524 7.2235599 -1.575527 11 4
11.971667 8.1481686 2.2936423 38 12
11.744853 7.9877896 -1.2426665 13 5
11.993359 8.1537476 2.8190124 71 13
11.779401 8.0022688 -0.74631077 16 6
12.049005 8.1792774 3.3621185 60 14
11.923722 8.0911913 -0.25152409 9 7
12.063951 8.1801996 3.9055796 73 15
3.7705567 2.5423167 -1.21852 4 0
11.980341 8.0717154 0.25215238 11 8
4.4562464 3.0012538 -1.2403802 4 1
12.014702 8.0857239 0.7589761 9 9
5.4478526 3.6635687 -1.2761306 5 2
11.915221 8.0097132 1.2560885 58 10
7.4724722 5.0194044 -1.4257438 1 3
12.050214 8.0882511 1.7819737 19 11
10.655408 7.1493502 -1.575527 11 4
12.002012 8.0467863 2.2886364 35 12
11.765572 7.8823128 -1.239006 16 5
12.010844 8.0435963 2.8098533 107 13
11.796803 7.8942914 -0.74390334 16 6
12.060451 8.0646353 3.3495212 62 14
12.008181 8.0266428 -0.25211748 10 7
12.082207 8.0700321 3.8931563 71 15
3.7930424 2.519136 -1.220073 4 0
12.096378 8.0276918 0.25340894 16 8
4.4770918 2.9700682 -1.2403802 4 1
12.099154 8.0204134 0.76075554 17 9
5.4782071 3.6286988 -1.2772754 6 2
11.932637 7.9010415 1.2520794 55 10
7.563344 5.0041742 -1.4363813 1 3
12.071613 7.980938 1.7768552 17 11
10.565947 6.9828501 -1.5550529 17 4
12.03482 7.9475603 2.2842562 28 12
11.792041 7.781333 -1.2360427 22 5
12.035568 7.9390087 2.8026028 111 13
11.809936 7.7842679 -0.74128658 16 6
12.074149 7.9523664 3.3378236 63 14
12.017155 7.9118295 -0.25114012 5 7
12.11566 7.9706149 3.8859093 70 15
3.8137696 2.4947114 -1.2211083 4 0
12.09689 7.9069428 0.25225708 12 8
4.4977164 2.9387417 -1.2403802 5 1
12.029424 7.8538594 0.75290513 9 9
5.4951868 3.5849993 -1.2753674 6 2
11.960804 7.8001299 1.2492903 57 10
7.6113396 4.9598751 -1.4388845 2 3
12.125368 7.8953905 1.7766114 30 11
10.562867 6.8753405 -1.547497 13 4
12.061857 7.8450441 2.2789376 24 12
11.812666 7.6771045 -1.2325565 22 5
12.056124 7.8323369 2.7945888 73 13
11.833837 7.682054 -0.73940241 15 6
12.090135 7.8424273 3.3270261 60 14
12.068741 7.8255653 -0.25107032 11 7
12.135342 7.8627272 3.8745213 71 15
3.8310931 2.4680254 -1.2211083 4 0
12.134982 7.8114748 0.25190803 16 8
4.527956 2.9135973 -1.2430795 4 1
12.137719 7.8042517 0.75625467 14 9
5.5233827 3.5486734 -1.2761306 6 2
11.97641 7.6916738 1.2452812 50 10
7.6923275 4.9364934 -1.4476447 1 3
12.076589 7.7441101 1.7614996 15 11
10.684138 6.8485708 -1.5582215 12 4
12.089716 7.7435985 2.2739315 12 12
11.824024 7.5675926 -1.2281988 24 5
12.079088 7.7278752 2.787338 101 13
11.853529 7.5777307 -0.73730898 15 6
12.118311 7.7410517 3.3198276 60 14
12.07252 7.7088275 -0.25002316 11 7
12.144334 7.7487249 3.8600273 84 15
3.8368101 2.4339747 -1.2174848 6 0
12.141929 7.6965895 0.2509307 15 8
4.5514784 2.8840013 -1.2439793 5 1
12.137909 7.6851354 0.75290513 14 9
5.5579772 3.5163243 -1.2784203 5 2
11.982667 7.5780578 1.2404004 51 10
7.7466416 4.8953333 -1.4513992 1 3
12.16225 7.6797481 1.7661307 24 11
10.703154 6.7558022 -1.554078 10 4
12.091687 7.6263404 2.2642329 11 12
12.092878 7.6182442 2.7781792 114 13
11.877404 7.4767103 -0.7355296 15 6
12.139067 7.63551 3.3108296 62 14
12.05833 7.5817814 -0.24862698 10 7
12.15724 7.6380596 3.8470864 75 15
3.8684545 2.4163427 -1.2221435 4 0
12.151259 7.584106 0.25002316 12 8
4.5715003 2.8521578 -1.2439793 5 1
12.106522 7.547379 0.74767154 11 9
5.5857229 3.4795129 -1.2791836 5 2
12.014984 7.4815803 1.2383088 58 10
7.8041096 4.855742 -1.4557793 1 3
12.156565 7.5579691 1.7575998 19 11
10.698951 6.6465654 -1.5465221 13 4
12.111072 7.5208964 2.2579753 11 12
10.83319 6.7221017 -1.1154191 2 5
12.107038 7.5066853 2.7690203 114 13
11.897057 7.3736172 -0.73354083 15 6
12.158941 7.530057 3.3018315 63 14
11.994945 7.4226937 -0.24621855 11 7
12.179051 7.5336909 3.8372514 73 15
3.888938 2.3906219 -1.2231789 4 0
12.065907 7.414289 0.24719588 13 8
4.5818286 2.8132539 -1.2412798 4 1
12.092123 7.4187746 0.74348468 14 9
5.6165709 3.4445403 -1.2807101 6 2
12.039334 7.3777142 1.2353455 55 10
7.8521342 4.8080249 -1.4582822 1 3
12.149773 7.4366441 1.7490689 13 11
10.743399 6.5706749 -1.5462784 11 4
12.129188 7.4124017 2.2514052 9 12
11.8881 7.2622256 -1.2187859 14 5
12.125638 7.401516 2.7613881 108 13
11.915415 7.2674947 -0.7314474 15 6
12.174613 7.4226642 3.2919338 62 14
12.060131 7.3471007 -0.24649779 11 7
12.211198 7.4332881 3.8305221 75 15
3.9022284 2.3614116 -1.2221435 4 0
12.11181 7.3236189 0.24705628 11 8
4.6080294 2.7852285 -1.2430795 4 1
12.078655 7.2949381 0.73950714 9 9
5.6377139 3.4022322 -1.2799468 6 2
12.059838 7.2749596 1.2322079 56 10
7.9193425 4.7734885 -1.4645396 1 3
12.655007 7.621944 1.8139035 8 11
10.950021 6.5898457 -1.5691898 11 4
12.140011 7.3031101 2.2438962 9 12
11.91244 7.1605477 -1.2159969 10 5
12.151357 7.2983947 2.7552819 108 13
11.924764 7.1594586 -0.72893524 15 6
12.183962 7.3093009 3.2802362 63 14
12.069517 7.2349091 -0.24562517 10 7
12.229654 7.327992 3.8201692 79 15
3.9223452 2.3354061 -1.2231789 6 0
12.145456 7.228663 0.24670722 12 8
4.6311908 2.7541769 -1.2439793 5 1
12.178623 7.2368875 0.74243796 13 9
5.6613288 3.3627906 -1.2799468 5 2
12.072181 7.1650863 1.2281988 50 10
7.9838815 4.7348347 -1.4701713 1 3
12.689126 7.5222745 1.8112223 7 11
10.879617 6.4444504 -1.5526155 10 4
12.159662 7.1969342 2.2379518 9 12
11.910694 7.0467787 -1.2107675 21 5
12.185116 7.2033882 2.751466 108 13
11.941298 7.0536275 -0.72684181 15 6
12.211204 7.2101851 3.2739377 62 14
12.085286 7.1301489 -0.24492706 11 7
12.238506 7.2147889 3.8067107 79 15
3.9368882 2.3069875 -1.2226613 5 0
12.145102 7.1112542 0.24566007 11 8
4.660398 2.7276819 -1.2466787 5 1
12.15471 7.1083379 0.73793703 13 9
5.6988082 3.3301172 -1.2829998 5 2
12.084057 7.0585294 1.2243638 51 10
8.0303898 4.6869469 -1.4726743 1 3
12.747774 7.4342813 1.8119535 7 11
10.922027 6.364429 -1.5521282 17 4
12.177178 7.092978 2.2320073 9 12
11.938433 6.9483337 -1.2085016 11 5
12.195619 7.0923214 2.7423069 118 13
11.971257 6.9590492 -0.72569048 16 6
12.238895 7.1089168 3.2676392 62 14
12.123893 7.0364599 -0.24468274 11 7
12.251815 7.1078444 3.7953227 75 15
3.9532948 2.2787585 -1.2226613 6 0
12.168462 7.0113173 0.2451365 12 8
4.6696644 2.6884291 -1.2439793 4 1
12.16891 7.0002646 0.73573893 9 9
5.7236209 3.2912269 -1.2833813 6 2
12.108347 6.9569826 1.2217492 56 10
8.084281 4.6411648 -1.4764287 1 3
12.782146 7.3352232 1.8095162 8 11
11.112566 6.3719611 -1.5728458 13 4
12.213911 6.9978023 2.2295043 7 12
11.957255 6.8479915 -1.2055383 10 5
12.203939 6.9836054 2.7331481 118 13
11.987804 6.8543701 -0.72370172 15 6
12.254389 7.0039597 3.258641 65 14
12.148411 6.9377642 -0.24419408 11 7
12.277192 7.0056353 3.7875581 66 15
3.9859114 2.2606344 -1.2278377 6 0
12.193967 6.9102597 0.24464783 12 8
4.6984916 2.6615286 -1.2466787 4 1
12.22096 6.9171066 0.73594826 11 9
5.75386 3.2540538 -1.2849078 4 2
12.139274 6.8624821 1.2200061 55 10
8.137126 4.5962715 -1.4801831 1 3
12.186024 6.8776822 1.7181141 5 11
11.151595 6.2912936 -1.5721147 11 4
12.233212 6.8958721 2.2241855 8 12
11.990329 6.7534518 -1.2039695 11 5
12.23529 6.8886037 2.729332 120 13
12.010991 6.7568092 -0.72223622 15 6
12.270218 6.8969927 3.2496431 69 14
12.118094 6.8087101 -0.24262336 10 7
12.303906 6.9074531 3.7808287 70 15
3.9948475 2.228987 -1.225767 3 0
12.208726 6.8064604 0.24398464 12 8
4.708447 2.6239188 -1.2444292 3 1
12.220095 6.8044138 0.73301744 11 9
5.7781549 3.214757 -1.2852895 5 2
12.159027 6.7620726 1.2172171 55 10
8.2242708 4.5700507 -1.4901948 1 3
12.245888 6.7991905 1.7198203 7 11
11.33063 6.2884254 -1.5911263 11 4
12.30524 6.8237181 2.2285657 10 12
12.011043 6.6550941 -1.2013547 10 5
12.2556 6.7878041 2.7232261 121 13
12.02991 6.6573186 -0.7205615 15 6
12.283961 6.7923031 3.2406449 66 14
12.112833 6.6949186 -0.24157622 9 7
12.324773 6.8064451 3.7725468 72 15
4.0018444 2.1963959 -1.2231789 4 0
12.192823 6.6864524 0.24272807 26 8
4.7317767 2.5937939 -1.2457789 4 1
12.20073 6.6824827 0.72903991 19 9
5.7883992 3.1677444 -1.282618 4 2
12.172731 6.6588492 1.2139051 52 10
8.3426409 4.5598974 -1.5058383 1 3
12.298285 6.7163877 1.7205516 10 11
11.151227 6.0874262 -1.5599277 10 4
12.335237 6.7281861 2.2254369 12 12
12.018726 6.5500984 -1.1975199 10 5
12.275105 6.6870518 2.7171202 118 13
12.062063 6.5655274 -0.71972418 15 6
12.307111 6.6933498 3.2343462 63 14
12.222523 6.6445746 -0.24283278 11 7
12.331244 6.6981115 3.7601233 77 15
4.0170794 2.1684062 -1.2231789 4 0
12.293769 6.6305885 0.24381012 11 8
4.7497683 2.560699 -1.2457789 4 1
12.324458 6.638813 0.7336455 14 9
5.82939 3.1374917 -1.286816 5 2
12.185581 6.5557752 1.2105932 49 10
8.4160309 4.5239911 -1.5133473 1 3
12.288912 6.6003089 1.7127519 8 11
11.468043 6.1568465 -1.5981947 15 4
12.354054 6.6269655 2.2204311 15 12
12.032549 6.4490957 -1.1943823 10 5
12.290343 6.5844975 2.7102511 114 13
12.068863 6.4604268 -0.71742135 15 6
12.336356 6.5980763 3.2298472 60 14
12.272137 6.5609746 -0.24290259 11 7
12.348737 6.5963855 3.7513232 78 15
4.0252943 2.1366858 -1.2211083 4 0
12.336227 6.5427265 0.24374031 16 8
4.7675309 2.5274746 -1.2457789 4 1
12.3405 6.5367169 0.73186606 16 9
5.847682 3.0948815 -1.2860527 5 2
12.197591 6.4528422 1.2072812 54 10
8.4439154 4.4632792 -1.5127214 1 3
12.353999 6.5245523 1.715433 8 11
11.535323 6.0896087 -1.601607 13 4
12.380799 6.5304189 2.2169895 12 12
12.064941 6.3584332 -1.1931621 12 5
12.304744 6.4820695 2.703382 120 13
12.080091 6.3583379 -0.71543258 15 6
12.361421 6.5009065 3.2244484 62 14
12.287552 6.4593215 -0.24230921 11 7
12.368834 6.4965401 3.7435589 77 15
4.0572405 2.1174681 -1.2262847 4 0
12.324863 6.426857 0.24262336 15 8
4.7850599 2.4941294 -1.2457789 4 1
12.361034 6.437489 0.73040068 16 9
5.8708858 3.0548906 -1.2864343 4 2
12.226436 6.3592558 1.2057126 50 10
8.4994078 4.4169784 -1.5171016 1 3
12.286495 6.379601 1.6998338 12 11
11.528222 5.9833241 -1.5947824 13 4
12.376988 6.4183631 2.2082293 8 12
12.077195 6.2575502 -1.1900245 12 5
12.332264 6.3869801 2.6995659 121 13
12.101127 6.2619162 -0.71407187 16 6
12.361497 6.3911791 3.2127509 66 14
12.30037 6.3568554 -0.24168092 11 7
12.389855 6.3976226 3.7363119 77 15
4.0753622 2.0908554 -1.22732 4 0
12.374767 6.343399 0.24272807 16 8
4.8110275 2.465106 -1.2480285 4 1
12.339893 6.3173666 0.72652781 14 9
5.8973145 3.0165091 -1.2875792 5 2
12.249242 6.2628655 1.2036208 56 10
8.5511484 4.3683128 -1.520856 1 3
12.389081 6.3234506 1.7078772 8 11
11.668004 5.9502831 -1.608188 11 4
12.430294 6.3362842 2.2097936 6 12
12.101055 6.1631432 -1.1881071 15 5
12.349658 6.2843232 2.69346 121 13
12.126742 6.1682315 -0.71302515 15 6
12.381493 6.2923636 3.2064524 69 14
12.315233 6.2532821 -0.24108756 11 7
12.41699 6.3022251 3.7311354 72 15
4.0764189 2.0546832 -1.2231789 4 0
12.361604 6.2280602 0.24161112 16 8
4.8285446 2.4306161 -1.2480285 3 1
12.36694 6.2199283 0.72548109 14 9
5.9182296 2.9752645 -1.2875792 5 2
12.259916 6.1580601 1.2003088 54 10
8.6174984 4.3247309 -1.5271133 1 3
12.379692 6.2101073 1.700565 13 11
10.94438 5.4853158 -1.5031366 6 4
12.434693 6.22683 2.2025976 7 12
12.113501 6.0633445 -1.1851437 11 5
12.368646 6.185658 2.6881173 118 13
12.147345 6.0696917 -0.71166438 16 6
12.407685 6.197063 3.2019532 65 14
12.335325 6.1555514 -0.24063379 12 7
12.430652 6.1976948 3.7218182 74 15
4.099318 2.0304635 -1.225767 3 0
12.382555 6.127913 0.24115735 15 8
4.8506346 2.3994415 -1.2493782 4 1
12.365299 6.1113157 0.72286427 13 9
5.9428897 2.934577 -1.2883424 6 2
12.277596 6.0599742 1.1978685 52 10
8.6687412 4.2749481 -1.5308678 1 3
12.43984 6.1292586 1.7027587 13 11
10.967321 5.3989739 -1.5009429 8 4
12.458363 6.13028 2.199156 6 12
12.12976 5.9633222 -1.1825291 21 5
12.38616 6.0840087 2.6823931 119 13
12.176876 5.9785719 -0.71093172 15 6
12.430718 6.0978189 3.1965547 65 14
12.359306 6.0574436 -0.24024983 11 7
12.444123 6.096313 3.7130182 78 15
4.108531 1.9985422 -1.2242141 4 0
11.842361 5.7580023 0.22984821 52 8
4.8641744 2.3629665 -1.2484783 4 1
11.885845 5.7688966 0.69240475 50 9
5.9685302 2.8955901 -1.2894872 6 2
11.911871 5.7738242 1.1581255 36 10
8.6884422 4.2076406 -1.5289906 1 3
11.971313 5.7948976 1.6330494 67 11
11.017257 5.3283205 -1.5026492 13 4
11.765632 5.6826606 -1.1431347 56 5
12.214384 5.8941531 2.6362174 60 13
11.796559 5.6874528 -0.68633378 56 6
12.067458 5.815465 3.0926273 50 14
11.828344 5.6951466 -0.2291501 57 7
12.130546 5.8354292 3.6069024 47 15
4.1433005 1.9798055 -1.2304258 6 0
11.86882 5.6662259 0.22956894 77 8
4.8805523 2.3289506 -1.2484783 4 1
11.889772 5.6685863 0.69031131 91 9
6.0103669 2.8629375 -1.2940667 6 2
11.917711 5.6742501 1.1548136 65 10
8.7532797 4.1638565 -1.5352479 1 3
11.940758 5.6750007 1.6232998 121 11
11.082873 5.2649097 -1.5065489 12 4
11.986992 5.6892829 2.1015408 62 12
12.005092 5.6901741 2.5824091 113 13
12.029495 5.6914597 3.0723815 73 14
12.053958 5.6953115 3.5722208 77 15
4.1552725 1.9500109 -1.2299082 5 0
4.8966923 2.2948213 -1.2484783 5 1
6.0142031 2.8134203 -1.2906321 5 2
8.782136 4.1026459 -1.5352479 1 3
10.959253 5.1127152 -1.4848562 11 4
11.853819 5.5199757 -1.1440063 44 5
11.867577 5.5188227 -0.68591511 39 6
11.908525 5.5302773 -0.22918501 37 7
4.1617661 1.9177222 -1.2278377 5 0
11.903184 5.479888 0.22873124 52 8
4.9161339 2.2622116 -1.2493782 5 1
11.931468 5.4853401 0.68821788 69 9
6.0390501 2.773823 -1.291777 6 2
11.945074 5.4840217 1.1499329 45 10
8.8536568 4.0610008 -1.5427569 1 3
11.095746 5.0823741 -1.4985056 11 4
11.815964 5.4022913 -1.1366851 51 5
12.047661 5.5056748 2.5747766 59 13
11.862211 5.4159288 -0.68340296 84 6
12.072329 5.5067706 3.0633836 55 14
11.87224 5.4129982 -0.22775389 78 7
4.1715336 1.8870264 -1.2268023 6 0
11.933861 5.3933601 0.22859162 70 8
4.9424644 2.2326465 -1.2520776 5 1
11.96401 5.3994441 0.68790388 87 9
6.0636353 2.7340188 -1.2929219 4 2
11.979437 5.3988585 1.1495842 58 10
8.8745842 3.9958515 -1.5415053 1 3
12.009918 5.4025121 1.6169626 68 11
11.290279 5.0764289 -1.5199546 10 4
12.042246 5.4094748 2.0909033 51 12
12.004261 5.3873777 -1.151153 21 5
12.073262 5.4158134 2.5721054 109 13
12.010911 5.3828087 -0.68978798 18 6
12.090916 5.41359 3.0584345 74 14
12.044809 5.3904295 -0.23033686 24 7
12.100046 5.4100747 3.5515151 85 15
4.1951995 1.862561 -1.2299082 5 0
12.245413 5.4315405 0.23382734 19 8
4.9436779 2.1917686 -1.2484783 4 1
12.262548 5.4314599 0.70287192 22 9
6.0915523 2.6955893 -1.2948298 6 2
12.288329 5.435184 1.1755567 16 10
8.9203358 3.9417779 -1.5446341 1 3
12.330639 5.4436026 1.6549859 31 11
11.401725 5.0311375 -1.5301917 10 4
12.414111 5.4726882 2.1487842 24 12
12.265853 5.4022236 -1.1725934 27 5
12.427023 5.4706111 2.6392701 36 13
12.287696 5.4041643 -0.70349997 20 6
12.415655 5.4552631 3.1308687 24 14
12.318333 5.4099436 -0.23483957 10 7
12.431183 5.4543228 3.6374431 27 15
4.2151837 1.8363159 -1.2319787 3 0
12.44072 5.4145479 0.23682916 19 8
4.9552846 2.1556494 -1.2475786 4 1
12.437551 5.4054255 0.71072239 17 9
6.1120234 2.6537783 -1.2952114 5 2
