# .PCD v0.7 - Point Cloud Data file format
VERSION 0.7
FIELDS x y z intensity ring
SIZE 4 4 4 4 2
TYPE F F F F U
COUNT 1 1 1 1 1
WIDTH 102
HEIGHT 1
VIEWPOINT 0 0 0 1 0 0 0
POINTS 102
DATA ascii
3.8442531 0.73054916 -0.34234774 52 5
3.8402953 0.727714 -0.20484295 37 6
3.8708184 0.70763659 -0.34426519 11 5
3.8727901 0.7059018 -0.20630836 21 6
3.8678148 0.67921746 -0.34356794 11 5
3.8736897 0.67815673 -0.20609902 9 6
3.8901451 0.65517473 -0.34513673 9 5
3.8921175 0.65341145 -0.20683172 9 6
3.9112749 0.63348889 -0.48650244 70 4
3.9064257 0.62990528 -0.34618258 9 5
3.9084158 0.62812686 -0.20745975 10 6
3.9116788 0.60556024 -0.48601499 8 4
3.9146664 0.60322475 -0.34653121 76 5
3.9284987 0.6032508 -0.20829713 44 6
3.9472318 0.58287662 -0.48991477 7 4
3.9404657 0.57906705 -0.34844866 10 5
3.9543526 0.57899284 -0.20944853 47 6
3.9515643 0.57647151 -0.069704913 48 7
3.9511368 0.55740571 -0.63199526 1 3
3.9630961 0.5562734 -0.4913772 6 4
3.9444122 0.55154514 -0.34844866 8 5
3.9833188 0.55202299 -0.070193581 18 7
3.945235 0.52780807 -0.630431 79 3
3.9688516 0.52885258 -0.49162099 8 4
3.9679172 0.52661389 -0.35019177 6 5
3.9661021 0.52355772 -0.20965785 8 6
3.9791451 0.52316004 -0.070053965 9 7
3.9605818 0.50174189 -0.63230819 10 3
3.9843509 0.5019272 -0.49308339 64 4
3.9834459 0.49969468 -0.35123762 57 5
3.9927089 0.49590486 -0.070228487 22 7
3.9934924 0.47690129 -0.63700122 7 3
3.9967299 0.47304365 -0.35210916 51 5
4.0127788 0.47210479 -0.2117513 80 6
4.0168328 0.45340058 -0.78575146 21 2
3.9967244 0.44901174 -0.63700122 7 3
4.0245085 0.4499996 -0.49722698 6 4
4.0079336 0.4453117 -0.35280645 6 5
4.0298734 0.44561356 -0.21248402 51 6
4.0270715 0.44316962 -0.070717148 84 7
4.0484033 0.43193522 0.071066193 7 8
4.0296626 0.42637971 -0.78765959 92 2
4.0056553 0.42171887 -0.63793981 45 3
4.035449 0.42271948 -0.49820194 7 4
4.0347247 0.41979629 -0.35489815 6 5
4.0209665 0.41623691 -0.21185598 7 6
4.0439911 0.41648045 -0.070961483 33 7
4.0453501 0.40306669 0.070961483 33 8
4.031539 0.40098003 -0.93534642 6 1
4.0442634 0.3993946 -0.7899493 8 2
4.0281606 0.39567488 -0.64106852 95 3
4.0620098 0.39685267 -0.50112677 81 4
4.0456424 0.39026463 -0.21300736 61 6
4.0826306 0.39167538 -0.071589775 56 7
4.0878897 0.37850237 0.071659587 53 8
4.0303593 0.37246618 -0.93444669 6 1
4.0410876 0.37061462 -0.78880447 7 2
4.0547967 0.36758873 -0.49990809 60 4
4.0620213 0.36538491 -0.35681561 58 5
4.0781083 0.3646796 -0.21457745 75 6
4.0872569 0.36334074 -0.071624674 95 7
4.0553145 0.34338543 -0.79109418 7 2
4.0746298 0.34287241 -0.6476388 7 3
4.0763865 0.33800751 -0.35786149 52 5
4.1044407 0.33817008 -0.2158335 76 6
4.0877595 0.33392093 -0.071589775 87 7
4.0752287 0.31643346 -0.79452866 75 2
4.0927353 0.31491867 -0.65014172 68 3
4.1051126 0.31370908 -0.50551409 10 4
4.1087475 0.3089405 -0.21593818 25 6
4.1019559 0.30627015 -0.071799204 87 7
4.0930562 0.28836754 -0.79758167 78 2
4.0908933 0.28606272 -0.64951599 74 3
4.132947 0.28682905 -0.50868267 64 4
4.1364126 0.28417018 -0.36274219 105 5
4.1227598 0.28106159 -0.21656621 70 6
4.1199551 0.27870339 -0.072078437 66 7
4.108562 0.25849018 -0.6520189 54 3
4.1289043 0.25759977 -0.5079515 66 4
4.1243758 0.25442499 -0.36152202 69 5
4.1445565 0.25349176 -0.21761292 84 6
4.1464586 0.22964647 -0.50990134 35 4
4.1478953 0.22754773 -0.36343944 66 5
4.1482201 0.22465916 -0.2177176 73 6
4.1472492 0.20355876 -0.65765053 64 3
4.1658058 0.20155656 -0.51209503 42 4
4.1772447 0.19991788 -0.36587983 17 5
4.1835685 0.19802517 -0.21949703 80 6
4.1663322 0.17535013 -0.66046637 69 3
4.1928954 0.17353399 -0.51526362 66 4
4.1725664 0.17050432 -0.36535689 65 5
4.1714287 0.14566992 -0.66109216 70 3
4.2178121 0.14507873 -0.51818854 59 4
4.1975498 0.14218149 -0.3674486 69 5
4.1861663 0.11693042 -0.66328222 42 3
4.2127891 0.11473092 -0.51745731 57 4
4.2183766 0.11267287 -0.36919171 71 5
4.2273803 0.085598618 -0.51916343 59 4
4.2409725 0.083652526 -0.37110916 63 5
4.2477241 0.056347165 -0.52160084 59 4
4.2619095 0.026780423 -0.52330703 56 4
4.2818432 -0.0029892907 -0.52574438 56 4
