# .PCD v0.7 - Point Cloud Data file format
VERSION 0.7
FIELDS x y z intensity ring
SIZE 4 4 4 4 2
TYPE F F F F U
COUNT 1 1 1 1 1
WIDTH 86
HEIGHT 1
VIEWPOINT 0 0 0 1 0 0 0
POINTS 86
DATA ascii
4.63482 -0.21127655 -0.24315289 67 6
4.612114 -0.24009632 -0.40405402 14 5
4.6192708 -0.24289414 -0.24242018 6 6
4.5924249 -0.27123159 -0.40248519 5 5
4.5795813 -0.27287939 -0.24043141 7 6
4.5625868 -0.30144703 -0.40004486 31 5
4.5616217 -0.30378225 -0.23959403 7 6
4.5577588 -0.32990262 -0.56108648 42 4
4.5305648 -0.3311139 -0.39743021 38 5
4.5474391 -0.334741 -0.23896599 51 6
4.5341005 -0.36321217 -0.39795309 5 5
4.5131388 -0.36391136 -0.23729126 7 6
4.5164595 -0.36655936 -0.079094306 6 7
4.4894214 -0.38803661 -0.55328691 20 4
4.5056515 -0.3926087 -0.39568707 5 5
4.4985499 -0.39436328 -0.23666322 8 6
4.5436697 -0.40071616 -0.07961788 22 7
4.4766636 -0.41607553 -0.71208972 10 3
4.4866028 -0.41936895 -0.55328691 64 4
4.4849477 -0.42237291 -0.39411828 6 5
4.4817686 -0.4244411 -0.23593052 10 6
4.4850221 -0.42711875 -0.078640543 14 7
4.4697185 -0.44692513 -0.71146405 5 3
4.4835658 -0.45068085 -0.55328691 6 4
4.4640498 -0.45186734 -0.39254946 6 5
4.4608135 -0.4538995 -0.23498847 51 6
4.4429197 -0.47559541 -0.70770961 6 3
4.4743891 -0.48133385 -0.55255568 6 4
4.4449401 -0.48130518 -0.39115497 8 5
4.4595213 -0.48524657 -0.23509313 13 6
4.4686823 -0.48861101 -0.078466021 85 7
4.4100518 -0.5032416 -0.70301658 76 3
4.4511986 -0.51029813 -0.55011827 6 4
4.435534 -0.51163977 -0.39063203 7 5
4.4242811 -0.51268929 -0.23341838 8 6
4.4413266 -0.51702142 -0.078047164 56 7
4.4435587 -0.53222215 0.078116976 22 8
4.3972092 -0.53056341 -0.8609302 28 2
4.4044695 -0.53377938 -0.70270365 34 3
4.4100866 -0.53680331 -0.54548723 23 4
4.4199877 -0.5411402 -0.38958618 61 5
4.4356246 -0.54776978 -0.078012258 82 7
4.4456868 -0.56398594 0.078221686 46 8
4.3953457 -0.56149733 -0.86131191 7 2
4.3869209 -0.56275576 -0.7005136 5 3
4.3924503 -0.56580293 -0.5437811 6 4
4.3983192 -0.56968081 -0.38801736 48 5
4.3968859 -0.57183611 -0.23237166 74 6
4.3979836 -0.57432079 -0.077418879 76 7
4.354351 -0.58718365 -0.85406113 65 2
4.3691826 -0.59151316 -0.69832355 6 3
4.3844585 -0.59591919 -0.5432936 7 4
4.3587022 -0.59551793 -0.38487977 6 5
4.3828936 -0.60116106 -0.23184831 72 6
4.3760381 -0.60255527 -0.077104732 84 7
4.3404264 -0.61618853 -0.852153 23 2
4.3493013 -0.61977166 -0.69582063 10 3
4.3684011 -0.62482727 -0.54183114 7 4
4.3504944 -0.62536561 -0.38453114 8 5
4.3578711 -0.63108468 -0.076860398 87 7
4.3214254 -0.64661241 -0.69206619 6 3
4.3462644 -0.6526559 -0.53963745 55 4
4.299242 -0.67401206 -0.68925035 7 3
4.3337584 -0.68174851 -0.53866255 6 4
4.3157554 -0.68200427 -0.38226506 74 5
4.3219995 -0.68531084 -0.2293362 84 6
4.2827353 -0.70209235 -0.6873731 6 3
4.3190994 -0.71037614 -0.53744388 6 4
4.3089232 -0.71179241 -0.38209078 12 5
4.2934656 -0.71154845 -0.22808012 79 6
4.289412 -0.73397321 -0.68925035 52 3
4.2964268 -0.73748916 -0.53525019 55 4
4.2979584 -0.74084133 -0.38156784 68 5
4.2687125 -0.7381019 -0.22703341 64 6
4.256958 -0.75904626 -0.68487018 88 3
4.267724 -0.76327175 -0.53232533 78 4
4.2456174 -0.7623772 -0.37738436 74 5
4.2243638 -0.78370225 -0.68049002 14 3
4.2602019 -0.79342771 -0.5320816 59 4
4.2264814 -0.78943753 -0.37616417 69 5
4.2228231 -0.81930405 -0.37633851 71 5
4.2174201 -0.8473174 -0.52818179 81 4
4.2188053 -0.84989411 -0.3765128 47 5
4.1861377 -0.87148011 -0.52501315 60 4
4.1760707 -0.89984715 -0.5245257 57 4
4.1561236 -0.92595768 -0.52281958 59 4
