# .PCD v0.7 - Point Cloud Data file format
VERSION 0.7
FIELDS x y z intensity ring
SIZE 4 4 4 4 2
TYPE F F F F U
COUNT 1 1 1 1 1
WIDTH 148
HEIGHT 1
VIEWPOINT 0 0 0 1 0 0 0
POINTS 148
DATA ascii
3.1685557 -0.91216075 -0.40485001 18 4
3.1659179 -0.93538392 -0.40533748 70 4
3.1325479 -0.94994944 -0.40192512 57 4
3.026149 -0.93906516 -0.50184184 50 3
3.1296308 -0.97297406 -0.40241259 39 4
3.0082242 -0.95657694 -0.49996459 62 3
3.0115676 -0.97909874 -0.61554986 1 2
2.9977162 -0.97633135 -0.49933887 60 3
3.1119666 -1.0153443 -0.40192512 7 4
2.9022062 -0.96599817 -0.59456086 75 2
2.9777098 -0.99286163 -0.49714881 63 3
3.099154 -1.0351584 -0.40119389 67 4
3.1948397 -1.0695986 -0.29476073 8 5
2.887958 -0.98370361 -0.59303439 78 2
2.9707057 -1.0136255 -0.49714881 61 3
3.0542836 -1.0439286 -0.39631912 52 4
3.1759856 -1.0880023 -0.29371485 39 5
2.7683821 -0.96242762 -0.67665279 6 1
2.8736045 -1.0012573 -0.59150791 72 2
2.9672868 -1.0356419 -0.49777454 46 3
3.0581646 -1.0691568 -0.39778158 55 4
3.1739533 -1.1121246 -0.29423779 55 5
2.7671041 -0.98368919 -0.67800248 51 1
2.8499 -1.0153642 -0.58807337 70 2
2.9655662 -1.058324 -0.49871314 64 3
3.0394104 -1.0864713 -0.39631912 60 4
3.1417284 -1.1255202 -0.29197174 60 5
2.7638323 -1.0043142 -0.67890227 7 1
2.8445866 -1.0359071 -0.58845496 70 2
2.9358358 -1.0708785 -0.4949587 69 3
3.0410743 -1.1110699 -0.39753783 54 4
3.1337943 -1.147426 -0.29197174 51 5
2.6536922 -0.98373723 -0.75833982 15 0
2.7403119 -1.0174799 -0.67485321 6 1
2.8372853 -1.0557407 -0.58845496 66 2
2.9171824 -1.0872092 -0.49308151 64 3
3.0351031 -1.1329676 -0.39778158 42 4
3.1257074 -1.169276 -0.29197174 52 5
2.6521797 -1.0042917 -0.75989276 38 0
2.7240314 -1.0331306 -0.67260367 23 1
2.9187517 -1.111062 -0.49464583 64 3
3.0030067 -1.1449353 -0.39461297 50 4
2.6360948 -1.0192991 -0.75730455 8 0
2.7203867 -1.0535302 -0.67350346 63 1
2.8224595 -1.0947598 -0.58845496 7 2
2.907439 -1.129473 -0.4940201 63 3
2.9967902 -1.1665924 -0.39485672 57 4
3.1167142 -1.2151561 -0.292669 6 5
2.6165161 -1.032256 -0.75368112 7 0
2.7149651 -1.0727386 -0.67395335 65 1
2.8001449 -1.1086557 -0.58540201 16 2
2.9922624 -1.1889513 -0.3953442 58 4
3.0914941 -1.2302549 -0.29110017 6 5
2.6001029 -1.0473437 -0.75109291 8 0
2.7996182 -1.1311191 -0.58692849 71 2
2.8783641 -1.1652727 -0.49182999 7 3
2.9949269 -1.2142873 -0.3968066 18 4
3.084676 -1.252557 -0.29127449 59 5
2.599875 -1.0684074 -0.75316346 8 0
2.6887164 -1.1065623 -0.67125398 6 1
2.7878222 -1.1496266 -0.58616525 72 2
2.8592041 -1.1808146 -0.4899528 6 3
2.9918799 -1.2374423 -0.39753783 6 4
3.0572281 -1.2669705 -0.28953138 60 5
2.6066062 -1.0925059 -0.75730455 8 0
2.6719413 -1.1215347 -0.66900444 7 1
2.8672752 -1.2076478 -0.49276862 40 3
2.9557326 -1.2467269 -0.39388174 5 4
2.5829282 -1.1038442 -0.75264585 63 0
2.6640465 -1.140161 -0.66900444 7 1
2.7714992 -1.1884387 -0.58616525 7 2
2.8624046 -1.2291943 -0.49339435 68 3
2.950604 -1.2688997 -0.39436921 5 4
3.0614276 -1.318459 -0.29162312 6 5
3.1523428 -1.3602229 -0.17993104 35 6
2.5769298 -1.1226207 -0.75316346 87 0
2.6595941 -1.1602901 -0.66990423 7 1
2.7561493 -1.2041321 -0.58463877 7 2
2.9362192 -1.287077 -0.39363801 7 4
3.033905 -1.331791 -0.28988001 6 5
3.1411824 -1.3808447 -0.17982636 6 6
2.5603998 -1.1362172 -0.75057524 65 0
2.6480732 -1.1767836 -0.66900444 61 1
2.7584372 -1.2281353 -0.58692849 7 2
2.8307519 -1.2621082 -0.49089143 6 3
2.9255779 -1.3062238 -0.39339426 22 4
3.0190773 -1.3504986 -0.28935707 6 5
3.1241748 -1.3994745 -0.17940767 7 6
2.5612066 -1.158044 -0.75316346 56 0
2.6397932 -1.1952418 -0.66900444 73 1
2.7497959 -1.2473629 -0.58692849 7 2
2.8182743 -1.2802056 -0.49026567 6 3
2.9362636 -1.3356576 -0.3960754 6 4
3.0041366 -1.3690639 -0.28883412 10 5
3.1070607 -1.4179342 -0.17898898 6 6
2.5583239 -1.1783208 -0.75471634 22 0
2.7428029 -1.2673528 -0.58731008 92 2
2.8020971 -1.2965314 -0.48901421 6 3
2.9052536 -1.3461093 -0.39315054 6 4
3.0125773 -1.3983918 -0.29057723 73 5
3.0916526 -1.4370654 -0.17867498 11 6
2.6140282 -1.2278399 -0.66675496 6 1
2.7036896 -1.2722596 -0.58082259 72 2
2.7840431 -1.3118521 -0.48744985 7 3
2.8886042 -1.3629705 -0.39217559 6 4
2.9901323 -1.4134291 -0.28935707 8 5
2.6106665 -1.2485816 -0.66810459 7 1
2.7944078 -1.3406553 -0.49089143 64 3
2.8754401 -1.3813841 -0.39168811 6 4
2.9712157 -1.4299495 -0.2884855 6 5
2.6106472 -1.2710422 -0.67035419 10 1
2.7033081 -1.3184915 -0.58463877 7 2
2.7778802 -1.3566637 -0.48963994 62 3
2.8621593 -1.3996805 -0.3912006 35 4
2.9540033 -1.4471512 -0.28778824 6 5
2.5772643 -1.2771232 -0.66405553 59 1
2.6922789 -1.3364588 -0.58425713 7 2
2.8609555 -1.4245498 -0.39241934 67 4
2.9313471 -1.4615158 -0.28656808 17 5
2.5767589 -1.2999215 -0.66630501 80 1
2.6846354 -1.3561069 -0.58463877 57 2
2.7566612 -1.3949063 -0.48932707 6 3
2.847399 -1.4426937 -0.39193183 63 4
2.567621 -1.317879 -0.66630501 69 1
2.6521649 -1.3636128 -0.57967776 72 2
2.7415869 -1.4114047 -0.48838848 6 3
2.558358 -1.3357722 -0.66630501 73 1
2.6356218 -1.3784554 -0.57815129 70 2
2.7404165 -1.435092 -0.4899528 68 3
2.8111558 -1.4740126 -0.3897382 6 4
2.5524125 -1.3554279 -0.6672048 71 1
2.6328673 -1.4005098 -0.57967776 68 2
2.7268441 -1.4523314 -0.48932707 66 3
2.8130579 -1.5001407 -0.39144436 27 4
2.5308847 -1.3667322 -0.66405553 52 1
2.6264794 -1.4207246 -0.580441 70 2
2.6975317 -1.4609846 -0.4858855 61 3
2.5195735 -1.3834298 -0.66360557 46 1
2.6319792 -1.4475412 -0.58387554 56 2
2.6941876 -1.4835925 -0.48713696 66 3
2.6029596 -1.4553413 -0.57967776 68 2
2.6837649 -1.5023652 -0.48713696 61 3
2.5842021 -1.4686276 -0.57776964 72 2
2.6835122 -1.5269262 -0.48901421 45 3
2.5755861 -1.4876148 -0.57815129 70 2
2.5702174 -1.5085406 -0.57929617 75 2
2.5663681 -1.5304697 -0.58082259 80 2
2.5421879 -1.5402101 -0.57776964 70 2
