# .PCD v0.7 - Point Cloud Data file format
VERSION 0.7
FIELDS x y z intensity ring
SIZE 4 4 4 4 2
TYPE F F F F U
COUNT 1 1 1 1 1
WIDTH 1295
HEIGHT 1
VIEWPOINT 0 0 0 1 0 0 0
POINTS 1295
DATA ascii
-4.7107244 3.2789176 1.5379028 10 15
-3.1147025 2.1801267 -1.0187118 12 0
-4.8349462 3.3867235 0.10303901 24 8
-3.309948 2.3193712 -0.933097 47 1
-4.8845181 3.4252603 0.31265503 26 9
-4.960506 3.4824224 0.5302555 30 10
-4.5516481 3.1977646 -0.88103902 10 3
-5.0584593 3.5564644 0.75924611 11 11
-3.2766356 2.3045664 -0.49186471 31 4
-4.9785414 3.5041726 0.96426219 32 12
-4.631454 3.2610805 -0.49556756 10 5
-4.8498735 3.417408 1.1532496 26 13
-4.6845603 3.3033698 -0.30040842 32 6
-4.4810228 3.1610136 1.2660246 11 14
-4.7767587 3.3721302 -0.10206167 33 7
-5.9720683 4.2190752 1.9592602 29 15
-3.0962558 2.1995814 -1.0176765 11 0
-4.8378625 3.4380884 0.10359748 24 8
-3.3841946 2.4068 -0.95874137 23 1
-4.8936386 3.4815853 0.31474847 33 9
-4.0734434 2.9001985 -0.97198111 11 2
-4.970149 3.5412474 0.53391606 36 10
-4.5555134 3.2470171 -0.88604486 10 3
-5.0616083 3.6104097 0.76338965 10 11
-3.2911651 2.3492987 -0.49649575 28 4
-4.9561825 3.5391266 0.96457505 23 12
-4.6296477 3.3083944 -0.49783361 12 5
-4.7316799 3.3838031 1.1307341 15 13
-4.7123222 3.3712041 -0.30365324 22 6
-4.4493389 3.1854124 1.2633251 11 14
-4.7921143 3.4333475 -0.10289939 33 7
-4.5645752 3.2715297 1.504774 37 15
-3.090616 2.2273824 -1.0207824 13 0
-4.8413143 3.4916646 0.10419086 25 8
-3.4973226 2.5232768 -0.99563336 13 1
-4.9226494 3.5542467 0.31820264 17 9
-4.0562801 2.9308643 -0.97274429 11 2
-4.9766097 3.5971725 0.53722799 30 10
-4.5487404 3.2903183 -0.88917363 10 3
-4.8417106 3.5048137 0.73389727 9 11
-3.292784 2.3844526 -0.49917686 30 4
-4.734611 3.4310658 0.92609209 17 12
-4.6419215 3.3663678 -0.50166845 14 5
-4.4924183 3.2591431 1.0788342 31 13
-4.7306943 3.4345276 -0.3063747 23 6
-4.4317207 3.2198346 1.2646748 9 14
-4.7815742 3.4752913 -0.10317863 29 7
-4.5135021 3.2828639 1.4954566 37 15
-3.0781095 2.2511854 -1.0218177 13 0
-4.8636169 3.5596285 0.10520311 28 8
-3.465471 2.5372696 -0.99158418 16 1
-4.9412165 3.6203973 0.3210288 26 9
-4.0499682 2.9695601 -0.97617888 12 2
-4.989933 3.6601086 0.54141146 24 10
-4.5702457 3.3547239 -0.89793396 10 3
-5.081099 3.7324367 0.77411413 12 11
-3.2984512 2.4238398 -0.50258923 30 4
-4.6723495 3.4359496 0.91858327 6 12
-4.6487966 3.4211285 -0.50498033 14 5
-4.7067099 3.4650159 1.1360768 13 13
-4.7323303 3.4864237 -0.30804947 19 6
-4.4342313 3.269197 1.2718732 5 14
-4.7748985 3.5216446 -0.10356259 28 7
-4.597723 3.3934507 1.5311736 21 15
-3.0607667 2.2714686 -1.0213 11 0
-4.8659391 3.6137648 0.10579649 42 8
-3.4539306 2.5660501 -0.99338388 12 1
-4.9446716 3.676255 0.32291287 26 9
-4.0244141 2.9942453 -0.975034 11 2
-5.0026178 3.7234054 0.54559493 24 10
-4.5752311 3.4077871 -0.90356559 10 3
-5.08675 3.7915454 0.7789889 13 11
-3.3037295 2.4634204 -0.50600159 29 4
-4.611835 3.4413126 0.91138726 20 12
-4.6828804 3.4955983 -0.51125556 10 5
-5.0095592 3.7421775 1.2154534 19 13
-4.7430673 3.5456862 -0.31035227 17 6
-4.6615753 3.4860351 1.3438576 15 14
-4.764605 3.5656769 -0.10387672 29 7
-8.1396618 6.0958934 2.7248471 14 15
-3.0463777 2.2939436 -1.0218177 12 0
-4.8651876 3.6648488 0.10632006 39 8
-3.4499366 2.6006577 -0.99743295 15 1
-4.9578066 3.7386873 0.32542503 26 9
-3.9976711 3.016839 -0.97350752 12 2
-5.0289693 3.7978632 0.5513472 21 10
-4.5929089 3.46981 -0.91170013 12 3
-4.5446072 3.4358122 0.69953007 15 11
-3.3149457 2.5079842 -0.51038885 28 4
-5.0561128 3.8266819 1.0043093 19 12
-4.6948915 3.5558743 -0.51526475 11 5
-4.3011384 3.2600107 1.0490679 5 13
-4.772934 3.6189172 -0.31391108 21 6
-4.6945648 3.5620778 1.360504 6 14
-4.7953382 3.6411774 -0.1050984 24 7
-4.5012703 3.4191272 1.5146091 36 15
-3.0276227 2.3122807 -1.0207824 11 0
-4.8633142 3.7169404 0.10684364 27 8
-3.44454 2.6335487 -1.0010322 14 1
-4.9664803 3.7999091 0.32772776 24 9
-3.9952176 3.0589967 -0.97808701 12 2
-5.0551987 3.8719862 0.55709946 21 10
-4.5967932 3.5234208 -0.91733181 9 3
-5.1316462 3.9362257 0.7941007 13 11
-3.3245709 2.5510328 -0.51453239 24 4
-4.2114305 3.2338781 0.8409918 9 12
-4.7006006 3.6108091 -0.51857668 11 5
-4.3006401 3.3059633 1.0544106 16 13
-4.7934623 3.6874652 -0.31694657 26 6
-4.735074 3.6438663 1.3793999 2 14
-4.8338161 3.722538 -0.10649458 26 7
-4.9929605 3.847873 1.6890532 16 15
-3.0175145 2.338094 -1.0228529 11 0
-4.8948002 3.7940595 0.10810021 33 8
-3.4214516 2.653949 -0.99968249 12 1
-4.9909949 3.8728068 0.33107728 42 9
-3.9836071 3.0933449 -0.9803766 12 2
-5.0610828 3.9328554 0.56076008 18 10
-4.6070142 3.5813005 -0.92421496 9 3
-4.2398434 3.2982504 0.65955693 4 11
-3.3474069 2.6058853 -0.52086961 27 4
-4.8641624 3.7880087 0.97646403 18 12
-4.7239947 3.6815035 -0.52398032 16 5
-6.492815 5.0636244 1.6005059 23 13
-4.801321 3.7458076 -0.3191447 29 6
-8.5880384 6.7048836 2.5154026 15 14
-4.8471045 3.7869723 -0.10736721 44 7
-4.452179 3.4796741 1.5140915 9 15
-3.0015302 2.3585789 -1.0228529 12 0
-4.9247818 3.8726382 0.10935678 29 8
-3.3987119 2.6735618 -0.9983328 15 1
-5.0030704 3.9384413 0.3336941 21 9
-3.961915 3.1210794 -0.9803766 11 2
-5.084271 4.0066767 0.566338 24 10
-4.6129227 3.6378396 -0.93047231 9 3
-5.1205177 4.0410404 0.80092543 17 11
-3.3545215 2.6482899 -0.52476943 27 4
-4.9274983 3.8929007 0.99461043 16 12
-4.7300901 3.7382803 -0.5274666 18 5
-4.9460487 3.9117639 1.225757 10 13
-4.7797508 3.782954 -0.31945869 18 6
-5.2023244 4.1188784 1.5319167 8 14
-4.8556967 3.847198 -0.1081351 40 7
-9.0629435 7.1857719 3.0990994 3 15
-2.9970753 2.3891101 -1.026994 15 0
-4.9467754 3.9447181 0.11043882 30 8
-3.3906267 2.7057331 -1.0014821 12 1
-5.0167298 4.0048013 0.33641556 21 9
-3.9436467 3.1504261 -0.9811399 11 2
-5.0981936 4.0756645 0.57104445 22 10
-4.634335 3.7061667 -0.93985838 10 3
-3.9847317 3.1889474 0.62665224 6 11
-4.6669221 3.7375734 -0.73414099 12 4
-4.9795113 3.9893401 1.0105668 28 12
-4.7645006 3.8198166 -0.53426468 20 5
-4.635325 3.7189102 1.1551577 22 13
-4.8099651 3.8604057 -0.3232269 26 6
-5.2038307 4.1795011 1.5409148 8 14
-4.8458662 3.8947828 -0.10851907 28 7
-8.5741959 6.8938274 2.9479489 13 15
-2.9698086 2.4014719 -1.0233705 15 0
-4.9355206 3.9938526 0.11082278 29 8
-3.3837726 2.7391465 -1.0050814 12 1
-5.04071 4.0833416 0.3399744 23 9
-3.9210014 3.1785655 -0.9811399 11 2
-5.0990191 4.1349998 0.57435632 17 10
-4.6383729 3.7641294 -0.94611579 10 3
-3.9556463 3.2123742 0.62567729 1 11
-4.6853976 3.8063612 -0.74120939 19 4
-5.0274749 4.0871749 1.0262102 23 12
-4.7787747 3.8877609 -0.53897113 21 5
-4.6427484 3.7784436 1.1635534 23 13
-4.8162889 3.9224727 -0.32552966 19 6
-8.684413 7.077786 2.5864871 29 14
-4.8635035 3.9651639 -0.10953131 26 7
-9.4077959 7.6755433 3.2533555 33 15
-2.9529707 2.4221463 -1.0233705 14 0
-4.9291577 4.0459738 0.11131145 27 8
-3.363061 2.7614658 -1.0046314 10 1
-5.0429425 4.1437931 0.34206784 19 9
-3.9108477 3.215836 -0.98419291 11 2
-3.8282928 3.1490741 0.43368697 5 10
-4.6302838 3.8114841 -0.94987023 11 3
-4.9642849 4.0893312 0.78971344 34 11
-4.7016063 3.8743253 -0.74803412 18 4
-4.6924887 3.8695645 0.96332359 11 12
-4.7653465 3.9324408 -0.54053992 26 5
-4.7373786 3.9107511 1.1940827 11 13
-4.8549995 4.0106983 -0.33003056 23 6
-8.6047497 7.1134095 2.5774891 9 14
-4.8927207 4.0461717 -0.11082278 26 7
-8.7006149 7.2003345 3.0261123 4 15
-2.9508398 2.4550588 -1.0285469 13 0
-4.9376736 4.1109953 0.11214916 28 8
-3.3392084 2.7811358 -1.0032817 12 1
-5.0599174 4.2172599 0.34520799 9 9
-3.8943315 3.2480917 -0.98571932 10 2
-3.7878578 3.1604061 0.43159524 16 10
-4.6005282 3.8411853 -0.94924444 10 3
-5.2006774 4.345356 0.83212399 12 11
-4.7140436 3.9401548 -0.75437129 17 4
-4.5244451 3.7843637 0.93422669 23 12
-4.7812548 4.0005865 -0.54542065 17 5
-4.7521086 3.9790196 1.2047681 15 13
-4.8529067 4.0662999 -0.33181 22 6
-4.2683582 3.5777707 1.2858201 15 14
-4.921042 4.1277785 -0.11211426 27 7
-8.0079603 6.7218585 2.8014574 1 15
-2.930676 2.4731071 -1.0275117 13 0
-4.9966745 4.2180347 0.11413874 22 8
-3.3211997 2.8056376 -1.0037316 19 1
-5.0677066 4.2825437 0.34772015 15 9
-3.8751311 3.2770586 -0.9864825 11 2
-3.771785 3.1919215 0.43229246 34 10
-4.5757837 3.8736866 -0.9495573 8 3
-5.1770368 4.3857875 0.83309889 11 11
-4.7273054 4.0076275 -0.76095223 16 4
-4.8179708 4.0859351 1.0005549 8 12
-4.8078966 4.0802779 -0.55169582 25 5
-4.4862828 3.8100312 1.1440908 6 13
-4.8433814 4.1147566 -0.33306605 18 6
-4.9317036 4.195725 -0.11302178 35 7
-2.9240494 2.5017898 -1.0311351 13 0
-5.0233097 4.3009348 0.11543022 29 8
-3.3138657 2.8383207 -1.0073308 18 1
-5.0877295 4.3607097 0.35117432 23 9
-3.855139 3.3065889 -0.9872458 12 2
-4.899157 4.2035351 0.56476921 26 10
-4.5546236 3.9106846 -0.95080876 8 3
-4.4281001 3.8047345 0.71683556 5 11
-4.7375517 4.0720611 -0.76704568 17 4
-5.0888486 4.3771 1.0631288 8 12
-4.8102174 4.1388993 -0.5551821 18 5
-4.8569012 4.1849751 -0.33599687 19 6
-7.8497691 6.76618 2.3925796 12 14
-4.9045439 4.2305031 -0.11305669 25 7
-8.0446758 6.943975 2.8475273 16 15
-2.9035943 2.5196102 -1.0300999 9 0
-5.0316701 4.3677998 0.11630284 22 8
-3.2939701 2.8613858 -1.0073308 15 1
-5.0926032 4.4253712 0.35358176 26 9
-3.8206913 3.3224463 -0.98419291 11 2
-5.189827 4.516221 0.60189754 21 10
-4.5398197 3.9519715 -0.95331174 8 3
-5.1998959 4.5297694 0.84674829 11 11
-4.7509065 4.1415601 -0.77387041 18 4
-5.0931792 4.4414983 1.0703248 18 12
-4.8097272 4.1972709 -0.55849403 20 5
-4.8764362 4.2599845 -0.33934638 12 6
-4.9110126 4.2962389 -0.11389441 22 7
-7.9419785 6.9502301 2.827857 15 15
-2.8863766 2.5393162 -1.0300999 9 0
-5.0265703 4.4252844 0.11689622 19 8
-3.2831919 2.8914688 -1.0100303 14 1
-5.0840602 4.4806242 0.35515183 28 9
-3.8150721 3.3646214 -0.98877227 10 2
-5.1649437 4.5567145 0.60259479 20 10
-4.5091562 3.9809549 -0.95268601 8 3
-5.2529435 4.6408763 0.86064136 9 11
-4.7716904 4.2171841 -0.78191376 16 4
-5.0072994 4.4285245 1.0587486 11 12
-4.8205919 4.266398 -0.56320041 18 5
-5.3285208 4.7175918 1.3833653 11 13
-4.9153442 4.3548503 -0.34416127 23 6
-8.9954329 7.9752955 2.7754459 21 14
-4.9429936 4.3839688 -0.1153255 33 7
-7.8109074 6.9324098 2.7983515 11 15
-2.8743451 2.5645487 -1.0321704 11 0
-5.0373197 4.4975591 0.11787355 23 8
-3.2527525 2.9052317 -1.006881 12 1
-5.1003084 4.5585999 0.35850134 25 9
-3.7973433 3.3964088 -0.99029869 11 2
-5.116672 4.5780478 0.60067737 17 10
-4.478312 4.0097017 -0.95206028 8 3
-5.2632909 4.7158513 0.86770982 9 11
-4.8042192 4.3060403 -0.7921508 14 4
-4.8747935 4.3723674 1.0371606 11 12
-4.8292403 4.3345499 -0.56773251 22 5
-5.3480444 4.801897 1.3971035 21 13
-4.9264202 4.4264364 -0.34709209 20 6
-8.5265427 7.6665583 2.6472239 13 14
-4.889966 4.3983111 -0.11480194 52 7
-7.8369865 7.0539751 2.8252687 18 15
-2.8563704 2.5845537 -1.0321704 11 0
-5.0102458 4.5366426 0.11797827 32 8
-3.2396114 2.9344113 -1.0091304 11 1
-4.9899287 4.5230045 0.35295373 44 9
-3.7880812 3.4360259 -0.99411488 11 2
-4.8603101 4.4101529 0.57418203 22 10
-4.4648352 4.0541463 -0.95518899 8 3
-4.9202452 4.4708033 0.81628096 5 11
-4.8166399 4.3781948 -0.79921919 23 4
-5.0048914 4.5525036 1.0715762 25 12
-4.8526759 4.4155922 -0.57400775 15 5
-8.6139307 7.8435698 2.2645214 41 13
-4.9175429 4.4808984 -0.34866217 17 6
-8.0147352 7.3056407 2.503705 37 14
-4.9921074 4.553628 -0.11794336 25 7
-7.8489008 7.1645203 2.8475273 31 15
-2.8553386 2.6201046 -1.0383821 11 0
-5.0293369 4.6166182 0.11916503 27 8
-3.2233529 2.9609108 -1.0104802 10 1
-5.1590343 4.7406535 0.36718911 21 9
-3.7646053 3.4617307 -0.99411488 12 2
-5.2501807 4.8311706 0.6242094 21 10
-4.4429493 4.0897951 -0.95644045 8 3
-5.0751266 4.6749959 0.84723574 18 11
-4.7888756 4.4144068 -0.7997067 20 4
-5.1335297 4.7337685 1.1059917 11 12
-4.8656569 4.4898987 -0.57923704 18 5
-8.6959858 8.0300465 2.3007751 40 13
-4.8634553 4.4925838 -0.34698743 27 6
-7.9234686 7.324378 2.4911079 24 14
-4.9836826 4.6100945 -0.11850184 19 7
-7.9020433 7.3122482 2.8847973 36 15
-2.823293 2.6263218 -1.0332056 11 0
-5.0818772 4.7306423 0.12118951 21 8
-3.2131066 2.992079 -1.0136294 8 1
-5.1681876 4.8160405 0.3702246 22 9
-3.7503972 3.4973011 -0.9967863 12 2
-5.0845966 4.7431216 0.60834706 21 10
-4.4258394 4.1314979 -0.95894337 8 3
-4.8233209 4.5056939 0.81043118 6 11
-4.787724 4.4740086 -0.80458146 20 4
-4.892591 4.5752039 1.0609387 5 12
-4.8626275 4.5487752 -0.58254898 21 5
-5.2600646 4.9240041 1.4005381 14 13
-4.9544125 4.6411233 -0.35577986 15 6
-8.2772675 7.7565761 2.61888 16 14
-5.0105348 4.6986241 -0.11989804 20 7
-2.8133206 2.6539218 -1.0363115 11 0
-5.1019163 4.8145318 0.12244608 17 8
-3.2048917 3.0264797 -1.0176786 10 1
-5.1962652 4.9087124 0.37462083 16 9
-3.7293582 3.5254457 -0.99754947 12 2
-5.1541247 4.8757148 0.62072319 20 10
-4.4004855 4.1642423 -0.9595691 10 3
-4.847311 4.5902901 0.81969327 21 11
-4.8284183 4.5755949 -0.81676841 14 4
-4.8827906 4.6319742 -0.58882421 21 5
-5.3152652 5.0457597 1.4245801 16 13
-4.9762931 4.7256265 -0.35965273 22 6
-8.2921362 7.8799496 2.6409254 13 14
-5.0341234 4.7872338 -0.12125932 23 7
-7.8438644 7.4617801 2.9008439 7 15
-2.7979834 2.6756809 -1.0373468 13 0
-4.9309301 4.718688 0.11913013 42 8
-3.1842167 3.0482247 -1.0176786 10 1
-5.2484064 5.0277662 0.38090113 26 9
-3.7117424 3.558188 -0.9994576 12 2
-5.2746863 5.0582399 0.63937455 11 10
-4.3684554 4.1921263 -0.95894337 8 3
-4.7220802 4.5346441 0.80385023 6 11
-4.8429718 4.6523623 -0.82456803 14 4
-5.3345928 5.1282153 1.1720072 5 12
-4.883359 4.6977191 -0.59283334 21 5
-7.4904404 7.2082105 2.0206673 5 13
-4.9690766 4.7851901 -0.36153683 18 6
-8.2018394 7.9038434 2.6296778 7 14
-5.0489316 4.867187 -0.12241118 38 7
-7.710938 7.4385691 2.870821 16 15
-2.7792361 2.6951485 -1.0373468 12 0
-4.7572312 4.6165209 0.11570945 27 8
-3.1572661 3.0649502 -1.0158789 11 1
-5.2275038 5.0782008 0.38194785 18 9
-3.7008874 3.5976996 -1.0032737 12 2
-5.3163748 5.1699491 0.64878732 16 10
-4.3475766 4.2307878 -0.96082056 8 3
-5.254909 5.1173162 0.9006145 16 11
-4.8558755 4.7303843 -0.83236772 13 4
-5.1331673 5.0040011 1.1354015 14 12
-4.9046388 4.784565 -0.5994572 13 5
-4.9698424 4.8532538 -0.36404896 30 6
-8.1199799 7.9350305 2.6211298 6 14
-5.0405679 4.9274783 -0.12303946 24 7
-7.6325817 7.4665504 2.860986 6 15
-2.7699955 2.7239666 -1.0409703 14 0
-5.1567535 5.0746088 0.12628561 17 8
-3.1469026 3.0978534 -1.0194782 10 1
-5.2445688 5.1664329 0.38582069 14 9
-3.6728849 3.6206913 -1.0025105 11 2
-5.3610158 5.2866783 0.65872312 15 10
-4.3179355 4.2610354 -0.96082056 8 3
-5.3377013 5.2710443 0.92108858 8 11
-4.8552151 4.7962556 -0.83797371 16 4
-5.266685 5.2063646 1.1729457 6 12
-4.9342923 4.8794794 -0.60712689 26 5
-8.6757002 8.5853214 2.3725193 18 13
-4.9968629 4.9482617 -0.36854982 14 6
-8.0560884 7.9805174 2.6179802 8 14
-5.0600109 5.0160451 -0.12436585 24 7
-7.5034676 7.4434619 2.8319981 0 15
-2.7495422 2.7418747 -1.0404526 12 0
-5.1829696 5.1703186 0.12778652 14 8
-3.1307151 3.1252556 -1.0212778 10 1
-5.274292 5.2669296 0.39063561 13 9
-1.856712 1.8554161 -0.51022327 2 2
-5.3563805 5.3563795 0.6627323 18 10
-4.3027968 4.3042989 -0.96394926 8 3
-5.2932825 5.2988272 0.91962618 12 11
-4.8622837 4.8707767 -0.84504211 14 4
-5.2492652 5.2602692 1.177013 26 12
-4.9212084 4.9349713 -0.60974157 21 5
-5.0194478 5.0387588 -0.37273672 18 6
-7.7857051 7.8211126 2.5477955 6 14
-5.0798702 5.1065383 -0.12572713 35 7
-8.9755735 9.0258389 3.4107175 0 15
-2.7280984 2.7577794 -1.0394174 11 0
-5.215632 5.2760611 0.12949686 26 8
-3.1175878 3.1548097 -1.0239772 11 1
-5.2851067 5.3519425 0.39419448 33 9
-1.846472 1.8711276 -0.51098651 55 2
-5.2904124 5.3629289 0.65907168 28 10
-4.2809639 4.3426728 -0.96582651 8 3
-5.1447129 5.2225189 0.90012699 16 11
-4.8749809 4.9504356 -0.85308552 14 4
-5.3315706 5.4178739 1.2039198 26 12
-4.9229589 5.0061417 -0.61427367 15 5
-9.3864183 9.5483522 2.6026347 21 13
-5.0317383 5.1221209 -0.37629557 21 6
-7.7705026 7.9156079 2.5608428 9 14
-5.0940156 5.1909509 -0.1269488 22 7
-2.7087791 2.776758 -1.0394174 13 0
-5.2219439 5.3567319 0.13057891 28 8
-3.0954878 3.1764967 -1.0239772 10 1
-5.2991714 5.4416504 0.39806733 23 9
-1.8251486 1.8755312 -0.50869679 51 2
-5.2028313 5.3483186 0.65279651 16 10
-5.1053605 5.2554607 0.89963961 7 11
-4.8693433 5.0142546 -0.85820401 13 4
-5.1986952 5.3571482 1.1823319 8 12
-4.9281144 5.0818658 -0.61932868 10 5
-5.0273538 5.1860142 1.4039726 4 13
-5.0222611 5.1843786 -0.37828431 20 6
-5.1424785 5.3140459 -0.129078 26 7
-9.3294535 9.6474409 3.5960321 11 15
-2.6973636 2.8039544 -1.0425231 12 0
-5.2107511 5.4204478 0.1312421 22 8
-3.0705359 3.19522 -1.0230774 10 1
-5.320539 5.5404572 0.40256822 24 9
-1.8120108 1.8882271 -0.50869679 48 2
-5.4067364 5.6361251 0.68330097 15 10
-1.8550122 1.9350641 -0.4245632 30 3
-5.5189633 5.7611547 0.97958583 35 11
-4.9056139 5.1226792 -0.8708784 17 4
-5.2417488 5.4775138 1.2007911 10 12
-4.9567628 5.18152 -0.62734705 10 5
-5.0249429 5.2564626 1.4135132 14 13
-5.0342307 5.2698622 -0.38194785 14 6
-5.1673794 5.414917 -0.13064872 32 7
-9.1765471 9.6228619 3.5629032 28 15
-2.6856997 2.8311265 -1.0456289 13 0
-5.2549195 5.5413995 0.13330148 17 8
-3.0561969 3.2250657 -1.0257769 14 1
-5.3307786 5.6272926 0.40623173 16 9
-1.7761716 1.8762797 -0.50220931 48 2
-5.4398265 5.7504435 0.69253951 12 10
-1.8377259 1.9433402 -0.4236246 27 3
-5.2014809 5.5042582 0.92986321 12 11
-4.9024415 5.1914401 -0.87672812 19 4
-5.4389315 5.7615709 1.2549174 6 12
-4.9696856 5.2681737 -0.63362223 14 5
-9.5358782 10.115691 2.7022371 17 13
-5.0954957 5.4072094 -0.38937956 18 6
-8.4634762 8.9875069 2.8501298 12 14
-5.1719341 5.4960032 -0.13173077 29 7
-8.2583895 8.7789259 3.2295442 9 15
-2.6478877 2.8295934 -1.0383821 15 0
-5.2953215 5.6626654 0.13532595 27 8
-3.0394974 3.2514875 -1.0275764 14 1
-5.3718023 5.750484 0.4124074 21 9
-1.7523119 1.8771528 -0.49915636 46 2
-5.4467745 5.8368645 0.69846606 11 10
-1.8200723 1.9517885 -0.42268598 24 3
-5.1845818 5.5636721 0.93376297 11 11
-4.90623 5.2668133 -0.88379657 15 4
-4.5439038 4.8812704 1.0562457 1 12
-4.9775691 5.3508797 -0.63937455 11 5
-6.5656633 7.0605531 1.8741261 18 13
-5.1092873 5.4982462 -0.39335707 15 6
-5.1765785 5.5765133 -0.13281281 22 7
-8.4583511 9.1182108 3.3325541 13 15
-2.6306891 2.8508499 -1.0394174 11 0
-5.282773 5.7288957 0.13602406 21 8
-3.0220063 3.2783599 -1.029376 14 1
-5.4018922 5.8642321 0.41785032 22 9
-1.7418238 1.8922291 -0.49991959 47 2
-5.0524273 5.4906235 0.65279651 17 10
-1.7930316 1.9499063 -0.4195573 25 3
-5.1711321 5.6275053 0.93839401 3 11
-4.9351444 5.3725696 -0.89573973 1 4
-4.4375796 4.8342919 1.0393507 6 12
-5.0114717 5.463316 -0.64861304 11 5
-5.4348221 5.9269114 1.5631074 24 13
-5.1058602 5.5720677 -0.39607856 9 6
-10.446792 11.408663 3.5713229 6 14
-5.2023311 5.6833186 -0.13448824 18 7
-8.2484512 9.0173883 3.2745786 20 15
-2.6133225 2.8720036 -1.0404526 12 0
-5.29108 5.8188992 0.13728063 17 8
-3.0003564 3.3008187 -1.0298259 16 1
-5.4078217 5.9535465 0.42151386 35 9
-1.7206539 1.8956208 -0.49762988 47 2
-4.8559885 5.3516526 0.63222772 14 10
-1.7714134 1.9535964 -0.41768005 24 3
-1.8843772 2.0803666 -0.34464651 12 4
-4.4143281 4.8768692 1.0418537 10 12
-5.017314 5.5469303 -0.6543653 17 5
-5.345911 5.9122839 1.5493692 15 13
-5.1043277 5.6490717 -0.39900938 10 6
-6.3666649 7.0510731 2.1932726 30 14
-5.2295208 5.7937202 -0.13623348 15 7
-7.9394536 8.8021955 3.1762273 10 15
-2.593209 2.8901775 -1.0404526 15 0
-5.3224144 5.9360948 0.13916549 16 8
-2.9811423 3.3260376 -1.0311756 18 1
-5.4234252 6.0551276 0.42601472 17 9
-1.7047594 1.9046613 -0.49686664 47 2
-4.8304653 5.398787 0.63379657 7 10
-1.756415 1.9644431 -0.41736722 27 3
-5.3830295 6.0248237 0.99201655 26 11
-1.8565845 2.0786657 -0.34220913 19 4
-5.5166497 6.1808853 1.3121724 8 12
-5.0209064 5.6294026 -0.65994328 14 5
-5.6246033 6.3084822 1.6428655 4 13
-5.127213 5.7546554 -0.40392897 16 6
-6.3030319 7.0793386 2.188324 34 14
-5.2501016 5.8988004 -0.13783911 23 7
-6.2472997 7.0241432 2.518827 22 15
-2.5760369 2.9106553 -1.0414879 12 0
-5.344152 6.0425873 0.14080602 23 8
-2.9610152 3.3491726 -1.0320754 17 1
-5.4693623 6.19069 0.43292308 20 9
-1.6839591 1.9073907 -0.49457693 47 2
-5.5503526 6.2889948 0.73385131 10 10
-1.7364699 1.9689453 -0.41580287 26 3
-5.3852091 6.1104693 1.00006 19 11
-1.8305823 2.0778496 -0.3400155 20 4
-5.2394967 5.9514117 1.2558562 4 12
-5.0522213 5.7427306 -0.66918176 17 5
-8.5064907 9.672514 2.5037959 11 13
-5.1314311 5.8389311 -0.40738311 10 6
-5.238852 5.9674611 -0.13860701 23 7
-6.1916986 7.0577908 2.5157211 35 15
-2.5493031 2.9212906 -1.0388998 10 0
-5.3820071 6.1716833 0.14293522 16 8
-2.9426835 3.3756385 -1.033875 14 1
-5.4863553 6.2979984 0.43773797 15 9
-1.6615791 1.9087346 -0.4919056 50 2
-5.5782456 6.4102564 0.74343848 11 10
-1.7226822 1.9810199 -0.41580287 26 3
-5.5689802 6.408638 1.0424705 25 11
-1.8173339 2.0920768 -0.34025922 20 4
-5.1214194 5.8998322 1.2373967 5 12
-5.0733666 5.848598 -0.67737442 12 5
-5.1755605 5.972723 -0.41418681 15 6
-8.2803278 9.5624418 2.9203146 6 14
-5.2546506 6.0704136 -0.14014283 19 7
-7.9293466 9.1668139 3.2476614 6 15
-2.5238061 2.9331591 -1.0368291 14 0
-5.3987613 6.2788544 0.14454083 20 8
-2.926667 3.4049673 -1.0365745 14 1
-5.5164328 6.4225068 0.44370431 17 9
-1.6456559 1.9173086 -0.49114239 51 2
-5.5982285 6.5246463 0.75215399 11 10
-1.6959521 1.9780017 -0.41267416 25 3
-5.5628529 6.4925828 1.0497826 30 11
-1.7923536 2.0926518 -0.33830932 23 4
-4.9439497 5.7763653 1.2042327 10 12
-5.0930228 5.9526343 -0.68539274 12 5
-5.3609657 6.270236 1.6035589 8 13
-5.2102842 6.0983005 -0.42036244 19 6
-8.1973257 9.5978384 2.914016 2 14
-5.2835431 6.1906056 -0.14206259 17 7
-7.715981 9.0470285 3.1860626 8 15
-2.5082667 2.9566002 -1.0388998 14 0
-5.4179797 6.3886623 0.14621626 16 8
-2.8977849 3.4193695 -1.0347749 11 1
-5.5423017 6.5421987 0.44935656 21 9
-1.6389096 1.9359579 -0.49305046 52 2
-5.6233153 6.6472311 0.76174122 10 10
-1.6747959 1.98045 -0.41079697 24 3
-5.4237146 6.418098 1.0317459 22 11
-1.7777004 2.105114 -0.33830932 24 4
-5.1001592 6.0459156 -0.6920166 12 5
-10.229211 12.134672 3.085 4 13
-5.2227082 6.1977701 -0.42475864 16 6
-8.4602499 10.046865 3.0323403 9 14
-5.3148723 6.3160844 -0.14408708 17 7
-8.5906363 10.21255 3.575844 21 15
-2.4967613 2.9839764 -1.0425231 13 0
-5.4232721 6.4861612 0.14757755 19 8
-2.8669443 3.4300437 -1.0320754 10 1
-5.574594 6.6742387 0.45574155 15 9
-1.62158 1.9428307 -0.4919056 56 2
-5.6698413 6.7955022 0.77429163 10 10
-1.6659887 1.998163 -0.41204843 25 3
-5.7320237 6.8797879 1.0995053 22 11
-1.753167 2.1049631 -0.33635944 23 4
-5.1216264 6.1537151 1.2680578 21 12
-5.0985951 6.130393 -0.69759458 8 5
-5.4083042 6.5050864 1.6443919 15 13
-5.2380233 6.3047481 -0.42957357 21 6
-5.3419957 6.436748 -0.14600682 23 7
-8.2515192 9.9495945 3.4635167 10 15
-2.4734097 2.9983537 -1.0414879 12 0
-5.4567199 6.6195316 0.14974165 13 8
-2.8404496 3.4469671 -1.0311756 10 1
-5.5786476 6.7746658 0.45992842 15 9
-1.5979983 1.9419756 -0.48885265 58 2
-5.696938 6.925703 0.784576 9 10
-1.6419632 1.9975369 -0.40954545 34 3
-5.7468543 6.996335 1.1116923 35 11
-1.7283509 2.1048777 -0.33440951 24 4
-5.3792686 6.5558238 1.3431464 4 12
-5.1466289 6.2767682 -0.710145 13 5
-8.6645451 10.570938 2.6568246 10 13
-5.2445025 6.4029675 -0.43376043 29 6
-8.6462355 10.563633 3.1515641 15 14
-5.3703742 6.5636506 -0.14803131 21 7
-8.4802237 10.371881 3.5898204 25 15
-2.458513 3.0230412 -1.0440761 13 0
-5.4936137 6.7598858 0.15204537 15 8
-2.8187752 3.4697368 -1.0320754 14 1
-5.6231117 6.92664 0.46756947 26 9
-1.5769799 1.9439373 -0.48656297 58 2
-5.7400618 7.0782704 0.79730076 10 10
-1.6254905 2.0058818 -0.40891972 26 3
-5.7465911 7.0964503 1.1211981 12 11
-1.7111161 2.1138067 -0.33392206 29 4
-5.593019 6.9142022 1.4085361 16 12
-5.1501374 6.3689766 -0.71659446 11 5
-8.565856 10.60063 2.6491923 38 13
-5.2624111 6.5171208 -0.43899405 13 6
-8.046586 9.9686823 2.9576564 25 14
-5.3608284 6.6461191 -0.14904355 14 7
-8.0026846 9.9284668 3.4169292 6 15
-2.4361398 3.0386238 -1.0435584 13 0
-5.5175042 6.8845053 0.15400003 15 8
-2.8017921 3.4984577 -1.0347749 10 1
-5.658217 7.0676594 0.4744778 16 9
-1.5612582 1.95156 -0.4857997 57 2
-5.0385957 6.3027124 0.70596153 3 10
-1.6068665 2.0107272 -0.40766826 26 3
-5.7006316 7.138504 1.1216855 17 11
-1.6963181 2.1257002 -0.33392206 22 4
-5.4645228 6.850194 1.3878868 7 12
-5.1825476 6.50137 -0.72740185 11 5
-8.5002041 10.670922 2.6518636 36 13
-5.3000412 6.6559095 -0.44590241 15 6
-8.4427357 10.610172 3.1304188 35 14
-5.3852396 6.7725997 -0.15103312 11 7
-8.4482059 10.628463 3.6379607 0 15
-2.4189942 3.0596819 -1.0451113 13 0
-5.5573187 7.0342655 0.15647829 15 8
-2.7706673 3.5082719 -1.0320754 10 1
-5.6767869 7.193223 0.4802348 16 9
-1.542734 1.9562454 -0.48427325 59 2
-5.759099 7.3053856 0.8138603 10 10
-1.5842338 2.0110333 -0.40547815 28 3
-5.2835264 6.7117496 1.0488076 5 11
-1.6781268 2.1325176 -0.33319083 22 4
-5.9330735 7.5450039 1.5202303 13 12
-5.1899667 6.6047554 -0.7348972 16 5
-10.701277 13.623334 3.3673973 27 13
-5.3188052 6.7760158 -0.45144999 16 6
-8.5632963 10.917254 3.2033031 9 14
-5.4278545 6.9224005 -0.15354627 17 7
-2.3999498 3.0795426 -1.0461466 13 0
-5.5547676 7.1328421 0.15780467 13 8
-2.7437131 3.5244539 -1.0311756 11 1
-5.7049193 7.3335686 0.4869338 27 9
-1.5290393 1.9669681 -0.48427325 59 2
-5.6663957 7.2919221 0.80793375 11 10
-1.5616748 2.0111227 -0.4032881 34 3
-5.8669219 7.5608611 1.1750643 51 11
-1.6510314 2.1284959 -0.33075345 21 4
-9.7733908 12.608871 2.5267298 12 12
-5.2047362 6.719583 -0.74361277 16 5
-10.601093 13.691506 3.365871 7 13
-5.3214836 6.8777447 -0.45574155 12 6
-7.882544 10.195135 2.9752028 12 14
-5.4393187 7.0376506 -0.15525661 15 7
-9.5813828 12.405811 4.2001157 1 15
-2.3819227 3.1008186 -1.0476996 12 0
-5.5644979 7.2491736 0.15951499 12 8
-2.7237861 3.5497065 -1.0329752 11 1
-5.6912556 7.4223499 0.49017861 23 9
-1.5009412 1.9588941 -0.47969386 59 2
-5.7074251 7.4515142 0.82118142 17 10
-1.5499977 2.0251138 -0.40391383 33 3
-5.805552 7.5905981 1.1733581 14 11
-1.6325144 2.1352394 -0.33002222 20 4
-5.8943076 7.7150106 1.5377511 8 12
-5.2568302 6.8831115 -0.75773197 12 5
-8.9175577 11.684794 2.8571742 21 13
-5.371438 7.0433698 -0.46421999 15 6
-7.8377752 10.281097 2.9846506 7 14
-5.493053 7.2106647 -0.15822351 17 7
-8.235466 10.81843 3.643137 0 15
-2.3625488 3.1204522 -1.0487348 12 0
-5.6441517 7.4574938 0.16324981 13 8
-2.7012892 3.5717442 -1.033875 11 1
-5.7682772 7.629796 0.50127381 16 9
-1.4852058 1.9659324 -0.47893062 58 2
-5.8377314 7.7328796 0.84767675 8 10
-1.5373672 2.037194 -0.40422669 31 3
-5.6605234 7.5063133 1.1543465 26 11
-1.6139839 2.1418283 -0.32929099 20 4
-8.0725384 10.716509 2.125006 6 12
-5.2709565 7.002418 -0.76679623 12 5
-5.6753297 7.5451035 1.8352009 28 13
-5.3893914 7.1675649 -0.46997693 12 6
-5.5026155 7.3287921 -0.15996876 18 7
-2.4329517 3.2415669 1.0860047 11 15
-2.3366315 3.1302691 -1.0466642 12 0
-5.6326032 7.5512147 0.16443658 13 8
-2.6792443 3.5931733 -1.0347749 10 1
-5.7924371 7.773982 0.5080775 13 9
-1.4690998 1.9731038 -0.47816736 58 2
-5.8135099 7.8107953 0.85186017 14 10
-1.5172131 2.039952 -0.40266237 32 3
-5.6956067 7.6635499 1.1723832 18 11
-1.6005514 2.1543581 -0.32953474 20 4
-8.6321945 11.627497 2.2936423 15 12
-5.2955403 7.1382551 -0.77760357 12 5
-8.8538361 11.939101 2.88923 6 13
-5.4212708 7.3157377 -0.47719929 15 6
-7.8674192 10.624445 3.0521359 13 14
-5.5346956 7.4769788 -0.16237719 16 7
-2.420603 3.2724504 1.0906636 5 15
-2.3193016 3.1527288 -1.0487348 12 0
-5.6768694 7.7224717 0.16729876 13 8
-2.6356325 3.5866637 -1.0275764 1 1
-5.8302288 7.9398003 0.51624191 20 9
-1.4529662 1.9801462 -0.47740412 58 2
-5.8283644 7.9459777 0.86214459 9 10
-1.5017667 2.0489013 -0.40234947 13 3
-5.7792029 7.8904991 1.2009006 16 11
-1.5784359 2.1558695 -0.32807231 9 4
-7.7553306 10.600196 2.0802658 3 12
-5.3126016 7.2667289 -0.78753924 10 5
-5.5093646 7.5386276 1.8149751 12 13
-5.4454513 7.4566355 -0.48389828 13 6
-8.0285463 11.001813 3.1443658 12 14
-5.5507135 7.6091366 -0.16440167 11 7
-2.4602861 3.3751307 1.1191336 1 15
-2.3017693 3.1751015 -1.0508054 12 0
-5.7002449 7.8687973 0.16960248 9 8
-2.6173849 3.6144481 -1.0302758 0 1
-5.8039279 8.0207615 0.51885873 12 9
-1.4391078 1.9902409 -0.47740412 59 2
-5.5148072 7.6296172 0.82362181 6 10
-1.4828005 2.0529294 -0.40109801 9 3
-5.8726811 8.1366863 1.2320992 46 11
-1.5575403 2.1587865 -0.3268536 16 4
-7.7192612 10.706959 2.0905905 9 12
-8.6805382 12.053591 2.8873219 30 13
-5.4515924 7.5755272 -0.4891319 2 6
-8.6557941 12.036942 3.4228551 16 14
-5.5558167 7.7288885 -0.1661469 9 7
-2.4411719 3.3985009 1.1212041 1 15
-2.2874086 3.2020962 -1.0544289 13 0
-1.385466 1.9416336 -0.55068022 9 1
-5.876503 8.2415905 0.53047729 4 9
-1.4183418 1.9906462 -0.47511441 52 2
-5.7792721 8.1142111 0.87155735 11 10
-1.473013 2.0696695 -0.40234947 9 3
-5.9192777 8.3230801 1.2540357 17 11
-1.5389795 2.1647546 -0.3261224 13 4
-7.9349046 11.169626 2.1700592 15 12
-5.4112988 7.6228871 -0.81786948 1 5
-10.248152 14.441894 3.4421945 8 13
-2.5369711 3.5777938 -0.22985955 2 6
-2.5358782 3.5802238 -0.076581158 1 7
-2.4664927 3.4848418 1.1439801 1 15
-2.2594383 3.210088 -1.0518407 11 0
-2.5159395 3.5771632 0.076336823 3 8
-1.3729978 1.9528526 -0.55113006 34 1
-2.5132997 3.577389 0.22912684 1 9
-1.3931305 1.9844308 -0.47129822 53 2
-2.5144591 3.5830257 0.38296232 1 10
-1.4528583 2.0718153 -0.40078515 12 3
-1.5192747 2.1689417 -0.32514745 13 4
-5.3981247 7.7150455 -0.82379609 9 5
-5.5386024 7.9276009 -0.50682145 12 6
-2.4793081 3.5500429 0.99968249 1 14
-5.648777 8.0943213 -0.17229016 10 7
-2.4686246 3.5400069 1.1564035 8 15
-1.5720459 2.2669389 -0.73918724 1 0
-5.7349672 8.2730837 0.17571084 17 8
-1.3615502 1.9655944 -0.55202991 70 1
-5.9317241 8.566494 0.54607344 13 9
-1.3818247 1.9970965 -0.47206149 51 2
-6.0721927 8.7824488 0.9341352 7 10
-1.4319835 2.0719066 -0.39890796 22 3
-6.3409266 9.1814032 1.3700553 5 11
-1.5040946 2.1794963 -0.32514745 8 4
-5.2551918 7.6178298 1.4657912 2 12
-5.4278073 7.8739362 -0.83669513 11 5
-2.4623771 3.5747533 0.84375745 0 13
-5.5456781 8.0539484 -0.51247376 11 6
-2.4721377 3.5929523 1.006881 2 14
-5.6748376 8.2538471 -0.17483822 9 7
-2.4400945 3.55036 1.154333 35 15
-1.5478584 2.264827 -0.73504615 1 0
-5.8067613 8.5028257 0.17972489 13 8
-1.3294609 1.9474555 -0.54438156 53 1
-5.9955797 8.7891884 0.55758733 13 9
-1.3634256 2.0002058 -0.47053501 53 2
-6.062757 8.8976698 0.94197923 10 10
-1.4119252 2.0736892 -0.39734361 32 3
-6.1699419 9.0651703 1.3464125 4 11
-1.488109 2.1880417 -0.3249037 5 4
-5.2251978 7.688642 1.4723614 10 12
-5.4681354 8.0491343 -0.85133731 10 5
-10.88989 16.042055 3.7688594 5 13
-5.5891047 8.2395716 -0.52178955 15 6
-2.4432497 3.6032448 1.0050814 1 14
-5.6903124 8.3982344 -0.17707212 10 7
-2.4321215 3.5908794 1.1620976 19 15
-2.0115533 2.9867461 -0.96487743 1 0
-5.8603978 8.7080526 0.18321536 11 8
-1.3063844 1.9419079 -0.54033244 50 1
-5.9645848 8.8728924 0.56030881 13 9
-1.349779 2.0094402 -0.47053501 53 2
-5.9931669 8.9254999 0.94058478 8 10
-1.3944755 2.0783308 -0.39640498 32 3
-5.146102 7.6726613 1.13436 5 11
-1.4720756 2.196471 -0.32465994 6 4
-5.6223068 8.3953285 1.6003247 9 12
-5.4919133 8.2037191 -0.86371344 11 5
-9.1419868 13.666449 3.1960506 4 13
-5.595046 8.3704109 -0.52765119 16 6
-2.4078414 3.6035876 1.0005823 1 14
-5.7040792 8.5432081 -0.17930602 11 7
-2.4097693 3.6105638 1.1631329 4 15
-2.0104046 3.0293424 -0.97419494 1 0
-5.9070835 8.9077311 0.18656623 11 8
-1.2963661 1.955628 -0.54168218 53 1
-6.0474334 9.1297493 0.57391614 13 9
-1.327401 2.0054841 -0.46748206 53 2
-6.2219682 9.4075012 0.98677731 11 10
-1.3781176 2.0844789 -0.39577925 25 3
-5.9798088 9.0516567 1.332032 5 11
-1.4479568 2.1934414 -0.32271007 9 4
-7.1088786 10.772993 2.0442858 4 12
-5.5068936 8.3516407 -0.87521797 9 5
-10.596387 16.082472 3.7436726 2 13
-5.6331224 8.5560675 -0.53686231 13 6
-2.3633411 3.5910087 0.99248403 1 14
-5.7552724 8.7515717 -0.18283142 10 7
-2.3817494 3.6244862 1.1620976 4 15
-1.950635 2.9854302 -0.95555997 1 0
-5.9459515 9.1071682 0.18984728 12 8
-1.2823387 1.9648545 -0.54168218 53 1
-5.8248439 8.9318857 0.55884337 12 9
-1.3044413 2.0017729 -0.46442911 54 2
-6.1697106 9.4751587 0.98921764 11 10
-1.3674765 2.1009092 -0.39703071 25 3
-7.3673582 11.327415 1.6591294 5 11
-1.4300601 2.2004173 -0.32222256 9 4
-7.2532949 11.164826 2.1087368 12 12
-5.5305223 8.5195112 -0.88863993 11 5
-10.252394 15.805411 3.6620066 7 13
-5.6619172 8.7352648 -0.54555005 13 6
-2.3439419 3.617641 0.99518347 1 14
-5.7805285 8.9284983 -0.18565871 9 7
-2.3442094 3.6235948 1.1564035 4 15
-1.9239963 2.9911885 -0.95297176 2 0
-5.9584799 9.2705984 0.19236042 8 8
-1.2682459 1.9739804 -0.54168218 52 1
-6.1244068 9.5397358 0.59411782 19 9
-1.2922039 2.0143611 -0.46519238 51 2
-5.9845538 9.3362331 0.97021776 11 10
-1.3417505 2.0940087 -0.39390203 33 3
-8.5705748 13.385987 1.9516157 6 11
-1.4142778 2.2105944 -0.32222256 8 4
-7.1093593 11.116595 2.0899646 9 12
-5.5187678 8.636097 -0.89665824 9 5
-9.8981285 15.501101 3.5749974 7 13
-5.6830602 8.9068871 -0.55371451 12 6
-2.3326652 3.6573231 1.0014821 1 14
-5.8196635 9.1315231 -0.18900958 10 7
-2.2933147 3.6011686 1.1439801 4 15
-1.9614496 3.0979142 -0.98247713 1 0
-6.0288382 9.5293055 0.19682825 11 8
-1.2447143 1.9681814 -0.537633 51 1
-6.1413407 9.7183886 0.60249156 13 9
-1.2756599 2.020236 -0.46442911 54 2
-5.8134022 9.213686 0.95313519 10 10
-1.3204088 2.0935311 -0.39202482 34 3
-6.5398216 10.377028 1.5060616 6 11
-1.4068863 2.2340956 -0.32417247 7 4
-7.0317335 11.170527 2.0905905 3 12
-4.0300336 6.4070215 -0.66220933 5 5
-10.020968 15.943868 3.6604798 2 13
-5.7275248 9.1198454 -0.56439102 14 6
-9.6422644 15.359172 4.186789 1 14
-5.8529963 9.3304739 -0.19225572 10 7
-2.2674866 3.6174872 1.1439801 4 15
-1.9613118 3.143635 -0.99282992 1 0
-6.0332098 9.6776857 0.19906214 10 8
-1.2306027 1.9747394 -0.53718311 53 1
-6.202383 9.9606638 0.61494756 11 9
-1.262233 2.0286522 -0.46442911 53 2
-6.2157292 9.9937544 1.0296578 10 10
-1.309623 2.107276 -0.39296341 31 3
-5.5147347 8.8805008 1.2835281 22 11
-1.3851002 2.231329 -0.32246631 5 4
-10.080147 16.251265 3.0288846 1 12
-3.9643631 6.3963499 -0.65837449 42 5
-10.075996 16.263594 3.7188678 0 13
-3.9885635 6.442934 -0.39712527 9 6
-11.981103 19.368801 5.2580056 10 14
-5.9072523 9.5534649 -0.19606033 9 7
-2.2450938 3.6336982 1.1444979 2 15
-1.9898732 3.2395568 -1.0187118 1 0
-6.1150818 9.9632826 0.20405354 12 8
-1.2147484 1.9799606 -0.53628331 52 1
-5.5669188 9.0808239 0.55821538 1 9
-1.2377855 2.0206728 -0.46061292 53 2
-5.9304399 9.6851797 0.99357545 10 10
-1.2969425 2.1197369 -0.39358914 37 3
-5.871954 9.6047153 1.3822422 6 11
-1.3684548 2.2392502 -0.32222256 7 4
-7.448319 12.197522 2.263607 6 12
-3.9164953 6.4187703 -0.65785152 55 5
-11.065258 18.142046 4.1306334 21 13
-3.9341314 6.4552732 -0.39618322 61 6
-9.717103 15.956707 4.3132119 2 14
-5.9599867 9.790906 -0.20007439 10 7
-2.2166612 3.6443307 1.1429449 2 15
-1.9872001 3.2864325 -1.0290645 1 0
-6.1405139 10.163195 0.20726478 2 8
-1.200896 1.9883927 -0.53628331 54 1
-6.2649655 10.381453 0.63546324 3 9
-1.2216207 2.0259025 -0.45984969 53 2
-3.1761327 5.2692904 0.53827387 1 10
-1.280074 2.1253552 -0.39296341 37 3
-3.1782353 5.2811141 0.7568087 5 11
-1.3527874 2.2487497 -0.32222256 7 4
-2.0523121 3.4156227 -0.34862295 42 5
-10.193558 16.97834 3.849381 10 13
-3.8930826 6.4894304 -0.39660192 8 6
-10.218614 17.040281 4.5872016 8 14
-3.17084 5.2917933 -0.10768134 5 7
-2.1772699 3.6365132 1.135698 2 15
-1.9790283 3.3251264 -1.0368291 2 0
-6.1816154 10.390361 0.21103451 12 8
-1.1869851 1.9967282 -0.53628331 54 1
-6.2247653 10.475367 0.63860339 19 9
-1.2118119 2.0409234 -0.46137619 50 2
-6.3253002 10.661493 1.084566 11 10
-1.2575165 2.1204269 -0.39046046 33 3
-7.3065333 12.330098 1.7597934 33 11
-1.3390791 2.261555 -0.32271007 8 4
-7.2995629 12.333054 2.2698643 20 12
-2.0162477 3.409287 -0.34653121 41 5
-11.575956 19.589464 4.4229527 3 13
-5.8824272 9.9585323 -0.6061551 14 6
-11.639668 19.72085 5.2867994 2 14
-6.0573583 10.271056 -0.20813741 10 7
-2.134809 3.6212933 1.1263806 2 15
-1.9856503 3.3885233 -1.0523583 15 0
-6.273622 10.714542 0.21672398 17 8
-1.1674602 1.9946705 -0.53358394 54 1
-6.3813682 10.911657 0.66246861 19 9
-1.1935719 2.0425532 -0.45984969 52 2
-6.4445219 11.032897 1.1178595 5 10
-1.2436781 2.1308603 -0.39077336 36 3
-6.3272405 10.849496 1.5421348 6 11
-1.3256537 2.2740474 -0.32319754 8 4
-7.2023473 12.364938 2.2664227 28 12
-1.9703485 3.3853967 -0.34269637 38 5
-7.1675096 12.319955 2.7705467 23 13
-5.9151435 10.17548 -0.6168316 1 6
-9.931735 17.098726 4.5651565 2 14
-6.0927372 10.493627 -0.21180241 11 7
-2.110445 3.6377795 1.1268982 1 15
-1.967736 3.4123442 -1.055464 15 0
-6.3164768 10.96253 0.22084275 12 8
-1.1476706 1.9926401 -0.5308845 55 1
-6.4405198 11.191366 0.67670399 14 9
-1.1812404 2.0542402 -0.46061292 52 2
-6.4894657 11.290086 1.1392999 7 10
-1.2238528 2.1309261 -0.389209 29 3
-9.9752741 17.382616 2.4607861 6 11
-1.3097456 2.2832468 -0.32319754 8 4
-7.1600528 12.492041 2.2805018 6 12
-1.8327971 3.2002432 -0.32265055 6 5
-7.0715714 12.352656 2.7667305 33 13
-5.917345 10.34482 -0.6245774 12 6
-7.0368395 12.311912 3.2739377 20 14
-6.1542392 10.772045 -0.21654947 11 7
-2.0888278 3.6591353 1.1289687 2 15
-1.9467272 3.4310386 -1.057017 16 0
-6.3393931 11.182062 0.22436814 16 8
-1.1366148 2.0056896 -0.53223419 57 1
-6.4960709 11.472423 0.69093937 14 9
-1.1639701 2.0573106 -0.4594681 50 2
-6.4242187 11.359395 1.1417402 2 10
-1.209918 2.1411381 -0.38952184 32 3
-6.1888037 10.960981 1.5455471 5 11
-1.2957247 2.2957921 -0.32368499 7 4
-9.7798605 17.342299 3.1534064 8 12
-1.7712877 3.1435289 -0.31567809 5 5
-3.9750175 7.0631633 -0.42475864 6 6
-6.9516692 12.362435 3.2743876 26 14
-6.1798086 10.994295 -0.22014466 11 7
-2.0594475 3.6668918 1.1268982 1 15
-1.9170753 3.4344254 -1.0539112 16 0
-6.4024153 11.479277 0.22942933 13 8
-1.1263794 2.0203846 -0.53403378 58 1
-6.506216 11.679759 0.70067382 9 9
-1.1457598 2.0585246 -0.45794162 49 2
-6.5297794 11.736507 1.1750337 10 10
-1.1968602 2.1529858 -0.39014763 32 3
-12.132692 21.842983 3.0679393 2 11
-1.28352 2.3117239 -0.32465994 7 4
-9.8847065 17.817814 3.2272434 16 12
-1.7454348 3.1488478 -0.31498083 3 5
-9.5540609 17.243078 3.8318264 6 13
-3.9285126 7.095984 -0.4250727 16 6
-6.2083759 11.227919 -0.22394928 12 7
-2.0169816 3.650743 1.1175808 1 15
-1.8958427 3.4528046 -1.055464 15 0
-6.4471512 11.751611 0.23396698 13 8
-1.1085 2.0213637 -0.53223419 57 1
-6.6327763 12.104986 0.72338766 11 9
-1.1294761 2.0630288 -0.45717838 50 2
-6.4687219 11.820264 1.1788685 4 10
-1.1723232 2.1439571 -0.38701892 34 3
-9.7185097 17.788042 2.488816 4 11
-1.2673498 2.3206284 -0.32465994 8 4
-9.1639748 16.793953 3.0301359 4 12
-1.7138717 3.1434636 -0.31323773 4 5
-9.611022 17.635166 3.9039524 10 13
-5.9477396 10.922531 -0.65179205 9 6
-9.437396 17.345407 4.5588579 11 14
-6.2664614 11.522196 -0.22894068 11 7
-1.9803768 3.644366 1.111369 1 15
-1.8762813 3.4744554 -1.0580523 16 0
-6.521637 12.086709 0.23972626 15 8
-1.0906608 2.0221927 -0.53043455 57 1
-6.7243447 12.47802 0.74285662 14 9
-1.1141151 2.0691352 -0.45679674 50 2
-6.4483695 11.980925 1.1903732 9 10
-1.1554567 2.1486089 -0.38639316 34 3
-7.8774633 14.66068 2.0435054 24 11
-1.2605119 2.3469071 -0.32709733 8 4
-9.0875988 16.934109 3.0439022 1 12
-1.6994181 3.1693985 -0.31463224 3 5
-12.59457 23.498629 5.1823726 3 13
-2.9436851 5.49686 -0.32678574 32 6
-9.3831863 17.536301 4.591701 8 14
-6.3329935 11.840741 -0.23438582 11 7
-1.9639913 3.6751411 1.1165454 1 15
-1.8528852 3.4891756 -1.0585699 14 0
-6.5833087 12.407508 0.2451714 15 8
-1.069212 2.0159848 -0.52683532 58 1
-6.6931796 12.630548 0.74913698 14 9
-1.1042361 2.0855379 -0.45870483 48 2
-7.7019773 14.552638 1.44051 13 10
-1.1404284 2.1566231 -0.38639316 33 3
-7.7535982 14.674943 2.0378993 33 11
-1.2366803 2.3416076 -0.32514745 7 4
-7.7955842 14.773129 2.6456199 21 12
-1.6805937 3.1861794 -0.31515515 2 5
-11.748301 22.292048 4.8980675 6 13
-9.2372894 17.549751 4.5786533 3 14
-6.4167848 12.201473 -0.24063379 11 7
-1.9310973 3.6750817 1.1124043 1 15
-1.83474 3.5140135 -1.0621934 16 0
-6.6495113 12.740995 0.2508609 13 8
-1.0569139 2.0268562 -0.52773517 62 1
-6.8526111 13.146929 0.77697968 9 9
-1.0863873 2.086041 -0.45717838 45 2
-7.6296234 14.662612 1.4460881 10 10
-1.1257223 2.1643357 -0.38639316 32 3
-7.6617684 14.743236 2.0400932 39 11
-1.2148139 2.3396134 -0.32368499 7 4
-7.6548066 14.748706 2.6318538 22 12
-1.6628951 3.2066782 -0.31602672 5 5
-7.6698442 14.802961 3.2407002 25 13
-6.269815 12.106032 -0.71449053 11 6
-7.6788859 14.839428 3.8574607 12 14
-2.8773482 5.5652194 -0.10935678 8 7
-1.9149064 3.7053032 1.1175808 1 15
-1.6978253 3.3064492 -0.99593574 1 0
-6.7192297 13.096689 0.25693434 13 8
-1.0448714 2.0374713 -0.52863497 64 1
-6.5730424 12.828281 0.75541729 9 9
-1.0664296 2.0830891 -0.45488867 48 2
-10.67637 20.863451 2.050426 5 10
-1.110585 2.1721423 -0.38639316 36 3
-7.6164498 14.909501 2.0556922 14 11
-1.2042772 2.3584359 -0.32514745 7 4
-7.54986 14.798269 2.6312282 27 12
-1.6368484 3.2111089 -0.31532949 4 5
-7.5537601 14.825083 3.2342126 47 13
-6.3283124 12.430731 -0.73102868 11 6
-7.5309324 14.805823 3.8349655 25 14
-6.5080538 12.80037 -0.25065145 12 7
-1.881119 3.703079 1.112922 2 15
-1.7791517 3.5251794 -1.0580523 1 0
-6.7644911 13.41468 0.26223987 13 8
-1.0306218 2.0447164 -0.52863497 62 1
-7.0007682 13.90134 0.81570828 19 9
-1.0536257 2.093991 -0.45565188 46 2
-11.222459 22.313375 2.1851687 4 10
-1.0882978 2.1657224 -0.38389024 36 3
-11.094578 22.097528 3.0360093 8 11
-1.1966867 2.3845279 -0.32758483 7 4
-7.4773536 14.912419 2.6421785 18 12
-1.6233151 3.2402718 -0.3170726 1 5
-7.463264 14.903789 3.2399371 24 13
-4.9571748 9.9078827 -0.58061516 1 6
-7.2557292 14.514651 3.746335 9 14
-5.5113034 11.029844 -0.21522307 38 7
-1.8500435 3.7057512 1.1098161 4 15
-1.1433421 2.3052685 -0.68949395 1 0
-1.0076723 2.0343988 -0.52413595 59 1
-7.0860362 14.318628 0.83727074 18 9
-1.0389823 2.1012952 -0.45565188 46 2
-11.274742 22.81271 2.2263062 14 10
-1.067904 2.1626399 -0.38201302 36 3
-10.931255 22.156643 3.033572 2 11
-1.1852783 2.4035065 -0.32904723 8 4
-1.5977004 3.2440965 -0.31637534 5 5
-11.570759 23.514883 5.0942187 10 13
-4.8006482 9.7648058 -0.57025266 4 6
-7.1808281 14.612675 3.7589321 6 14
-5.3566103 10.91009 -0.21215145 19 7
-1.8181719 3.7064357 1.1061926 4 15
-1.7399155 3.5705154 -1.0642639 13 0
-0.99003494 2.0343747 -0.5223363 46 1
-7.1273193 14.652098 0.85391349 16 9
-1.0220796 2.1030219 -0.45450708 42 2
-1.0557463 2.1751902 -0.38295162 37 3
-10.654604 21.971539 2.9982297 2 11
-1.1580833 2.3902853 -0.3261224 7 4
-4.9153733 10.149849 1.7861689 14 12
-1.5828234 3.271313 -0.31794414 7 5
-4.9080725 10.152835 2.192014 2 13
-4.6697664 9.6641798 -0.56250691 3 6
-4.988512 10.333035 2.6490238 4 14
-6.7545967 14.003725 -0.27138492 9 7
-1.7887059 3.7100253 1.1036046 4 15
-1.7180747 3.587503 -1.0658169 15 0
-7.0048871 14.639985 0.28328747 8 8
-1.9615777 4.1014709 -1.0496217 12 1
-2.692663 5.6351533 0.3273091 40 9
-1.001453 2.0977037 -0.45183572 23 2
-1.0413849 2.1842909 -0.38326448 39 3
-11.007167 23.108143 3.142767 1 11
-1.1417863 2.3981128 -0.3261224 8 4
-4.8486371 10.192837 1.7877333 18 12
-1.5590914 3.2804837 -0.31776983 1 5
-7.0805254 14.90484 3.2074995 10 13
-3.2431095 6.8330512 -0.39639258 5 6
-3.2717474 6.9027171 -0.13333638 1 7
-1.7660687 3.7294061 1.105675 4 15
-1.6872317 3.5871732 -1.0621934 15 0
-7.0887651 15.084883 0.29093161 12 8
-1.9386957 4.1274128 -1.052771 14 1
-7.3403573 15.64156 0.90551674 11 9
-1.584355 3.3791623 -0.72545588 67 2
-10.262497 21.898148 2.1157928 3 10
-1.0286243 2.1968741 -0.38420308 34 3
-12.008033 25.669363 3.4796138 1 11
-1.1283809 2.4132178 -0.32709733 6 4
-4.7740197 10.219276 1.7864817 17 12
-8.5466995 18.320089 3.9295208 11 13
-3.1936393 6.8519053 -0.39618322 4 6
-4.9704404 10.673733 2.7183084 10 14
-3.1964746 6.8673754 -0.13221943 43 7
-1.732658 3.725879 1.1010163 2 15
-1.6613374 3.597111 -1.0616758 20 0
-7.1701155 15.538908 0.29871538 12 8
-1.9098338 4.1408467 -1.052771 14 1
-7.4600115 16.189442 0.93419689 11 9
-1.5623674 3.3937075 -0.72621906 62 2
-2.6002209 5.6506848 0.54420048 27 10
-12.312401 26.806057 3.6219571 3 11
-0.69888216 1.5250832 -0.14677027 1 5
-4.6772113 10.215906 2.1839998 17 13
-2.6163163 5.7171617 -0.32950723 2 6
-1.6961755 3.7150381 1.0942869 4 15
-1.6387442 3.6159453 -1.0637463 20 0
-7.2842436 16.080397 0.30813968 13 8
-1.8793501 4.1526318 -1.0523211 15 1
-7.6048174 16.819311 0.9673779 16 9
-1.5386368 3.4045324 -0.72621906 65 2
-9.0733309 20.123276 2.7103746 1 11
-0.70606297 1.5674008 -0.21107772 1 4
-8.3209858 18.489124 3.2112873 17 12
-1.5023097 3.3396702 -0.3203845 0 5
-4.6798167 10.413057 2.2191086 22 13
-3.2911642 7.330009 -0.42109516 14 6
-4.6038966 10.258502 2.5959353 16 14
-3.290518 7.3388505 -0.14038716 1 7
-1.669546 3.7270813 1.0942869 4 15
-1.6166009 3.6343582 -1.0658169 19 0
-7.3858128 16.620022 0.31745926 4 8
-1.8558509 4.1781178 -1.0554703 18 1
-6.9954624 15.763866 0.90384203 3 9
-1.5134394 3.4136605 -0.72583747 61 2
-12.510794 28.232201 2.7016537 2 10
-0.6997174 1.5804908 -0.27376035 0 3
-2.5068927 5.6678023 0.76095223 10 11
-0.71597242 1.6194969 -0.21741492 1 4
-8.0711918 18.273912 3.1640439 10 12
-1.4853951 3.3646584 -0.32177898 0 5
-4.6006684 10.431106 2.2160556 39 13
-3.2342703 7.3400154 -0.42036244 9 6
-4.7819519 10.857522 2.7390041 14 14
-1.646597 3.7457197 1.0963575 5 15
-1.5958256 3.656179 -1.0689226 19 0
-2.5059981 5.7441998 0.10939168 10 8
-1.8289727 4.1963315 -1.0568202 19 1
-1.4784161 3.3968811 -0.72011316 20 2
-9.2952242 21.37755 2.0394444 10 10
-0.68894315 1.585217 -0.27376035 0 3
-8.4894686 19.552427 2.6172664 19 11
-4.518249 10.421087 1.7989967 7 12
-4.5706167 10.562068 2.2370448 32 13
-4.6519251 10.76542 2.7075107 25 14
-2.4831326 5.7519436 -0.10935678 3 7
-1.621828 3.758615 1.0968752 4 15
-1.556448 3.6332173 -1.0590875 11 0
-2.4752765 5.7836161 0.10981054 14 8
-1.8041991 4.2176423 -1.0590695 17 1
-2.4660966 5.7705169 0.32887918 42 9
-2.4328275 5.7009268 0.542283 43 10
-1.4510065 3.4034834 -0.5860036 1 3
-2.4378424 5.7237434 0.76387709 18 11
-0.6546976 1.537891 -0.205228 1 4
-4.4817219 10.537813 1.8137014 18 12
-4.5062909 10.611005 2.2408609 23 13
-4.7078767 11.101831 2.7839942 12 14
-0.64120793 1.5135275 -0.028691756 1 7
-1.5767239 3.725369 1.0839342 2 15
-1.5392785 3.6635857 -1.0647817 19 0
-1.777728 4.2373219 -1.0608691 16 1
-2.3981833 5.7190204 0.32500634 54 9
-1.4230973 3.3970227 -0.71591538 2 2
-2.3883531 5.7067451 0.54123718 66 10
-1.4278078 3.4132805 -0.5860036 1 3
-2.3881097 5.7145629 0.76046479 37 11
-0.63323814 1.5167781 -0.20181565 1 4
-2.3688796 5.6768994 0.97427392 23 12
-0.57880491 1.3884399 -0.13160518 3 5
-4.4388957 10.658516 2.2442954 30 13
-4.6459699 11.172214 2.793442 20 14
-0.61681652 1.4847269 -0.028063469 1 7
-1.5416986 3.7128212 1.0772049 2 15
-1.5180779 3.6849604 -1.0678874 20 0
-2.384392 5.7935719 0.10935678 4 8
-1.7481005 4.2496305 -1.0608691 16 1
-2.351886 5.7231016 0.32427362 31 9
-1.4159012 3.4488909 -0.72469258 3 2
-2.3371117 5.6956301 0.5386225 44 10
-1.405594 3.4288933 -0.5869422 3 3
-2.3448992 5.7259941 0.75973356 24 11
-0.58653963 1.4329784 -0.1901162 1 4
-2.3311865 5.7010188 0.97552538 29 12
-4.371798 10.707422 2.2481117 6 13
-0.55895346 1.3703574 -0.0775619 1 6
-4.5703168 11.216002 2.7961416 8 14
-0.59285921 1.4556612 -0.027435182 1 7
-1.5150908 3.7237582 1.0772049 2 15
-1.4944868 3.7008419 -1.0694402 16 0
-2.4740615 6.1327562 0.11543022 0 8
-1.715477 4.2545009 -1.0590695 16 1
-2.4917197 6.1858606 0.34949955 9 9
-1.3793279 3.4277298 -0.71820509 13 2
-2.5024869 6.2219882 0.58673245 20 10
-1.3779377 3.4294586 -0.58537781 1 3
-2.3536735 5.863811 0.77582031 4 11
-2.2876577 5.7079859 0.97396111 31 12
-0.59392506 1.483417 -0.13979781 1 5
-9.3006868 23.241583 4.8660111 16 13
-0.56271803 1.4076083 -0.079445995 1 6
-4.4716659 11.196963 2.7835443 12 14
-0.58713031 1.4709078 -0.027644612 1 7
-1.4947814 3.7485998 1.0813459 2 15
-1.4686136 3.7111852 -1.0694402 16 0
-0.59548265 1.5063205 0.028272899 6 8
-1.6563725 4.1920652 -1.0406237 12 1
-2.5306027 6.4111762 0.3612228 21 9
-1.3496044 3.4226642 -0.71515214 8 2
-2.5101259 6.369061 0.59893423 24 10
-1.3554108 3.4426703 -0.5860036 1 3
-2.5212023 6.4102898 0.84577334 7 11
