# .PCD v0.7 - Point Cloud Data file format
VERSION 0.7
FIELDS x y z intensity ring
SIZE 4 4 4 4 2
TYPE F F F F U
COUNT 1 1 1 1 1
WIDTH 1262
HEIGHT 1
VIEWPOINT 0 0 0 1 0 0 0
POINTS 1262
DATA ascii
1.1110736 -4.7222533 0.94297814 0 13
1.114655 -4.7486281 1.126105 0 14
1.0859323 -4.7643495 0.94984722 0 13
1.0866617 -4.7790966 1.1315038 0 14
1.0653288 -4.8253093 0.96053255 0 13
1.0549461 -4.7941794 1.1333034 0 14
1.0406326 -4.8748684 0.9689281 0 13
1.0271282 -4.8281131 1.1396021 0 14
1.0020907 -4.8731685 1.1486001 0 14
0.94795465 -4.7656889 0.94450456 0 13
0.96804577 -4.8800454 1.1486001 0 14
0.20874035 -4.858778 -0.08488851 5 7
-0.89887929 -4.0985703 -1.12431 1 0
-1.0231423 -4.6535211 -1.1000106 0 1
-2.8997772 -12.994167 3.0737312 1 14
-0.92376941 -4.0791688 -1.1206865 2 0
-1.0418526 -4.5894375 -1.0865136 0 1
-1.2686384 -5.5704336 -1.1105084 2 2
-2.9679589 -12.91735 2.5763032 3 13
-2.9751031 -12.907144 3.0579846 1 14
-0.95002556 -4.0632143 -1.1180983 2 0
-1.067641 -4.5554891 -1.080215 0 1
-1.2985102 -5.5232182 -1.1028761 1 2
-3.0698442 -12.945981 2.5862253 1 13
-0.97474551 -4.0414591 -1.1139573 2 0
-1.0902603 -4.5100412 -1.0712169 0 1
-1.3314861 -5.4911227 -1.0982966 2 2
-2.3781557 -9.7260723 1.9462519 1 13
-3.8235049 -15.601786 3.7085428 1 14
-1.0057327 -4.045804 -1.117063 4 0
-1.109942 -4.4550467 -1.0599694 1 1
-1.372161 -5.4952655 -1.100968 2 2
-2.3208907 -9.226223 -0.83233732 4 5
-3.5936978 -14.264957 2.8594639 5 13
-3.9089553 -15.482131 3.6864979 3 14
-3.689292 -14.57994 4.0298128 2 15
-1.0332478 -4.0388641 -1.117063 6 0
-1.1286249 -4.4020839 -1.0491717 5 1
-1.15675 -4.4987235 -0.90290827 2 2
-2.3486938 -9.0751934 -0.82013553 5 5
-2.1795549 -8.4095459 1.6886597 7 13
-4.6682663 -17.973183 4.287117 1 14
-3.7783265 -14.505223 4.0163541 1 15
-1.0614192 -4.0315523 -1.117063 6 0
-2.4729364 -9.3862209 0.16942796 10 8
-1.1459069 -4.3432221 -1.0370244 6 1
-1.1803187 -4.4641728 -0.89756554 11 2
-1.1879345 -4.4834771 -0.73461634 7 3
-1.1892763 -4.4759164 -0.56864244 7 4
-2.5207462 -9.48032 1.5537072 7 12
-2.2356815 -8.3846407 1.6867516 2 13
-3.7281549 -13.952617 3.3342245 1 14
-4.8913116 -18.267378 5.0671597 1 15
-1.0913589 -4.0335584 -1.1196512 7 0
-2.5279453 -9.3301258 0.16872986 9 8
-1.1703438 -4.3165131 -1.0325253 6 1
-1.2011542 -4.4179339 -0.88993317 16 2
-2.320791 -8.5301609 0.77342004 6 10
-1.2114176 -4.4464865 -0.72992331 12 3
-2.4972725 -9.1347523 1.4998938 10 12
-2.3046327 -8.4127789 1.6955289 5 13
-4.7185721 -17.189247 4.1152544 0 14
-5.0166702 -18.225334 5.0650892 2 15
-1.1184567 -4.0221181 -1.1186159 6 0
-2.5597656 -9.1990395 0.16667047 7 8
-1.1868503 -4.2594299 -1.0208279 10 1
-1.2275022 -4.39642 -0.88726187 26 2
-2.3668735 -8.4657803 0.76906228 10 10
-1.2368653 -4.4210167 -0.72710747 19 3
-2.5583243 -9.11374 1.4992681 7 12
-2.3824577 -8.4645176 1.709267 12 13
-5.4726925 -19.404701 4.6546874 2 14
-1.1410364 -3.9976938 -1.1139573 2 0
-2.578315 -9.0213604 0.16377339 7 8
-1.2168872 -4.2550001 -1.0217277 14 1
-1.2597884 -4.3934045 -0.88840669 26 2
-2.4920325 -8.6850328 0.79050261 10 10
-1.2644266 -4.4008822 -0.72523028 13 3
-2.5707221 -8.9357367 1.141672 5 11
-1.2751576 -4.429492 -0.56596124 163 4
-2.56006 -8.8811731 1.4639139 6 12
-1.2829489 -4.44488 -0.40475124 49 5
-3.8950946 -13.486036 2.7285688 19 13
-2.5002615 -8.6453676 -0.47165167 7 6
-4.1374497 -14.28773 3.4341028 7 14
-4.4244685 -15.248982 4.254468 3 15
-1.1776079 -4.0192933 -1.1222395 7 0
-2.5995767 -8.861146 0.16119042 9 8
-1.2509542 -4.2613592 -1.0253268 8 1
-1.2948637 -4.39957 -0.8914597 21 2
-2.5137668 -8.5355482 0.77847505 19 10
-1.300707 -4.4108949 -0.72835892 13 3
-2.6606658 -8.9937849 1.4855019 8 12
-3.8753316 -13.074523 2.6507187 9 13
-2.5213466 -8.4955873 -0.46442932 8 6
-3.623153 -12.192482 2.936511 6 14
-3.4861751 -11.709075 3.2735434 2 15
-1.2028584 -4.0017233 -1.1196512 9 0
-2.6371713 -8.7623587 0.15972443 11 8
-1.2879784 -4.2767801 -1.0311756 9 1
-1.3334905 -4.4167352 -0.89680237 16 2
-2.5421803 -8.4147987 0.76906228 19 10
-1.3451947 -4.4470854 -0.7358678 3 3
-2.6889045 -8.8780746 1.138991 6 11
-2.57655 -8.4910822 1.4054073 8 12
-2.4995146 -8.2320356 -0.75267702 9 5
-3.8700061 -12.729707 2.5862253 7 13
-2.5183632 -8.2733326 -0.45322946 15 6
-3.2415953 -10.642633 2.568491 10 14
-3.4222779 -11.207761 3.139993 2 15
-1.2330421 -4.0006132 -1.1217217 9 0
-2.6466601 -8.5817804 0.15675752 12 8
-1.3459775 -4.3589215 -1.0532209 7 1
-1.3728069 -4.4375648 -0.90290827 1 2
-2.5937898 -8.3740091 0.76697052 12 10
-1.9649063 -6.3397508 -1.0512397 5 3
-2.6957355 -8.6870394 1.1168108 5 11
-2.4720037 -7.9562531 -1.0229713 5 4
-2.7328098 -8.7902498 1.4579694 3 12
-2.5284994 -8.1230717 -0.74430996 10 5
-2.3097274 -7.4111266 1.5089177 9 13
-2.5704575 -8.2426519 -0.45249674 9 6
-3.3256893 -10.651367 2.5761395 3 14
-2.6133628 -8.3596992 -0.15288308 8 7
-3.2314572 -10.330548 2.9003263 1 15
-1.2521031 -3.966336 -1.1144749 9 0
-2.6824014 -8.486825 0.15536132 13 8
-1.39442 -4.4091158 -1.0676178 7 1
-2.7173343 -8.5817099 0.47175637 11 9
-1.6796385 -5.2981014 -1.0803605 8 2
-2.5989201 -8.1928339 0.75197971 12 10
-2.007323 -6.3202314 -1.0503011 6 3
-2.7232301 -8.563961 1.1034052 6 11
-2.5044355 -7.8711438 -1.0141968 8 4
-2.7725236 -8.7031984 1.4467061 18 12
-2.5510583 -8.0031652 -0.7348972 10 5
-4.0194845 -12.594714 2.5698156 6 13
-2.5847778 -8.0894289 -0.44506502 10 6
-3.85448 -12.055885 2.9221141 15 14
-2.6415515 -8.2522049 -0.15124255 8 7
-3.3058577 -10.315096 2.9023969 4 15
-1.2803571 -3.9593363 -1.1149925 10 0
-2.6274488 -8.1201982 0.14897373 28 8
-1.4227651 -4.3918581 -1.0658182 7 1
-2.6623662 -8.2134266 0.45249674 20 9
-1.7138445 -5.2809439 -1.0792158 10 2
-2.738555 -8.4284048 0.77533752 11 10
-2.0496862 -6.304543 -1.0499883 8 3
-2.5492108 -7.8317084 1.0112718 6 11
-2.5236499 -7.7439981 -1.00006 8 4
-2.7128966 -8.3197823 1.3860096 13 12
-2.5765691 -7.892355 -0.72635597 17 5
-2.4525559 -7.5036058 1.5344861 9 13
-2.6199143 -8.0109015 -0.44171551 12 6
-3.6323197 -11.093426 2.6949136 8 14
-2.6536245 -8.0948486 -0.1486945 10 7
-3.643326 -11.107372 3.1322281 17 15
-1.303636 -3.9395249 -1.1118866 11 0
-2.6708672 -8.0617952 0.14824075 12 8
-1.4593711 -4.4024196 -1.070767 9 1
-2.7227871 -8.2041178 0.45302007 28 9
-1.75129 -5.2707138 -1.0795974 8 2
-2.7889469 -8.388772 0.77342004 10 10
-2.0842924 -6.2619653 -1.0452952 7 3
-2.7437735 -8.2336922 1.0656257 6 11
-2.5480478 -7.6418982 -0.98909163 10 4
-3.041749 -9.1119671 1.5214819 9 12
-2.5987651 -7.7759128 -0.71729177 17 5
-2.5073104 -7.4979091 1.5367758 2 13
-2.6364625 -7.8749914 -0.43522584 19 6
-3.9437778 -11.766233 2.8649766 6 14
-2.6857729 -8.0083456 -0.14743793 10 7
-3.9765816 -11.84352 3.3475657 5 15
-1.331727 -3.9321578 -1.1124043 12 0
-2.7347884 -8.0656786 0.1486596 13 8
-1.5032178 -4.4308772 -1.080215 14 1
-2.7870598 -8.2057123 0.45417148 16 9
-1.7886752 -5.2602177 -1.0799789 10 2
-2.8134308 -8.2691278 0.76418155 14 10
-2.1209514 -6.2266936 -1.0418537 7 3
-2.4648144 -7.2279401 0.93766278 6 11
-2.5564625 -7.4924116 -0.97202998 8 4
-3.0950711 -9.0606003 1.5164758 8 12
-2.6117265 -7.6369281 -0.70613581 12 5
-3.6490259 -10.664007 2.1908689 3 13
-2.6486559 -7.731689 -0.42831749 13 6
-3.3664448 -9.8158064 2.3957288 5 14
-2.7195475 -7.9250917 -0.14625116 13 7
-3.880281 -11.294764 3.2000387 7 15
-1.3559835 -3.9136379 -1.1098161 14 0
-2.7549875 -7.9424791 0.14673983 13 8
-1.5360314 -4.4257984 -1.0815647 9 1
-2.7964261 -8.0483313 0.44653043 22 9
-1.8189048 -5.2290592 -1.0761628 11 2
-2.8488231 -8.1853085 0.758255 12 10
-2.1630704 -6.2080035 -1.0412279 7 3
-2.5440178 -7.2972193 0.94887477 1 11
-2.5792706 -7.3900418 -0.96106172 15 4
-2.6281419 -7.5174127 -0.69672298 20 5
-2.683743 -7.6678567 1.5791353 6 13
-2.686718 -7.6677723 -0.42580539 21 6
-3.4344692 -9.7963419 2.3966284 0 14
-2.736398 -7.7964749 -0.14422669 15 7
-3.7983274 -10.816054 3.0716646 14 15
-1.3813018 -3.9006758 -1.1087809 10 0
-2.77825 -7.836844 0.14513421 18 8
-1.5654694 -4.413404 -1.0811148 10 1
-2.8284214 -7.9651189 0.44297159 15 9
-1.844591 -5.1888094 -1.0704385 8 2
-2.860405 -8.0418339 0.74675041 18 10
-2.2019629 -6.1838322 -1.0396636 7 3
-2.5583186 -7.1806264 0.93595666 5 11
-2.6141753 -7.3293104 -0.95545572 20 4
-2.6470752 -7.4092894 -0.68835604 20 5
-2.6803365 -7.494132 1.5470794 18 13
-2.7058578 -7.5571694 -0.42067644 15 6
-4.0386868 -11.273414 2.7646484 6 14
-2.7502489 -7.6684961 -0.14220221 26 7
-4.2170277 -11.751843 3.3454952 7 15
-1.4071631 -3.8893664 -1.1082631 9 0
-2.7947562 -7.7162218 0.14324935 27 8
-1.5941458 -4.3989816 -1.080215 10 1
-2.8478334 -7.8499279 0.43763331 20 9
-1.8805377 -5.1779795 -1.0708202 10 2
-2.3278434 -6.4061313 0.59631962 1 10
-2.2406278 -6.1594186 -1.0380992 8 3
-2.594121 -7.1234212 0.93083817 11 11
-2.6279845 -7.2124944 -0.94253755 10 4
-2.9547317 -8.1004572 1.3656731 13 12
-2.6761844 -7.3288693 -0.68260378 20 5
-2.7124207 -7.4240804 1.536394 4 13
-2.7222457 -7.442914 -0.41533819 22 6
-3.0834451 -8.4213552 2.0704496 18 14
-2.7666135 -7.551959 -0.14038716 20 7
-4.1246934 -11.246921 3.2098739 27 15
-1.4342817 -3.8794477 -1.1082631 10 0
-2.8166292 -7.6102562 0.14164373 24 8
-1.6221107 -4.3804355 -1.0784154 10 1
-2.8650784 -7.7287278 0.43198103 20 9
-1.9166404 -5.1647248 -1.0708202 10 2
-2.7151046 -7.3124146 0.68242943 14 10
-2.2766914 -6.1251101 -1.0349705 7 3
-2.7877805 -7.4921155 0.98153585 13 11
-2.6602657 -7.1456027 -0.93620038 14 4
-2.7980452 -7.5076733 1.2689966 8 12
-2.692462 -7.2166724 -0.67388821 16 5
-2.7696774 -7.4196782 1.5394472 12 13
-2.7272992 -7.2983775 -0.40832517 12 6
-3.1469405 -8.4124002 2.0735989 23 14
-2.7863228 -7.444438 -0.13874663 23 7
-4.0180688 -10.723983 3.0685589 21 15
-1.4620125 -3.8711479 -1.1087809 7 0
-2.8385742 -7.5081067 0.14010793 18 8
-1.6464472 -4.3526001 -1.0743662 9 1
-2.8913808 -7.6356931 0.42789882 26 9
-1.9498658 -5.1438746 -1.0692936 10 2
-2.7625561 -7.2839665 0.68155789 16 10
-2.3144884 -6.0961394 -1.0327804 7 3
-2.6756954 -7.0401173 0.92474467 5 11
-2.6741016 -7.032228 -0.92376971 14 4
-2.9023945 -7.6245699 1.2921488 5 12
-2.7039371 -7.0994968 -0.66464967 18 5
-2.8235054 -7.4056654 1.540592 6 13
-2.7432885 -7.1877275 -0.40319625 14 6
-3.8986225 -10.209487 2.523051 6 14
-2.8032398 -7.3332782 -0.13703629 18 7
-4.0659103 -10.625304 3.0483708 23 15
-1.4903923 -3.8644512 -1.1098161 7 0
-2.8543401 -7.3971949 0.13839759 15 8
-1.676793 -4.3410001 -1.0743662 10 1
-2.900809 -7.5059195 0.42172319 33 9
-1.9791666 -5.1158357 -1.0662408 10 2
-2.7903147 -7.2050495 0.67597991 28 10
-2.3602126 -6.0912957 -1.0346577 10 3
-2.8900962 -7.4511147 0.98129201 13 11
-2.6886425 -6.9245639 -0.91207021 14 4
-2.5150256 -6.4740696 1.1000473 6 12
-2.7281606 -7.0154543 -0.65854877 13 5
-2.9698598 -7.6290984 1.5913471 38 13
-2.7725785 -7.118639 -0.40037012 21 6
-4.1651783 -10.683133 2.6472239 7 14
-2.8245587 -7.2371531 -0.1356052 22 7
-4.1585169 -10.64957 3.0633824 15 15
-1.5088811 -3.8344426 -1.1041222 6 0
-2.8795278 -7.3101082 0.137141 14 8
-1.7041589 -4.3240466 -1.0730165 10 1
-2.9333496 -7.4353223 0.41889706 30 9
-2.0105069 -5.0909376 -1.063951 11 2
-2.9681528 -7.5120158 0.70665878 15 10
-2.4063115 -6.0838552 -1.0362221 8 3
-2.7476621 -6.9398026 0.91645753 7 11
-2.706471 -6.8322802 -0.90232068 14 4
-2.919138 -7.3616381 1.2542918 19 12
-2.7471955 -6.9244947 -0.65175062 20 5
-3.041285 -7.6579719 1.6016507 6 13
-2.7963843 -7.0341496 -0.39670658 19 6
-4.1304851 -10.384729 2.5801885 6 14
-2.8278925 -7.1025724 -0.13344111 23 7
-1.5406529 -3.8363643 -1.1077455 6 0
-2.8971615 -7.2105513 0.1356401 22 8
-1.7335776 -4.3102365 -1.0725666 12 1
-2.9324448 -7.2873344 0.41167465 22 9
-2.0436461 -5.0734921 -1.0631877 10 2
-2.977309 -7.3839374 0.6965487 22 10
-2.4299312 -6.0233684 -1.0287131 8 3
-2.5554903 -6.3282423 0.83797371 3 11
-2.7243438 -6.7396026 -0.89257115 13 4
-2.768554 -6.8386631 -0.64547539 18 5
-2.9036994 -7.1652961 1.5028118 9 13
-2.8186836 -6.9520221 -0.39314777 19 6
-4.0739026 -10.03784 2.5010059 10 14
-2.849561 -7.0141096 -0.13214962 23 7
-4.2234817 -10.390778 3.0054069 3 15
-1.557945 -3.8043356 -1.1015339 6 0
-2.918608 -7.1198397 0.13431372 19 8
-1.7613971 -4.2947307 -1.0716668 13 1
-2.9278769 -7.1318088 0.40403363 47 9
-2.0760305 -5.0518384 -1.0616612 10 2
-3.0032568 -7.3045335 0.69097072 16 10
-2.4651554 -5.9898176 -1.0258973 7 3
-2.7414103 -6.6511607 -0.88330907 19 4
-2.5653098 -6.2177477 1.0653188 5 12
-2.7823508 -6.7404685 -0.63797998 15 5
-2.9599009 -7.1635103 1.5066279 18 13
-2.8282182 -6.838047 -0.38780949 13 6
-2.8681581 -6.9243469 -0.13082324 32 7
-4.2108307 -10.155818 2.9458785 15 15
-1.579999 -3.782671 -1.0984281 9 0
-2.9315343 -7.0149355 0.1327081 18 8
-1.7860726 -4.2697439 -1.0685174 10 1
-2.9632447 -7.0803933 0.40225419 22 9
-2.1043007 -5.0231042 -1.0586084 10 2
-3.030293 -7.2264295 0.68556702 29 10
-2.5043414 -5.9692559 -1.0252717 7 3
-2.959938 -7.0482998 0.93863773 7 11
-2.7270055 -6.4872918 -0.86405367 11 4
-2.5899599 -6.1582618 1.0581229 2 12
-2.7945516 -6.638247 -0.63013601 18 5
-3.0182257 -7.1625729 1.5108256 11 13
-2.8397822 -6.7358198 -0.38309923 18 6
-4.3520837 -10.312868 2.5842378 19 14
-2.8930845 -6.8488922 -0.12977609 26 7
-4.2738442 -10.112685 2.9417374 17 15
-1.6026828 -3.7647185 -1.0963575 11 0
-2.9334009 -6.8839207 0.1306138 37 8
-1.8143299 -4.2556958 -1.0680676 9 1
-2.9796784 -6.9823804 0.39785796 16 9
-2.1362319 -5.0010691 -1.0570819 10 2
-2.926733 -6.8483772 0.65157634 18 10
-2.5389614 -5.9352813 -1.0224558 7 3
-2.9918814 -6.9873176 0.93327552 8 11
-2.741396 -6.399241 -0.85479164 11 4
-3.0330379 -7.0731988 1.2189375 5 12
-2.8188236 -6.5673108 -0.62525529 19 5
-2.6571107 -6.1875691 1.3089497 6 13
-2.8520324 -6.6350942 -0.37849367 19 6
-4.3161483 -10.031622 2.5212514 19 14
-2.9080107 -6.7555714 -0.12837991 25 7
-4.3451047 -10.084375 2.9422553 18 15
-1.6181594 -3.7286277 -1.0891106 11 0
-2.9415505 -6.7715683 0.12886856 44 8
-1.8447727 -4.2447124 -1.0685174 10 1
-2.9901078 -6.8734984 0.39283374 41 9
-2.1663911 -4.9752336 -1.0547922 10 2
-2.9768596 -6.8332572 0.65209925 25 10
-2.5787559 -5.9137902 -1.0218301 8 3
-2.7764702 -6.3581157 -0.85186678 16 4
-2.5783775 -5.8988667 1.01964 10 12
-2.836652 -6.4835854 -0.61915439 23 5
-4.9399476 -11.285612 2.3946528 2 13
-2.8606133 -6.5290413 -0.37357411 16 6
-4.4549518 -10.158296 2.5608428 10 14
-2.911715 -6.63622 -0.12649503 23 7
-4.3920965 -10.000731 2.9267259 19 15
-1.6363358 -3.6995728 -1.0839342 18 0
-2.9717534 -6.7124686 0.12813558 23 8
-1.871204 -4.2246032 -1.0667179 10 1
-3.0080695 -6.7848988 0.38896087 32 9
-2.2002065 -4.9603724 -1.0547922 10 2
-3.0544038 -6.8796854 0.65854877 18 10
-2.6143634 -5.8830066 -1.01964 7 3
-2.6000276 -5.8479967 0.78581363 21 11
-2.8086843 -6.3113737 -0.84821075 14 4
-3.53843 -7.9474425 1.377875 6 12
-2.8563876 -6.4095306 -0.61392504 22 5
-2.8488145 -6.386539 1.3593234 6 13
-2.8838255 -6.461998 -0.37085262 16 6
-4.7902503 -10.723799 2.71156 24 14
-2.9307098 -6.5578265 -0.12537809 27 7
-4.4837313 -10.023509 2.9422553 21 15
-1.6622735 -3.6901102 -1.0844518 14 0
-3.0005951 -6.6579728 0.12747237 31 8
-1.8951088 -4.2011104 -1.0640185 11 1
-3.0415006 -6.7393126 0.38749546 30 9
-2.2274532 -4.9309678 -1.0517392 10 2
-3.0855656 -6.8242416 0.65523684 16 10
-2.6362257 -5.8277426 -1.0130697 8 3
-2.8886847 -6.3799052 0.85991013 5 11
-2.8324604 -6.2528262 -0.84284848 14 4
-3.2131326 -7.0865989 1.2323909 9 12
-2.8480768 -6.2756395 -0.60294342 17 5
-2.8691936 -6.3192382 1.3490196 8 13
-2.9046066 -6.3913064 -0.3679218 14 6
-4.466042 -9.8225422 2.4911079 17 14
-2.956229 -6.4958634 -0.12457528 33 7
-4.5190215 -9.9206762 2.9210317 26 15
-1.6851003 -3.6754925 -1.0834166 14 0
-3.0099823 -6.5592432 0.12597147 20 8
-1.9229295 -4.1884494 -1.0640185 10 1
-3.0572798 -6.653121 0.38372725 13 9
-2.260107 -4.9160862 -1.0517392 10 2
-2.8076038 -6.1013646 0.58760399 30 10
-2.6733532 -5.8042812 -1.0121311 10 3
-2.9151485 -6.3263521 0.85527909 4 11
-2.8441942 -6.1667056 -0.83383012 14 4
-3.17978 -6.891151 1.2020426 15 12
-2.8503726 -6.1715989 -0.59475076 21 5
-2.9170837 -6.3102546 1.3513094 12 13
-2.9159114 -6.3048291 -0.36404896 19 6
-4.5802794 -9.8944855 2.5172024 15 14
-2.9664717 -6.4053469 -0.12321399 25 7
-4.5375953 -9.7888308 2.8910089 12 15
-1.7108965 -3.6656876 -1.0839342 13 0
-3.0060396 -6.4376698 0.12401681 21 8
-1.9489199 -4.1699672 -1.0626688 10 1
-3.0674992 -6.560328 0.37954038 21 9
-2.2885246 -4.8899202 -1.0494496 10 2
-2.8456888 -6.0748959 0.58690673 37 10
-2.7059221 -5.7739019 -1.009941 7 3
-3.0997701 -6.6082921 0.89622724 24 11
-2.8394909 -6.0506654 -0.82066822 11 4
-3.157747 -6.722734 1.1763873 11 12
-2.8745124 -6.1141901 -0.59109026 23 5
-2.7817218 -5.9141407 1.2704064 5 13
-2.9315369 -6.2270103 -0.36069945 19 6
-4.7155509 -10.011981 2.5549941 4 14
-2.9639575 -6.2873321 -0.12132913 26 7
-4.6280255 -9.8083858 2.9060204 12 15
-1.7302517 -3.6373472 -1.0792755 13 0
-3.0362165 -6.3770127 0.1232838 26 8
-1.9777588 -4.1520505 -1.061769 9 1
-3.0908613 -6.4830365 0.37640023 21 9
-2.315012 -4.8513441 -1.0448701 11 2
-2.8309157 -5.92981 0.57487923 8 10
-2.7525852 -5.7605615 -1.0111924 7 3
-2.9814069 -6.2338424 0.84845448 5 11
-2.8548329 -5.9665117 -0.81213742 14 4
-3.2746625 -6.8378119 1.2007911 25 12
-2.9011755 -6.055222 -0.5874297 25 5
-2.8022587 -5.8435311 1.259721 12 13
-2.9444799 -6.1346111 -0.35661724 16 6
-4.5670118 -9.5107841 2.43577 1 14
-2.9746776 -6.1892133 -0.11986313 22 7
-4.5574622 -9.4739428 2.8169866 5 15
-1.7471827 -3.6077921 -1.0740991 13 0
-3.0525229 -6.3004112 0.12220175 24 8
-2.0109477 -4.1469088 -1.0640185 10 1
-3.1087637 -6.4079399 0.37326008 23 9
-2.3496947 -4.8390069 -1.0456334 10 2
-2.8539555 -5.8722711 0.57121873 28 10
-2.7727292 -5.7026086 -1.0043093 8 3
-2.9221385 -6.0045648 0.81993699 7 11
-2.8799012 -5.9125276 -0.80750632 21 4
-2.9180496 -5.9828887 -0.58237463 20 5
-2.8421247 -5.8220611 1.2593395 8 13
-2.9493568 -6.0390511 -0.35222104 21 6
-4.601634 -9.4138908 2.4191236 5 14
-3.0125396 -6.1575184 -0.1196537 32 7
-4.9632587 -10.140233 3.0250771 16 15
-1.7759691 -3.6044807 -1.0766873 12 0
-3.0725536 -6.2305231 0.12125932 27 8
-2.0330927 -4.1208916 -1.0608691 9 1
-3.1162829 -6.3108659 0.36886385 22 9
-2.3816803 -4.818965 -1.0448701 10 2
-3.1720304 -6.4152985 0.62612689 22 10
-2.8063388 -5.6707196 -1.0021193 7 3
-2.9770336 -6.013 0.8238368 4 11
-2.9033332 -5.8589926 -0.80287528 14 4
-2.9315329 -5.9107137 1.0449823 1 12
-2.9330246 -5.9111295 -0.57731962 18 5
-2.9026461 -5.8447804 1.2684983 11 13
-2.96122 -5.9575043 -0.34866217 23 6
-2.7158911 -5.4615502 1.4081936 4 14
-3.0347803 -6.0974851 -0.11888579 26 7
-4.9400311 -9.921176 2.9696898 4 15
-1.8004621 -3.592309 -1.0766873 11 0
-3.0691643 -6.1183071 0.11947917 34 8
-2.0575995 -4.0999904 -1.0590695 9 1
-3.1197228 -6.210978 0.36425829 18 9
-2.4100177 -4.7938714 -1.042962 8 2
-3.1654923 -6.2938819 0.61636543 19 10
-2.8368795 -5.6356063 -0.99930352 8 3
-3.010751 -5.9784131 0.82188696 21 11
-2.9074063 -5.7681894 -0.79312575 14 4
-3.0704565 -6.0863895 1.0797108 8 12
-2.9381807 -5.82166 -0.57052147 16 5
-3.0733693 -6.0842395 1.3249778 6 13
-2.9746685 -5.8837376 -0.34552202 25 6
-2.7574003 -5.4516325 1.4104432 7 14
-3.0455067 -6.016027 -0.11769903 24 7
-4.7412333 -9.3616734 2.8118103 28 15
-1.8283818 -3.5868547 -1.0787579 11 0
-3.0362196 -5.95121 0.11661698 48 8
-2.0757143 -4.0667968 -1.0541207 10 1
-3.1328523 -6.1326828 0.36090881 36 9
-2.4327605 -4.7581282 -1.0387642 10 2
-3.1728749 -6.2030101 0.60956728 21 10
-2.8706732 -5.6073737 -0.99773914 10 3
-3.005343 -5.8653808 0.80921251 11 11
-2.923058 -5.7023358 -0.78678852 19 4
-3.0757456 -5.9950457 1.0671961 16 12
-2.9651005 -5.7744198 -0.5679068 18 5
-5.1995602 -10.121596 2.211858 21 13
-3.0055153 -5.845592 -0.3444753 25 6
-3.8725328 -7.5254416 1.9539249 8 14
-3.0259748 -5.8778152 -0.11539531 21 7
-4.8250542 -9.3644094 2.8226805 18 15
-1.8453741 -3.5585678 -1.0740991 10 0
-3.0970366 -5.9671416 0.11734998 29 8
-2.1103408 -4.0643139 -1.0572699 9 1
-3.1009879 -5.9671121 0.35243034 20 9
-2.4613898 -4.7323198 -1.0368562 10 2
-3.1498861 -6.0534534 0.59701681 23 10
-2.8933251 -5.5556607 -0.99210751 10 3
-3.1480644 -6.0396519 0.83626753 19 11
-2.9315898 -5.6219454 -0.77850145 19 4
-3.1412873 -6.018959 1.0753307 15 12
-2.9776678 -5.7005992 -0.56267744 24 5
-3.1105931 -5.9525461 1.3055153 5 13
-3.0147805 -5.7642927 -0.34091645 19 6
-3.9782972 -7.6000872 1.9804692 14 14
-3.0455992 -5.8158021 -0.11459251 30 7
-4.8544397 -9.2620535 2.801975 15 15
-1.8683702 -3.5421808 -1.0730639 10 0
-3.1236827 -5.9170799 0.11679151 37 8
-2.1359332 -4.044312 -1.0559202 10 1
-3.1668377 -5.9912271 0.35515183 20 9
-2.4952855 -4.7167563 -1.0372378 11 2
-3.1771572 -6.0031409 0.59422785 28 10
-2.9024518 -5.4794664 -0.98209572 10 3
-3.1594691 -5.9596496 0.82822412 23 11
-2.9549534 -5.5715289 -0.77435786 12 4
-3.1248822 -5.8869591 1.0556198 11 12
-2.9958425 -5.6414866 -0.5588426 23 5
-2.6923003 -5.0656133 1.1150879 6 13
-3.0249343 -5.6866798 -0.33756694 19 6
-4.8712616 -9.153801 2.393929 6 14
-3.0654461 -5.755569 -0.1138246 31 7
-1.8930538 -3.5290508 -1.0730639 10 0
-3.1307902 -5.8340111 0.11556984 23 8
-2.1585834 -4.019001 -1.0532209 10 1
-3.1508248 -5.8639703 0.34887153 12 9
-2.5226843 -4.6910162 -1.0353296 8 2
-3.134006 -5.822916 0.57853985 28 10
-2.9078412 -5.4004478 -0.9714582 11 3
-2.8345737 -5.2599759 0.73365355 6 11
-2.9711623 -5.5088315 -0.76850814 16 4
-3.2558677 -6.0341835 1.0859681 15 12
-3.0114868 -5.5766072 -0.55448484 20 5
-4.0801978 -7.5493155 1.6680523 6 13
-3.0369728 -5.6167655 -0.33463615 19 6
-3.1070125 -5.7415075 1.5071721 1 14
-3.0931711 -5.7111697 -0.11337084 28 7
-3.814718 -7.0404811 2.1456099 6 15
-1.9179552 -3.5177798 -1.0735815 11 0
-3.1427073 -5.7593508 0.11452269 32 8
-2.1821549 -3.9973729 -1.0514213 10 1
-3.172533 -5.8067765 0.34677809 23 9
-2.550663 -4.6646776 -1.0334216 10 2
-3.2223339 -5.8905935 0.5874297 23 10
-2.9236543 -5.3401637 -0.96426219 15 3
-2.8578715 -5.2156863 0.73024112 31 11
-2.9828279 -5.4414806 -0.76192719 19 4
-3.3558731 -6.11695 1.1050532 13 12
-3.0186996 -5.5000873 -0.54890686 13 5
-2.8015854 -5.1002827 1.1311158 15 13
-3.0530186 -5.5534215 -0.33212399 21 6
-3.3094258 -6.0173368 1.5854551 4 14
-3.0991888 -5.6304207 -0.11218407 26 7
-5.0038009 -9.0830936 2.7786813 5 15
-1.9396576 -3.4992354 -1.0720285 11 0
-3.1459558 -5.6731205 0.11323121 17 8
-2.2081163 -3.9786339 -1.0505214 10 1
-3.1925962 -5.7501235 0.34468466 28 9
-2.5728183 -4.6300473 -1.0296054 10 2
-3.0677691 -5.5162258 0.55221879 33 10
-2.9340038 -5.2735329 -0.95581466 10 3
-3.038166 -5.456265 0.76680195 11 11
-2.9965854 -5.3771734 -0.75583369 16 4
-3.2310233 -5.7954783 1.0509269 15 12
-3.0356667 -5.4406018 -0.54507202 14 5
-2.8323381 -5.0720291 1.1292077 28 13
-3.0771117 -5.5081005 -0.33065861 29 6
-3.5073195 -6.2730389 1.6592389 4 14
-3.1052206 -5.549314 -0.1109973 23 7
-5.0409756 -9.0049973 2.765223 10 15
-1.959639 -3.4792187 -1.069958 10 0
-3.1668274 -5.6179209 0.11256802 22 8
-2.235147 -3.9635115 -1.0505214 10 1
-3.2081184 -5.6842117 0.34206784 25 9
-2.5983205 -4.6000071 -1.0269341 10 2
-3.0974042 -5.4813395 0.55082428 57 10
-2.9435208 -5.2047758 -0.94705439 13 3
-3.1368067 -5.5420318 0.78191376 11 11
-3.0106196 -5.3169227 -0.75022775 17 4
-3.0707767 -5.4187489 0.98647583 15 12
-3.0480194 -5.3742161 -0.54053992 16 5
-2.9171762 -5.1414251 1.1490518 10 13
-3.0898488 -5.441328 -0.32793713 21 6
-3.0416749 -5.3521414 1.4212408 7 14
-3.0747261 -5.4081011 -0.10858887 49 7
-3.813936 -6.7028422 2.0664113 6 15
-1.9800416 -3.4587469 -1.0678874 10 0
-2.8938239 -5.0508566 0.10160792 11 8
-2.2588868 -3.9410479 -1.0487218 10 1
-3.2169161 -5.6079702 0.33882302 19 9
-2.6303713 -4.5817552 -1.0269341 8 2
-3.2477233 -5.6548138 0.57052147 25 10
-2.9581285 -5.1464224 -0.94017124 13 3
-3.2051163 -5.5716186 0.78922594 22 11
-3.0209312 -5.249321 -0.7436468 16 4
-2.9537449 -5.1284328 0.9373554 13 12
-3.0556145 -5.3010216 -0.53531057 19 5
-2.9618247 -5.1362414 1.1524864 13 13
-3.1018043 -5.3746481 -0.32521567 19 6
-3.0058649 -5.204215 1.3874981 7 14
-3.1114066 -5.3847718 -0.10855397 43 7
-3.8422635 -6.644278 2.0565763 11 15
-2.0021961 -3.4414999 -1.0668522 11 0
-3.1765368 -5.4556451 0.11019449 22 8
-2.2814405 -3.9167633 -1.0464723 9 1
-2.9763579 -5.1056919 0.30972421 9 9
-2.6603148 -4.5598884 -1.0261708 8 2
-3.2579968 -5.5821013 0.56546646 21 10
-2.9820287 -5.1051764 -0.9364168 13 3
-2.9905801 -5.1177645 0.72780377 13 11
-3.0314493 -5.1835499 -0.73730958 16 4
-2.8128617 -4.8059311 0.88197768 18 12
-3.0735049 -5.2491527 -0.53217298 18 5
-3.0085282 -5.1340709 1.1566842 7 13
-3.1028757 -5.2908411 -0.32144746 23 6
-3.0471361 -5.1937189 1.3901975 8 14
-3.1479096 -5.3611956 -0.10851907 32 7
-3.893271 -6.6279645 2.0596819 28 15
-2.0304892 -3.4361074 -1.0694402 12 0
-3.1871312 -5.3891463 0.10928696 23 8
-2.3020947 -3.8910801 -1.0437729 9 1
-3.2003124 -5.404973 0.3291932 34 9
-2.6882877 -4.5366082 -1.025026 10 2
-3.168916 -5.3455625 0.54367751 55 10
-3.002599 -5.0609756 -0.93203664 10 3
-3.1854272 -5.3670068 0.76631445 25 11
-3.0534837 -5.1406083 -0.73414099 20 4
-2.8364248 -4.7713909 0.87916183 13 12
-3.0989795 -5.2109857 -0.53042984 25 5
-3.124737 -5.2501254 1.1875952 18 13
-3.1245086 -5.245575 -0.31998208 35 6
-3.0514941 -5.1209612 1.3762506 6 14
-3.1576996 -5.2949901 -0.10761154 31 7
-3.9798648 -6.6709919 2.081423 6 15
-2.0498548 -3.4155807 -1.0673697 11 0
-3.2021186 -5.3313279 0.10855397 19 8
-2.3285267 -3.87532 -1.0437729 10 1
-3.2236481 -5.3608127 0.32783246 27 9
-2.7120192 -4.5064297 -1.0223546 8 2
-3.2576385 -5.4109206 0.55256736 27 10
-3.0186269 -5.0099654 -0.92640501 9 3
-3.1377378 -5.2035418 0.74608415 20 11
-3.0545654 -5.0636129 -0.72609758 17 4
-2.8657732 -4.746901 0.87822318 22 12
-3.0942068 -5.1232576 -0.52363169 26 5
-3.171571 -5.2472172 1.1917931 6 13
-3.1384332 -5.1882977 -0.31778398 22 6
-3.1649761 -5.2301159 1.4113429 3 14
-3.1615555 -5.2203488 -0.10652949 23 7
-3.0190041 -4.9810438 1.5606788 9 15
-2.0676153 -3.3912907 -1.0642639 11 0
-3.2237556 -5.2855072 0.1080653 28 8
-2.3545086 -3.857306 -1.0433229 14 1
-3.2600634 -5.3387456 0.32783246 24 9
-2.7375121 -4.4794888 -1.0204465 10 2
-3.2527137 -5.3183589 0.54542065 34 10
-3.0114207 -4.9219022 -0.9138903 9 3
-3.2425377 -5.2954898 0.76241469 8 11
-3.0722094 -5.013391 -0.72195405 12 4
-2.9052448 -4.7390733 0.88041329 14 12
-3.1038492 -5.0590754 -0.51927388 13 5
-3.256407 -5.3035808 1.2097291 15 13
-3.15904 -5.1429901 -0.31631854 38 6
-3.1228302 -5.0800624 1.3767005 4 14
-3.1769667 -5.1640854 -0.10583139 24 7
-4.2334728 -6.8787212 2.1642449 2 15
-2.0865841 -3.3705683 -1.0621934 11 0
-3.2405674 -5.2305751 0.10740211 30 8
-2.3878975 -3.8527849 -1.0464723 9 1
-3.2740951 -5.2785168 0.32552966 31 9
-2.7676816 -4.458601 -1.0200649 8 2
-3.3056567 -5.3231764 0.54820961 24 10
-3.0144274 -4.8504248 -0.90450418 10 3
-3.3622525 -5.40589 0.78167003 10 11
-3.086338 -4.9603391 -0.71732301 10 4
-3.2546387 -5.2267628 0.97521257 18 12
-3.1211791 -5.0085373 -0.51631063 12 5
-3.2124586 -5.1530089 1.1803445 15 13
-3.1441224 -5.039474 -0.31129432 19 6
-3.2118886 -5.1440926 1.4000953 4 14
-3.1908555 -5.1084213 -0.1051333 24 7
-6.7646174 -10.821451 3.4195175 8 15
-2.1059508 -3.3493772 -1.0601228 12 0
-3.2418582 -5.1519718 0.10625025 33 8
-2.4043543 -3.8195291 -1.0419734 9 1
-3.2821209 -5.2099042 0.32270354 20 9
-2.7914121 -4.4275455 -1.0173936 8 2
-3.32148 -5.2662654 0.54472339 28 10
-3.0313456 -4.8025365 -0.89949834 11 3
-3.3511441 -5.3050838 0.7704581 6 11
-3.0954418 -4.898397 -0.71147329 9 4
-3.3100545 -5.2339654 0.98084426 16 12
-3.1358244 -4.9546375 -0.5129987 13 5
-3.0614142 -4.8352013 1.1124165 11 13
-3.1578479 -4.9836593 -0.30920088 22 6
-3.2779875 -5.16927 1.4131424 3 14
-3.2093017 -5.0590029 -0.10457481 27 7
-4.4367852 -6.9885597 2.2180793 5 15
-2.1334414 -3.3411062 -1.0621934 12 0
-3.2529805 -5.0904584 0.10544744 24 8
-2.4320104 -3.804292 -1.0424232 10 1
-3.2689009 -5.1094732 0.31788865 21 9
-2.8180194 -4.4013362 -1.0158671 11 2
-3.3323739 -5.202683 0.54053992 28 10
-3.0477433 -4.7546477 -0.89449239 11 3
-3.3625298 -5.2437177 0.76485211 13 11
-3.0888212 -4.8131824 -0.7022112 12 4
-3.3934817 -5.2838616 0.99461043 13 12
-3.1533217 -4.9080358 -0.51038402 15 5
-3.1110225 -4.8384814 1.1181407 15 13
-3.1720288 -4.9295797 -0.30721208 25 6
-3.3879879 -5.2631783 1.4450855 9 14
-3.2261319 -5.0078964 -0.10398144 25 7
-4.4926243 -6.971189 2.2222204 8 15
-2.1582358 -3.3297491 -1.0632287 12 0
-3.2625244 -5.029613 0.10464463 21 8
-2.4536061 -3.7811108 -1.0406237 11 1
-3.2851117 -5.0586281 0.31610921 20 9
-2.8372147 -4.365591 -1.012051 11 2
-3.3438182 -5.1431313 0.53670508 22 10
-3.071418 -4.7205458 -0.89198941 11 3
-3.3797355 -5.1924248 0.76070851 15 11
-3.0998423 -4.7587795 -0.69733644 17 4
-3.3344378 -5.1150184 0.96707797 15 12
-3.1638024 -4.8514104 -0.50672346 10 5
-3.0376568 -4.654429 1.0803605 11 13
-3.1803889 -4.8694148 -0.30480465 20 6
-3.2169452 -4.9235077 1.3578045 5 14
-3.2163701 -4.9188747 -0.10258525 20 7
-5.989841 -9.156929 2.9319022 26 15
-2.1638618 -3.2891591 -1.0549464 12 0
-3.2702944 -4.9672031 0.10380692 21 8
-2.4814291 -3.7675772 -1.0415233 10 1
-3.3117745 -5.024477 0.31537652 23 9
-2.8603785 -4.3363442 -1.0097612 11 2
-3.3392441 -5.0603848 0.53042984 26 10
-3.086062 -4.6731558 -0.88698351 10 3
-3.4005806 -5.1455183 0.75729614 12 11
-3.1135514 -4.7094188 -0.6931929 16 4
-3.0094788 -4.5485516 0.86383122 6 12
-3.153863 -4.7649679 -0.49992532 12 5
-3.1050458 -4.6876574 1.0929539 22 13
-3.2013216 -4.8293409 -0.30365324 21 6
-3.1706862 -4.7813144 1.3245119 6 14
-3.2199214 -4.851882 -0.10164282 24 7
-4.5220475 -6.8088093 2.1901269 6 15
-2.1867716 -3.2739723 -1.0549464 12 0
-3.2795868 -4.9082494 0.10303901 24 8
-2.5109212 -3.755022 -1.042873 12 1
-3.3203559 -4.9636369 0.31296906 31 9
-2.889828 -4.3167744 -1.0097612 11 2
-3.341223 -4.9872913 0.52520049 33 10
-3.0683098 -4.5782008 -0.87290442 6 3
-3.4089882 -5.082685 0.75144643 10 11
-3.1297579 -4.6628451 -0.68953681 13 4
-3.1769171 -4.731318 0.90262699 22 12
-3.1637158 -4.7081056 -0.49626479 13 5
-3.1957607 -4.7522097 1.1131797 30 13
-3.2162826 -4.7809243 -0.3019785 21 6
-3.2475212 -4.8237238 1.342508 5 14
-3.2414241 -4.8110414 -0.10125886 26 7
-5.9891982 -8.8860426 2.8713386 16 15
-2.2079222 -3.2574124 -1.0544289 14 0
-3.281219 -4.8372421 0.10202677 26 8
-2.5265744 -3.7233305 -1.038824 10 1
-3.3268762 -4.8990278 0.31035227 16 9
-2.9221013 -4.2997422 -1.0105245 10 2
-3.3112419 -4.8705163 0.51526475 23 10
-3.0813067 -4.5289035 -0.86758566 9 3
-3.3762386 -4.9586697 0.73657835 8 11
-3.1480141 -4.6217451 -0.68661195 18 4
-2.9895744 -4.385839 0.84067887 14 12
-3.1743627 -4.6551862 -0.49295285 11 5
-3.1040919 -4.5487223 1.0704385 23 13
-3.2056518 -4.6940303 -0.2978963 19 6
-3.2605538 -4.7690578 -0.10084001 26 7
-4.3798671 -6.4014268 2.0783172 10 15
-2.2338948 -3.2466936 -1.0559818 12 0
-3.2845907 -4.7719684 0.10111924 30 8
-2.5458741 -3.6959722 -1.0361246 10 1
-3.3318141 -4.8351541 0.30773544 18 9
-2.9457285 -4.2716713 -1.0086164 13 2
-3.2998974 -4.7816882 0.50829226 36 10
-3.1008401 -4.4915686 -0.86445701 10 3
-3.3873446 -4.9029098 0.73170358 11 11
-3.1553669 -4.5637331 -0.68124968 12 4
-3.0957685 -4.4758639 0.86195397 9 12
-3.1863725 -4.6034241 -0.48981526 11 5
-3.1782525 -4.5882692 1.0849401 13 13
-3.1954386 -4.6113605 -0.29402342 14 6
-3.4303231 -4.9466324 1.3897476 7 14
-3.2664051 -4.7067509 -0.1000023 23 7
-4.4013047 -6.3397279 2.0679643 21 15
-2.260931 -3.237354 -1.0580523 12 0
-3.3152158 -4.7434254 0.10101452 23 8
-2.5716147 -3.6781087 -1.0361246 10 1
-3.3377025 -4.770278 0.30511865 22 9
-2.9627073 -4.231184 -1.0040369 12 2
-3.3857796 -4.833601 0.51631063 21 10
-3.1215625 -4.4530888 -0.86132824 11 3
-3.4075222 -4.8574185 0.728535 13 11
-3.1666255 -4.5123453 -0.67686242 9 4
-3.2560053 -4.6362667 0.89730817 24 12
-3.2035434 -4.5598736 -0.48754922 13 5
-3.2960234 -4.6880279 1.113943 9 13
-3.2203097 -4.576942 -0.2932907 20 6
-3.6206813 -5.1440721 1.452284 4 14
-3.2726991 -4.6462312 -0.099199481 23 7
-2.2723045 -3.2057309 -1.052876 11 0
-3.3219802 -4.6848631 0.10024662 28 8
-2.5927181 -3.6537089 -1.0343249 11 1
-3.3585339 -4.7311616 0.30407193 26 9
-2.9857547 -4.2029171 -1.002129 11 2
-3.3836548 -4.7595067 0.51090699 25 10
-3.1357732 -4.4092007 -0.85694808 10 3
-3.3771975 -4.7451615 0.71512938 15 11
-3.177321 -4.4610238 -0.6724751 9 4
-3.460573 -4.8569236 0.94455141 20 12
-3.2029114 -4.4919744 -0.48266849 13 5
-3.238584 -4.5386519 1.0837952 22 13
-3.2421067 -4.5419116 -0.29245335 24 6
-3.2928936 -4.6096563 1.3078654 8 14
-3.2841232 -4.5939879 -0.098571189 24 7
-5.3603001 -7.4954777 2.4691339 15 15
-2.2918167 -3.1870525 -1.0518407 11 0
-3.3289089 -4.6258488 0.099478714 31 8
-2.617528 -3.6359761 -1.0343249 10 1
-3.3611279 -4.6654663 0.30135047 20 9
-3.0069859 -4.1708236 -0.9994576 8 2
-3.379844 -4.6862702 0.5055033 28 10
-3.1410449 -4.351964 -0.85006499 11 3
-3.4509237 -4.777791 0.72366023 12 11
-3.1785467 -4.3990688 -0.66638166 9 4
-3.4666169 -4.7942281 0.93704253 20 12
-3.2065556 -4.4329391 -0.4786593 15 5
-3.3937311 -4.6882572 1.1250099 17 13
-3.2549887 -4.4932871 -0.29077861 16 6
-3.3321991 -4.5981817 1.3110147 8 14
-3.2847943 -4.529438 -0.097663663 20 7
-5.1810188 -7.1389189 2.3635354 10 15
-2.3117325 -3.1678545 -1.0508054 11 0
-3.3343797 -4.5675497 0.098710813 18 8
-2.6359503 -3.6081731 -1.0316256 10 1
-3.3692377 -4.610229 0.29925704 22 9
-3.0364649 -4.1518435 -0.99983919 11 2
-3.3442283 -4.5693088 0.49539325 44 10
-3.1554246 -4.3097625 -0.84599775 13 3
-3.3848126 -4.6196837 0.70318621 12 11
-3.1868784 -4.3463545 -0.66175061 17 4
-3.43608 -4.6845078 0.92014766 23 12
-3.2244558 -4.3927789 -0.47674191 17 5
-3.321774 -4.5220485 1.0906643 5 13
-3.26894 -4.4484963 -0.2893132 24 6
-3.0894468 -4.2011614 1.203938 6 14
-3.3139648 -4.5031748 -0.097593859 23 7
-3.1244097 -4.2440462 1.4121168 3 15
-2.3343911 -3.1535983 -1.0513231 10 0
-3.3519011 -4.5248785 0.098291956 30 8
-2.6511679 -3.577621 -1.0280263 10 1
-3.3704088 -4.5448842 0.29653555 19 9
-3.0677154 -4.1336975 -1.0006025 10 2
-3.4156327 -4.6008306 0.50131983 23 10
-3.160696 -4.2543297 -0.83942741 12 3
-3.3956623 -4.5672655 0.69879889 16 11
-3.195065 -4.2958899 -0.6573633 18 4
-3.4368553 -4.61762 0.91170013 18 12
-3.235244 -4.3451595 -0.47395292 17 5
-3.3372285 -4.4788675 1.0857033 14 13
-3.2700694 -4.3855376 -0.2866964 23 6
-3.0643744 -4.108181 1.1832426 6 14
-3.3218117 -4.4500661 -0.096930668 20 7
-3.8002462 -5.0872965 1.7014765 20 15
-2.3563507 -3.1372244 -1.0513231 10 0
-3.3622022 -4.4747801 0.097698569 17 8
-2.6784215 -3.5621409 -1.0289261 10 1
-3.3796551 -4.4931073 0.29465145 21 9
-3.0816131 -4.0938978 -0.996023 11 2
-3.4296865 -4.5530024 0.49870515 28 10
-3.1729381 -4.2106304 -0.8350473 9 3
-3.4469907 -4.5709901 0.70294243 15 11
-3.2034543 -4.2449579 -0.65297598 19 4
-3.5562809 -4.7107849 0.93485248 13 12
-3.2522893 -4.3049808 -0.4720355 15 5
-3.2358103 -4.2800608 1.042962 5 13
-3.2697256 -4.3233528 -0.28407961 18 6
-3.3470044 -4.4223242 1.2804214 8 14
-3.3214071 -4.3853211 -0.096023142 29 7
-3.3646255 -4.440773 1.4928683 9 15
-2.3694558 -3.1103554 -1.0476996 11 0
-3.381237 -4.4352956 0.097349517 22 8
-2.7002425 -3.5407279 -1.0280263 10 1
-3.3988233 -4.4535265 0.29360473 20 9
-3.1041605 -4.0644827 -0.99411488 12 2
-3.444874 -4.5089698 0.4964391 14 10
-3.1878579 -4.1695461 -0.83129281 10 3
-3.4981172 -4.5720401 0.70684224 8 11
-3.2177963 -4.2041383 -0.65005112 17 4
-3.2215245 -4.2059684 0.83911461 15 12
-3.252434 -4.2447867 -0.467852 15 5
-3.3604369 -4.382575 1.0734915 6 13
-3.286454 -4.28299 -0.2829282 17 6
-3.1575098 -4.1134596 1.1971895 9 14
-3.3329074 -4.3388238 -0.095499568 19 7
-3.2095208 -4.1751804 1.4110814 9 15
-2.3911126 -3.0937378 -1.0476996 12 0
-3.3819935 -4.3742099 0.096511811 27 8
-2.7237034 -3.5202494 -1.0275764 9 1
-3.4082768 -4.4034376 0.29182532 19 9
-3.1269462 -4.0370512 -0.9925884 13 2
-2.9465282 -3.8013804 0.4207879 12 10
-3.1871147 -4.1102848 -0.82378399 10 3
-3.0095193 -3.8784513 0.6027658 12 11
-3.2275875 -4.1564856 -0.6461513 9 4
-3.2694678 -4.2089028 0.8441205 9 12
-3.2538636 -4.1857982 -0.46384284 17 5
-3.2475016 -4.1746058 1.0280789 19 13
-3.2971327 -4.2368779 -0.28135812 19 6
-3.8554685 -4.9507861 1.4486848 5 14
-3.3459082 -4.2933683 -0.095010899 18 7
-5.4257407 -6.9596438 2.3645709 5 15
-2.4121149 -3.0773909 -1.0476996 11 0
-2.9644494 -3.7793429 0.083841361 14 8
-2.7403831 -3.49243 -1.024877 8 1
-3.4253674 -4.362257 0.29067394 22 9
-3.1477757 -4.0058603 -0.99029869 13 2
-3.0166616 -3.837626 0.42706311 9 10
-3.1949697 -4.0615406 -0.81846523 13 3
-3.0451167 -3.8682654 0.60447198 5 11
-3.2435236 -4.118824 -0.64371389 9 4
-3.0102201 -3.819819 0.7702834 20 12
-3.2650115 -4.1416478 -0.46140248 17 5
-3.2247722 -4.087667 1.012051 24 13
-3.29074 -4.1682959 -0.27832264 12 6
-3.279146 -4.1521177 1.2214842 4 14
-3.3564548 -4.2469611 -0.094487324 20 7
-4.5430551 -5.7442579 1.9623661 16 15
-2.4383497 -3.0665243 -1.0497701 11 0
-3.3884535 -4.2598705 0.095010899 18 8
-2.7549899 -3.4610155 -1.0212778 9 1
-3.4176559 -4.2919688 0.28753379 10 9
-3.1712992 -3.9797351 -0.98915386 15 2
-3.0408947 -3.8133576 0.42671451 30 10
-3.2114549 -4.0258012 -0.81564939 10 3
-3.239984 -4.0557551 -0.63737667 9 4
-3.0460165 -3.8115857 0.77278632 20 12
-3.2838902 -4.1063056 -0.46000803 18 5
-3.4114749 -4.2627892 1.0612797 20 13
-3.3165402 -4.1426816 -0.27811331 28 6
-5.6657248 -7.071981 2.0920448 11 14
-3.3610058 -4.1922216 -0.093789227 17 7
-6.2935195 -7.8471742 2.6953416 13 15
-2.464016 -3.055872 -1.0518407 11 0
-3.4068089 -4.2221045 0.094696753 23 8
-2.7760355 -3.4391503 -1.020378 8 1
-3.4324758 -4.2493596 0.28627771 26 9
-3.1767895 -3.9300163 -0.98228478 15 2
-3.4438646 -4.2588954 0.47918224 41 10
-3.2270551 -3.9879272 -0.81252068 10 3
-3.4746892 -4.2924161 0.6780811 23 11
-3.241276 -4.0012155 -0.63225818 10 4
-3.5216188 -4.3441834 0.88573205 26 12
-3.2916863 -4.0590978 -0.45721903 17 5
-3.3995872 -4.1891627 1.0486863 27 13
-3.3290126 -4.0992713 -0.27675256 22 6
-5.5847116 -6.8744364 2.044805 30 14
-3.349098 -4.1195946 -0.092672281 49 7
-5.2778172 -6.4897232 2.2413731 9 15
-2.4700863 -3.0210814 -1.0456289 11 0
-3.4266038 -4.1879845 0.094452426 28 8
-2.8018496 -3.4231911 -1.0212778 8 1
-3.439805 -4.1996307 0.2844983 21 9
-3.1860433 -3.8870447 -0.97694212 16 2
-3.4816163 -4.2461405 0.48040244 21 10
-3.2491133 -3.9597609 -0.81126922 10 3
-3.4937496 -4.256391 0.67613119 20 11
-3.2621365 -3.9713905 -0.63103956 9 4
-3.3052509 -4.0210161 0.82440978 11 12
-3.2989922 -4.0119748 -0.45443004 13 5
-3.4018257 -4.1340904 1.0406723 30 13
-3.3377945 -4.05339 -0.27518249 17 6
-5.5607491 -6.7505298 2.0191607 24 14
-3.3719738 -4.0905304 -0.092532657 21 7
-5.3599682 -6.4998517 2.2574198 5 15
-2.4881272 -3.0012238 -1.0445937 11 0
-3.4180038 -4.1199317 0.093440183 34 8
-2.8275745 -3.4070392 -1.0221776 9 1
-3.4287539 -4.1284885 0.28125346 46 9
-3.2036431 -3.8546994 -0.97427082 13 2
-3.4645832 -4.1671896 0.4741272 31 10
-3.2380886 -3.8919981 -0.80188316 10 3
-3.5360823 -4.2471514 0.67856854 13 11
-3.2776589 -3.9353666 -0.62884587 9 4
-3.4590166 -4.1501675 0.85569662 25 12
-3.3039503 -3.9613049 -0.45129246 17 5
-3.1267686 -3.7475417 0.94870234 20 13
-3.3499458 -4.0121794 -0.27392641 17 6
-5.587749 -6.6876163 2.0119622 6 14
-3.3805013 -4.0444694 -0.09200909 17 7
-5.4052167 -6.4622726 2.2574198 7 15
-2.5090184 -2.9837809 -1.0445937 12 0
-3.4157825 -4.059248 0.092602469 15 8
-2.8412507 -3.3752897 -1.0185784 8 1
-3.4600663 -4.1075063 0.28146279 38 9
-3.2165565 -3.8157277 -0.97007298 16 2
-3.4730411 -4.1185308 0.47133827 25 10
-3.2218666 -3.8179672 -0.79124558 10 3
-3.5131345 -4.1601791 0.66857523 24 11
-3.2832763 -3.8866081 -0.62470233 9 4
-3.3199434 -3.9244525 -0.44972363 14 5
-3.2428997 -3.8320253 0.9757973 36 13
-3.3468966 -3.9521153 -0.27141431 16 6
-3.3918445 -4.0009413 -0.091555327 32 7
-3.3930957 -3.9995863 1.4053875 22 15
-2.5322943 -2.9691319 -1.0456289 11 0
-3.4232676 -4.0109658 0.092043988 21 8
-2.8558872 -3.3449979 -1.0154291 7 1
-3.4860625 -4.0802131 0.28125346 21 9
-3.2290833 -3.7767649 -0.96587521 12 2
-3.499119 -4.0911555 0.47098961 23 10
-3.2227521 -3.7653668 -0.78498822 10 3
-3.5382195 -4.1310277 0.66784412 13 11
-3.2987046 -3.8500252 -0.62250865 11 4
-3.373903 -3.9350092 0.82096815 22 12
-3.3252039 -3.8754747 -0.44676036 14 5
-3.1813457 -3.7064991 0.94946563 7 13
-3.3457763 -3.8953209 -0.26911151 23 6
-3.411871 -3.9680665 -0.091345899 24 7
-6.2005215 -7.2062311 2.547297 0 15
-2.5491705 -2.9469974 -1.0440761 14 0
-3.4328625 -3.9658031 0.091555327 20 8
-2.8778951 -3.3235044 -1.0149791 8 1
-3.4804561 -4.0165315 0.27853197 17 9
-3.234791 -3.7303982 -0.95976931 12 2
-3.5080121 -4.0440516 0.46837494 20 10
-3.2489607 -3.7427759 -0.78498822 12 3
-3.5539539 -4.0912404 0.66540664 16 11
-3.3046694 -3.802928 -0.61860883 8 4
-3.5775781 -4.1140828 0.86351836 12 12
-3.3299444 -3.8266151 -0.44379702 13 5
-3.4301479 -3.9403756 1.0154855 24 13
-3.3742003 -3.8733749 -0.26921618 32 6
-3.8083293 -4.3686466 1.3380089 6 14
-3.3961177 -3.8944159 -0.090194039 17 7
-3.4498782 -3.9532764 1.4059051 25 15
-2.5633113 -2.9218683 -1.0414879 13 0
-3.3456881 -3.8110001 0.088518605 33 8
-2.9048843 -3.3077257 -1.0163288 8 1
-3.4543557 -3.9306262 0.27424043 18 9
-3.2477911 -3.6929812 -0.95595312 13 2
-3.495363 -3.9730902 0.4629713 15 10
-3.2710953 -3.715555 -0.78404963 13 3
-3.572536 -4.0565262 0.66370046 13 11
-3.315388 -3.7618933 -0.61568397 8 4
-3.3592653 -3.8089983 0.80438608 18 12
-3.3335063 -3.7784612 -0.44083372 18 5
-3.4731653 -3.9339933 1.0200649 22 13
-3.3839681 -3.8302658 -0.26785544 15 6
-3.4353373 -3.8870423 1.1976395 6 14
-3.4165995 -3.8631225 -0.090019517 24 7
-3.6021559 -4.0714955 1.4566337 16 15
-2.5754373 -2.8956914 -1.0383821 12 0
-3.4526494 -3.879257 0.090647802 20 8
-2.9299238 -3.290787 -1.0172287 7 1
-3.4597714 -3.8831632 0.27256569 36 9
-3.2558682 -3.6517382 -0.95099211 11 2
-3.4878442 -3.9105473 0.4584392 30 10
-3.2713187 -3.6652021 -0.77810514 10 3
-3.3316791 -3.7315211 0.61422157 14 11
-3.3290143 -3.7259161 -0.61349034 14 4
-3.371948 -3.771318 0.80125743 27 12
-3.3405526 -3.7348926 -0.43839338 17 5
-3.5011721 -3.9117241 1.0204465 31 13
-3.3979681 -3.7937543 -0.26691341 20 6
-3.3017642 -3.6850488 1.1423014 5 14
-3.4281304 -3.8234 -0.089635558 22 7
-3.6375251 -4.055512 1.4597394 15 15
-2.6028495 -2.886703 -1.0414879 12 0
-3.4655788 -3.8408189 0.09029875 22 8
-2.9405036 -3.2577486 -1.0131795 8 1
-3.4995105 -3.8743446 0.27361241 22 9
-3.262218 -3.609102 -0.94564945 11 2
-3.5237355 -3.8970604 0.45965937 20 10
-3.2696826 -3.6135554 -0.77184772 12 3
-3.3696413 -3.7214131 0.6164152 14 11
-3.3369737 -3.6840446 -0.61032176 11 4
-3.3948867 -3.7453511 0.80063164 28 12
-3.3458221 -3.6899285 -0.43577868 25 5
-3.525079 -3.8848939 1.0196834 30 13
-3.3874612 -3.7306135 -0.26408726 12 6
-3.5010371 -3.854341 1.2021384 6 14
-3.4365914 -3.7807393 -0.089181796 21 7
-3.5214586 -3.8713896 1.4022816 9 15
-2.6229396 -2.8684609 -1.0414879 12 0
-3.4659972 -3.7891068 0.089635558 13 8
-2.9579127 -3.2313902 -1.01138 11 1
-3.5001738 -3.8224468 0.27162364 34 9
-3.2628343 -3.5607586 -0.93878025 11 2
-3.4673703 -3.7813199 0.44885206 30 10
-3.2995453 -3.597039 -0.77309924 12 3
-3.4405344 -3.7481129 0.62470233 18 11
-3.3370967 -3.6328816 -0.60569072 10 4
-3.5045059 -3.8137932 0.82034248 18 12
-3.3674555 -3.6620812 -0.4352558 16 5
-3.4324691 -3.7301688 0.98533767 19 13
-3.3870761 -3.6795495 -0.26209849 14 6
-3.3192506 -3.603343 1.1310539 9 14
-3.4507041 -3.7434225 -0.088867649 23 7
-3.5817778 -3.8842568 1.4157403 16 15
-2.6450307 -2.8533742 -1.0425231 12 0
-3.478766 -3.7501564 0.089286514 16 8
-2.9824908 -3.2140381 -1.0122797 10 1
-3.4860017 -3.7540126 0.26848349 34 9
-3.2689028 -3.5177596 -0.93343765 11 2
-3.5147328 -3.7809787 0.45164105 28 10
-3.3138123 -3.5623457 -0.77059627 10 3
-3.5038321 -3.7652972 0.63152701 18 11
-3.3401015 -3.5868392 -0.60179085 14 4
-3.5135386 -3.7704465 0.81627518 32 12
-3.3705668 -3.6157572 -0.4324668 18 5
-3.4470668 -3.6952336 0.98228478 35 13
-3.4045043 -3.647054 -0.26147047 17 6
-3.3689716 -3.6077275 1.1396021 9 14
-3.4487977 -3.6906271 -0.088169552 17 7
-3.514468 -3.7595868 1.3789879 30 15
-2.6564534 -2.8268578 -1.0394174 12 0
-3.4891424 -3.710367 0.088902563 19 8
-3.0069685 -3.1965022 -1.0131795 9 1
-3.5073674 -3.7258334 0.26816946 22 9
-3.2806561 -3.4825661 -0.93000305 12 2
-3.5431204 -3.7598672 0.45198968 18 10
-3.3244309 -3.5253353 -0.76746756 10 3
-3.5811429 -3.7962315 0.64078909 26 11
-3.3535376 -3.5524728 -0.599841 11 4
-3.6150854 -3.8268588 0.83379585 26 12
-3.3732052 -3.5695612 -0.42967781 18 5
-3.428973 -3.626039 0.97007298 30 13
-3.4251316 -3.6194437 -0.26115644 15 6
-3.5823476 -3.7842555 1.2030382 7 14
-3.4422083 -3.6336763 -0.087366745 15 7
-3.4961259 -3.6893034 1.3619058 18 15
-2.6583114 -2.7905264 -1.032688 11 0
-3.500519 -3.6720572 0.088553511 23 8
-3.0205874 -3.1674984 -1.0104802 11 1
-3.5257523 -3.6946495 0.2676461 10 9
-3.2798793 -3.4345977 -0.92313397 13 2
-3.5493629 -3.7154944 0.44954932 26 10
-3.3155901 -3.4683557 -0.75995874 10 3
-3.6068993 -3.7717683 0.64078909 19 11
-3.3584263 -3.5094848 -0.59642857 10 4
-3.5153551 -3.6709063 0.80501187 21 12
-3.3808861 -3.5292516 -0.42758605 17 5
-3.4467826 -3.5955288 0.96816492 24 13
-3.4372454 -3.5830739 -0.26021439 20 6
-3.2963345 -3.4349861 1.0991108 12 14
-3.440546 -3.5827577 -0.086703561 17 7
-3.7125385 -3.8646445 1.4359281 12 15
-2.6785862 -2.7737567 -1.0332056 10 0
-3.4990315 -3.6208222 0.08789032 21 8
-3.0366604 -3.1412601 -1.0086806 12 1
-3.5286005 -3.6475971 0.26597136 19 9
-3.2936227 -3.4023192 -0.92046267 15 2
-3.5634828 -3.6797986 0.44815481 17 10
-3.3226247 -3.4286845 -0.75620425 10 3
-3.5260983 -3.6373806 0.62202114 18 11
-3.3739431 -3.4779952 -0.59496623 12 4
-3.5154941 -3.6213801 0.79938018 16 12
-3.3937268 -3.4947226 -0.4261916 18 5
-3.549165 -3.6522369 0.9899171 7 13
-3.4323134 -3.529526 -0.25801629 16 6
-3.7259319 -3.8301232 1.2336316 12 14
-3.4509041 -3.5449281 -0.086354509 16 7
-3.8304079 -3.9333978 1.4711276 12 15
-2.7024219 -2.7586584 -1.0347586 10 0
-3.5052531 -3.5757003 0.087401658 18 8
-3.0522385 -3.1124928 -1.006431 12 1
-3.533627 -3.6008713 0.26440126 14 9
-3.3096313 -3.370259 -0.91817296 22 2
-3.5478354 -3.6115656 0.44292548 26 10
-3.3359964 -3.3935511 -0.75370133 12 3
-3.4259849 -3.4826579 0.599841 15 11
-3.3722899 -3.4268796 -0.59033519 13 4
-3.4526124 -3.506052 0.7793566 32 12
-3.4066656 -3.4569798 -0.42462277 15 5
-3.5035393 -3.5540435 0.97007298 30 13
-3.4336374 -3.4807029 -0.25623688 19 6
-3.849741 -3.8997865 1.2651247 5 14
-3.4494858 -3.4931087 -0.085691318 15 7
-3.544107 -3.5864203 1.3510355 13 15
-2.7107224 -2.7287607 -1.0306175 10 0
-3.5146227 -3.5355415 0.087017693 19 8
-3.0711448 -3.0883455 -1.0055312 13 1
-3.5417743 -3.5591257 0.26314521 13 9
-3.3067586 -3.3206396 -0.91092217 15 2
-3.5813997 -3.5951786 0.44397137 21 10
-3.3372936 -3.3477938 -0.74869543 10 3
-3.5104983 -3.5190878 0.61032176 12 11
-3.3849146 -3.3920109 -0.58838522 13 4
-3.615191 -3.6202438 0.81033063 19 12
-3.4180419 -3.4204288 -0.42305395 16 5
-3.6629 -3.6641805 1.00709 42 13
-3.4380784 -3.4368787 -0.25477144 12 6
-3.6287088 -3.6249111 1.1841424 8 14
-3.4511485 -3.4463334 -0.085132837 15 7
-3.4842756 -3.4769862 1.318942 12 15
-2.7214801 -2.7016046 -1.0275117 10 0
-3.5165055 -3.4883857 0.086459227 20 8
-3.0926299 -3.0668304 -1.0055312 12 1
-3.5537672 -3.5216601 0.26220316 19 9
-3.3145154 -3.2822771 -0.90672439 15 2
-3.5865881 -3.5504644 0.441531 17 10
-3.3437314 -3.3077435 -0.744941 12 3
-3.5696576 -3.5300059 0.6164152 14 11
-3.3915687 -3.3515544 -0.58546036 13 4
-3.6530278 -3.6074078 0.81314647 7 12
-3.4114683 -3.3676906 -0.41939342 15 5
-3.6101241 -3.5613086 0.98571932 36 13
-3.4463427 -3.3973689 -0.25362006 13 6
-3.6338663 -3.5809772 1.1778437 14 14
-3.4651508 -3.4123344 -0.08488851 19 7
-3.3137457 -3.2620981 1.2459549 17 15
-2.7356656 -2.6789625 -1.0259588 11 0
-3.5230169 -3.4475861 0.086040363 22 8
-3.1190057 -3.0511594 -1.0073308 12 1
-3.5519476 -3.4722586 0.26031908 11 9
-3.3269498 -3.2500367 -0.90405309 15 2
-3.5878642 -3.5036976 0.43874201 20 10
-3.3435488 -3.2628326 -0.7399351 12 3
-3.6333892 -3.54444 0.62323987 15 11
-3.4015105 -3.3159199 -0.58326674 15 4
-3.639293 -3.5452425 0.80469894 11 12
-3.407192 -3.317981 -0.41608149 15 5
-3.5878499 -3.4914699 0.97312593 29 13
-3.4350235 -3.3404138 -0.25110796 15 6
-3.690294 -3.5874023 1.1881914 9 14
-3.4926007 -3.3928487 -0.084993221 17 7
-3.315084 -3.2192795 1.2381904 20 15
