# .PCD v0.7 - Point Cloud Data file format
VERSION 0.7
FIELDS x y z intensity ring
SIZE 4 4 4 4 2
TYPE F F F F U
COUNT 1 1 1 1 1
WIDTH 143
HEIGHT 1
VIEWPOINT 0 0 0 1 0 0 0
POINTS 143
DATA ascii
3.3175919 0.5492236 -0.41289338 5 4
3.1897128 0.50691259 -0.51154077 47 3
3.3331094 0.52791226 -0.41435578 42 4
3.1912208 0.48433694 -0.51122791 6 3
3.3426902 0.50493711 -0.41508701 6 4
3.1926498 0.46120629 -0.51091504 6 3
3.3186259 0.47763097 -0.41167468 4 4
3.2134047 0.44132507 -0.51373082 6 3
3.3140917 0.45279473 -0.41069973 4 4
3.2086451 0.41730013 -0.51247936 13 3
3.332921 0.43168843 -0.41264963 4 4
3.0902467 0.38162485 -0.60524619 27 2
3.2075589 0.39440724 -0.51185364 64 3
3.3457055 0.4096159 -0.41386834 5 4
3.0772347 0.3582269 -0.60219324 7 2
3.3484833 0.38625008 -0.41386834 49 4
3.0894186 0.33780199 -0.6041013 7 2
3.2147167 0.34979913 -0.5121665 6 3
3.3471513 0.36243486 -0.41338086 49 4
3.0838897 0.31542507 -0.60257488 7 2
3.2151153 0.32714614 -0.51185364 5 3
2.9679456 0.28473583 -0.68835026 34 1
3.0938342 0.29463223 -0.6041013 10 2
3.2251873 0.30543745 -0.51310509 5 3
3.3618226 0.31600955 -0.41459954 4 4
2.9815536 0.26452371 -0.69104964 15 1
3.0977712 0.27319998 -0.60448295 65 2
3.2233546 0.28200635 -0.51247936 6 3
3.3639467 0.29253191 -0.41459954 7 4
2.9697318 0.24259149 -0.6879003 5 1
3.2193377 0.2590225 -0.51154077 68 3
3.3718431 0.26951611 -0.41533077 49 4
3.4996235 0.27726957 -0.30713683 32 5
2.9752395 0.22214454 -0.6888001 5 1
3.1130712 0.23024894 -0.6067726 6 2
3.2269776 0.236975 -0.51247936 35 3
3.3657231 0.24539222 -0.41435578 53 4
3.4895508 0.25197157 -0.30609095 46 5
2.9747739 0.2012351 -0.68835026 6 1
3.1106849 0.20824772 -0.60600942 5 2
3.3752775 0.22241116 -0.41533077 55 4
3.5091181 0.22877029 -0.30765978 48 5
2.8653772 0.17525385 -0.76921022 39 0
2.9916677 0.18140596 -0.69194949 6 1
3.1003044 0.1858227 -0.60371965 5 2
3.2457469 0.1928331 -0.51498228 5 3
3.3708031 0.1984918 -0.41459954 51 4
3.5066519 0.20403498 -0.30731115 48 5
2.8530276 0.15451416 -0.76558679 13 0
2.9986989 0.16082886 -0.69329917 9 1
3.1152499 0.16489892 -0.60639101 7 2
3.2391233 0.16975529 -0.51373082 6 3
3.3959262 0.1755975 -0.4175244 39 4
2.8598495 0.13436642 -0.76713973 6 0
2.9803066 0.13846214 -0.6888001 29 1
3.1202476 0.14332654 -0.60715425 61 2
3.2422287 0.14666158 -0.51404375 68 3
3.389137 0.15152892 -0.41654944 53 4
3.5131397 0.15523009 -0.30765978 5 5
2.8742299 0.11493935 -0.77076316 6 0
2.9948313 0.11819167 -0.69194949 5 1
3.1349258 0.12152723 -0.60982555 67 2
3.2372518 0.12379652 -0.51310509 58 3
3.3821776 0.12756531 -0.41557449 53 4
3.5241158 0.1304552 -0.30853131 5 5
2.8730316 0.094806917 -0.77024549 7 0
3.005322 0.097597189 -0.69419897 4 1
3.1239243 0.099265739 -0.6075359 11 2
3.2479093 0.1015033 -0.51466948 52 3
3.3829858 0.10395177 -0.41557449 51 4
3.5388808 0.10626766 -0.30975151 6 5
2.8716922 0.074696831 -0.76972789 7 0
3.0059299 0.076613702 -0.69419897 5 1
3.1265039 0.077502869 -0.60791749 7 2
3.2603874 0.079113647 -0.51654667 51 3
3.3915672 0.080519997 -0.41654944 52 4
3.5435205 0.081652515 -0.31010011 65 5
2.8740752 0.05468357 -0.77024549 8 0
3.0063918 0.055626489 -0.69419897 5 1
3.1289318 0.055708818 -0.60829914 6 2
3.278636 0.056657106 -0.51936251 18 3
3.4079251 0.057106514 -0.41849938 20 4
2.8743868 0.034617413 -0.77024549 55 0
2.9969637 0.034524325 -0.69194949 66 1
3.1370969 0.033948373 -0.60982555 57 2
3.2552485 0.033522435 -0.51560807 64 3
2.8900132 0.014627786 -0.77438658 59 0
2.9932342 0.013583044 -0.69104964 75 1
3.1490366 0.012091715 -0.61211532 67 2
3.2514522 0.010782595 -0.51498228 54 3
3.3845694 0.009451977 -0.41557449 8 4
2.8997042 -0.0055670389 -0.7769748 63 0
2.9913075 -0.0073091579 -0.69059974 60 1
3.1451182 -0.0098807123 -0.61135209 72 2
3.265276 -0.011967915 -0.5171724 53 3
3.3905079 -0.014202209 -0.41630572 49 4
2.8899357 -0.025724513 -0.77438658 37 0
3.0204132 -0.028467566 -0.6973483 24 1
3.141046 -0.03179761 -0.61058879 72 2
3.2749891 -0.03486852 -0.51873678 57 3
3.3982661 -0.037960578 -0.41728067 47 4
3.037677 -0.04984089 -0.70139736 4 1
3.1446736 -0.053792451 -0.61135209 72 2
3.2687407 -0.057626765 -0.51779813 52 3
3.4177661 -0.062044133 -0.41971806 44 4
3.0216696 -0.070681915 -0.69779819 7 1
3.1461842 -0.075792216 -0.61173368 35 2
3.0055199 -0.091301888 -0.69419897 68 1
3.1553895 -0.098059602 -0.61364174 60 2
3.2676175 -0.10325989 -0.51779813 16 3
3.0203881 -0.11286412 -0.69779819 68 1
3.14484 -0.11916353 -0.61173368 63 2
3.2865782 -0.1262576 -0.52092683 61 3
3.0195501 -0.13342048 -0.69779819 60 1
3.1517766 -0.14146771 -0.61326015 65 2
3.2915366 -0.1494678 -0.52186543 58 3
3.0224104 -0.15522422 -0.69869798 67 1
3.1507123 -0.16346763 -0.61326015 66 2
3.2805197 -0.17249888 -0.5203011 50 3
3.0231984 -0.1764342 -0.69914788 61 1
3.1631806 -0.18681951 -0.61593145 62 2
3.2871227 -0.19586681 -0.52155256 33 3
3.0141146 -0.19702719 -0.6973483 57 1
3.0359895 -0.21975295 -0.70274711 25 1
3.1583056 -0.23082307 -0.61554986 50 2
3.1605315 -0.25318 -0.6163131 62 2
3.1625986 -0.27557915 -0.61707634 66 2
3.1723251 -0.29875579 -0.61936599 65 2
3.1799285 -0.32188392 -0.62127411 40 2
3.2210703 0.52343094 -0.51685953 8 3
3.319489 0.53764039 -0.41289338 23 4
3.1895108 0.49547276 -0.51122791 14 3
3.3349319 0.51627505 -0.41435578 42 4
3.1968 0.47377288 -0.51185364 6 3
3.2098098 0.45282319 -0.51341796 7 3
3.3398495 0.46938521 -0.41411206 4 4
3.2148507 0.43066573 -0.51373082 6 3
3.331239 0.44448197 -0.41264963 4 4
3.0887585 0.39348847 -0.60524619 50 2
3.2099402 0.40721843 -0.51247936 54 3
3.3303218 0.42071867 -0.41216215 5 4
3.2009368 0.38338941 -0.51060218 38 3
3.3450043 0.39886865 -0.41362458 9 4
