# .PCD v0.7 - Point Cloud Data file format
VERSION 0.7
FIELDS x y z intensity ring
SIZE 4 4 4 4 2
TYPE F F F F U
COUNT 1 1 1 1 1
WIDTH 1248
HEIGHT 1
VIEWPOINT 0 0 0 1 0 0 0
POINTS 1248
DATA ascii
-1.6096429 -0.0073045641 -0.37161914 51 1
-1.8075022 -0.0078865644 0.09472809 3 9
-1.6059293 -0.006446884 -0.31216353 56 2
-1.6375774 -0.0057161492 -0.25936839 71 3
-1.6952623 -0.0047340482 -0.20815286 60 4
-1.2552023 -0.0028479863 -0.10981624 6 5
-1.7416072 -0.0030397607 -0.091273919 72 6
-1.1887304 -0.0016598612 0.27444029 2 14
-1.7357347 -0.0018173964 -0.030297378 58 7
-0.65296566 -0.00056988437 0.17496169 100 15
-1.1262677 0.0019654215 -0.301783 22 0
-1.7697266 0.0037064436 0.030890759 74 8
-1.6135528 0.0036605771 -0.37251896 51 1
-1.8155023 0.0047528567 0.095146775 10 9
-1.613788 0.0047880718 -0.31369001 54 2
-1.6237499 0.0056677796 -0.25717828 61 3
-1.6773896 0.0067332503 -0.2059592 54 4
-1.2173375 0.0055239131 -0.10650431 7 5
-1.749575 0.0091608539 -0.091692604 66 6
-1.2062526 0.0065265177 0.27848941 1 14
-1.711711 0.0098588197 -0.029878521 46 7
-0.64909011 0.0039650872 0.17392641 100 15
-1.1416808 0.0099633411 -0.30592412 50 0
-1.7736596 0.015787706 0.030960569 90 8
-1.5823094 0.014637177 -0.3653205 49 1
-1.8294082 0.017242268 0.09587948 7 9
-1.5999759 0.015638374 -0.31101868 52 2
-1.5881188 0.016354049 -0.25154665 64 3
-1.6753168 0.018421646 -0.20571546 55 4
-1.2650834 0.014573194 -0.11068779 8 5
-1.4638847 0.017630193 -0.076724522 12 6
-1.204229 0.014923153 0.27803952 2 14
-1.3636816 0.017375523 -0.023805084 40 7
-0.63938957 0.0082583176 0.17133822 100 15
-1.1280653 0.017524252 -0.30230066 100 0
-1.7735062 0.028169798 0.030960569 72 8
-1.5782762 0.025344718 -0.36442071 49 1
-1.8332371 0.030079056 0.096088827 7 9
-1.5959018 0.026741762 -0.31025544 49 2
-1.5820407 0.027338041 -0.25060806 69 3
-1.6572895 0.029506329 -0.20352182 51 4
-1.2390581 0.02270939 -0.10842174 8 5
-1.4457539 0.027507316 -0.07578247 25 6
-1.1924093 0.02289529 0.27534011 3 14
-1.3655311 0.026696188 -0.023839988 57 7
-0.63159269 0.012457932 0.16926767 100 15
-1.1201944 0.025029471 -0.30023012 92 0
-1.7712742 0.040196098 0.030925665 69 8
-1.5722224 0.035953108 -0.36307099 46 1
-1.8250029 0.0423714 0.095670134 3 9
-1.5780184 0.037187845 -0.30682087 54 2
-1.5897171 0.038296334 -0.25185952 66 3
-1.6252984 0.040004943 -0.19962201 54 4
-1.2508255 0.031443294 -0.10946761 8 5
-1.4115911 0.036470685 -0.074003048 43 6
-1.1883296 0.030909618 0.27444029 2 14
-1.3593208 0.035832379 -0.023735272 52 7
-0.63728678 0.016910497 0.17082058 100 15
-1.1199981 0.032653827 -0.30023012 89 0
-1.7869502 0.052723251 0.031204903 69 8
-1.5738891 0.046711884 -0.36352089 48 1
-1.8446358 0.055391885 0.096716851 7 9
-1.5679169 0.047630172 -0.30491278 52 2
-1.5795474 0.048811257 -0.25029516 55 3
-1.6071314 0.050506297 -0.19742836 60 4
-1.2346514 0.03944768 -0.10807312 8 5
-1.3953407 0.045556866 -0.073165677 46 6
-1.186144 0.038933691 0.27399039 2 14
-1.3670397 0.045349371 -0.023874892 40 7
-0.63715315 0.021359187 0.17082058 100 15
-1.1100899 0.040122934 -0.29764193 100 0
-1.7845515 0.064812854 0.031169999 74 8
-1.5657349 0.057412554 -0.36172128 50 1
-1.824257 0.067211315 0.095670134 1 9
-1.5616708 0.058082286 -0.30376795 54 2
-1.549569 0.058444634 -0.24560213 61 3
-1.6027725 0.061572175 -0.19694087 60 4
-1.2462913 0.048531074 -0.10911899 8 5
-1.4069724 0.055525836 -0.073793709 56 6
-1.2033681 0.047911614 0.27803952 2 14
-1.3706859 0.055052508 -0.023944702 36 7
-0.62348104 0.025150605 0.16719711 100 15
-1.1271617 0.04842443 -0.30230066 100 0
-1.7740664 0.076836735 0.030995475 78 8
-1.5633609 0.067984201 -0.36127138 45 1
-1.8357154 0.080469765 0.096298166 1 9
-1.5573044 0.068810433 -0.30300471 57 2
-1.5254424 0.068202838 -0.24184772 57 3
-1.5705872 0.071045235 -0.19304106 63 4
-1.2399511 0.056956079 -0.10859605 11 5
-1.4025602 0.065161616 -0.073584363 51 6
-1.2030042 0.056311253 0.27803952 2 14
-1.3862594 0.065132014 -0.024223939 37 7
-0.63100904 0.029867919 0.16926767 100 15
-1.1287256 0.05638871 -0.3028183 100 0
-1.7774812 0.089421123 0.031065283 81 8
-1.5628482 0.078896865 -0.36127138 18 1
-1.8590453 0.094500259 0.097554229 1 9
-1.5254152 0.078074768 -0.29689881 66 2
-1.5209835 0.078646392 -0.24122196 56 3
-1.5581585 0.081386618 -0.19157861 55 4
-1.2435025 0.06582211 -0.10894467 9 5
-1.3980824 0.074738517 -0.073375016 43 6
-1.1909063 0.064080201 0.27534011 2 14
-1.42371 0.076856069 -0.024887133 19 7
-0.64428818 0.035006125 0.17289113 100 15
-1.1263758 0.064157471 -0.30230066 37 0
-1.7768135 0.1018281 0.031065283 81 8
-1.5700415 0.090253025 -0.36307099 13 1
-1.8384008 0.10632335 0.096507512 1 9
-1.5091534 0.087809965 -0.29384586 51 2
-1.5223695 0.08937908 -0.24153483 32 3
-1.5218832 0.09015011 -0.18719132 32 4
-1.227115 0.073334008 -0.10755019 6 5
-1.4035075 0.084858432 -0.073689036 31 6
-1.1865522 0.071949072 0.27444029 2 14
-1.7604605 0.10736553 -0.030786045 52 7
-0.63631517 0.039030161 0.17082058 100 15
-1.1413236 0.073005781 -0.30644175 63 0
-1.7840617 0.11443216 0.031204903 61 8
-1.5596497 0.10058471 -0.36082149 19 1
-1.512439 0.098335184 -0.2946091 29 2
-1.5098989 0.098963931 -0.23965763 23 3
-1.5053709 0.099722594 -0.18524142 53 4
-1.2444649 0.083093449 -0.10911899 8 5
-1.7376796 0.11693947 -0.091273919 20 6
-1.2054639 0.081545986 0.27893931 2 14
-1.7496924 0.11897536 -0.030611521 58 7
-0.65530854 0.044674322 0.17599694 98 15
-1.0984057 0.077771425 -0.29505375 81 0
-1.7772353 0.12645826 0.031100187 14 8
-0.68033057 0.04852806 -0.15746574 19 1
-1.4627612 0.10536498 -0.28506866 29 2
-1.4796182 0.1073583 -0.23496459 45 3
-1.5105965 0.11040112 -0.18597263 42 4
-1.2080886 0.089140393 -0.10598138 8 5
-1.7467797 0.12980799 -0.091797277 24 6
-1.1990353 0.08952444 0.27758962 1 14
-1.7628012 0.13192666 -0.030855855 46 7
-0.62223166 0.046785891 0.16719711 94 15
-1.1421347 0.088885069 -0.30695942 59 0
-1.7643476 0.13792752 0.030890759 54 8
-1.4687464 0.11507685 -0.34012601 12 1
-1.4854758 0.11743103 -0.28964809 79 2
-1.4453571 0.11502138 -0.22964582 52 3
-1.4880227 0.11920076 -0.18329151 42 4
-1.2610567 0.10190525 -0.11068779 6 5
-1.7299054 0.14070432 -0.090959899 48 6
-1.1983811 0.097893104 0.27758962 0 14
-1.757851 0.14390379 -0.030786045 75 7
-0.63151664 0.051920056 0.16978529 100 15
-1.1280117 0.095712893 -0.30333593 69 0
-1.7872512 0.15227878 0.031309616 21 8
-1.4426655 0.12317238 -0.33427727 9 1
-1.4807076 0.12746198 -0.28888482 30 2
-1.2007904 0.10526652 -0.10545845 6 5
-1.7149544 0.15154725 -0.090227202 9 6
-1.1685698 0.10346983 0.27084109 4 14
-0.6311388 0.056327462 0.16978529 91 15
-1.7782083 0.163707 0.031169999 11 8
-1.3777348 0.12732357 -0.3194305 12 1
-1.4465736 0.1344492 -0.28239733 38 2
-1.4239658 0.13309999 -0.22651713 63 3
-1.2589334 0.11856076 -0.15526156 1 4
-1.2238284 0.11590121 -0.10755019 1 5
-1.727801 0.16454251 -0.090959899 18 6
-1.109622 0.10606246 0.25734401 36 14
-1.7516894 0.16805148 -0.030716237 12 7
-0.64612472 0.062100787 0.17392641 75 15
-1.1208172 0.110687 -0.301783 53 0
-1.7929417 0.17769501 0.031449236 23 8
-1.4253163 0.1415119 -0.33067805 73 1
-1.4416927 0.14415391 -0.28163409 75 2
-1.4642769 0.14718644 -0.23308739 87 3
-1.2778475 0.12912273 -0.15769894 1 4
-1.2031894 0.12221545 -0.10580707 10 5
-1.6769378 0.17151986 -0.088343106 37 6
-1.1049973 0.11321573 0.25644422 53 14
-1.6649687 0.17117652 -0.029215328 32 7
-0.64759701 0.06680847 0.17444403 75 15
-1.1161751 0.11810254 -0.30074775 69 0
-1.4339827 0.15248904 -0.33292755 86 1
-1.1121737 0.11846458 0.058616273 2 9
-1.436774 0.15354665 -0.28087085 64 2
-1.4514565 0.15588441 -0.23121016 62 3
-1.2729679 0.13761425 -0.15721147 1 4
-1.200326 0.13039713 -0.10563275 10 5
-1.6856589 0.18401417 -0.088866465 12 6
-1.1119285 0.1217759 0.2582438 52 14
-1.3456959 0.14785296 -0.023630559 15 7
-0.62024367 0.068256348 0.16719711 81 15
-1.1211045 0.12634617 -0.30230066 73 0
-1.1873497 0.13591108 -0.18928573 18 3
-1.1595922 0.13334891 -0.14331836 30 4
-1.1261792 0.13010401 -0.099183232 48 5
-1.1740229 0.13604678 0.22973405 1 13
-1.1072025 0.1288911 0.25734401 55 14
-0.62935853 0.073598564 0.16978529 52 15
-1.1278911 0.13489199 -0.30437121 47 0
-1.1047878 0.13271567 -0.25689411 29 1
-1.124315 0.13545981 0.059348982 100 9
-1.1285152 0.1363655 -0.22095683 25 2
-1.1138406 0.13518398 -0.17770956 85 3
-1.1516347 0.14140309 0.22553624 3 13
-1.1101676 0.13690162 0.2582438 54 14
-0.64034623 0.079305433 0.17289113 50 15
-1.1307801 0.14305113 -0.30540648 51 0
-1.1347313 0.14395341 0.019965554 100 8
-1.1115917 0.14121503 -0.25869372 14 1
-1.1233671 0.1431094 0.059348982 100 9
-1.1080866 0.1415561 -0.21714064 65 2
-1.1285691 0.14477327 -0.18021253 75 3
-1.1320747 0.14582548 -0.14014976 100 4
-1.1400855 0.14766626 -0.10057773 100 5
-1.133123 0.14696582 0.22210167 16 13
-1.134872 0.14759518 -0.05997701 100 6
-1.1014555 0.14364047 0.25644422 53 14
-1.1302303 0.14759387 -0.019895744 148 7
-0.64360809 0.084275447 0.17392641 37 15
-1.1278389 0.15068613 -0.30488884 47 0
-1.1376624 0.15240282 0.020035362 100 8
-1.0120753 0.13575879 -0.23574872 0 1
-1.1381761 0.15307827 0.060186356 81 9
-1.1012344 0.14850117 -0.2159958 40 2
-1.131446 0.15317839 -0.18083826 55 3
-1.134963 0.15425971 -0.14063723 59 4
-1.1192863 0.15292515 -0.098834611 100 5
-1.1262342 0.15407462 0.22095683 34 13
-1.1338139 0.15551475 -0.05997701 100 6
-1.1042869 0.15185753 0.25734401 53 14
-1.1212484 0.1543894 -0.019756125 148 7
-0.63726288 0.087974064 0.17237349 38 15
-1.1133684 0.15667188 -0.30126539 35 0
-1.1286505 0.15922415 0.019895744 100 8
-0.93391931 0.13191871 -0.21775262 0 1
-1.1153268 0.1579401 0.059034962 65 9
-1.1060022 0.15701348 -0.21714064 42 2
-1.1792395 0.1680405 -0.18866 60 3
-1.1397537 0.16302301 -0.14136845 94 4
-1.1083586 0.15912466 -0.097963057 42 5
-1.1056987 0.15913668 0.21714064 49 13
-1.107085 0.1599279 0.2582438 56 14
-1.1280595 0.16335954 -0.019895744 141 7
-0.62325048 0.09047807 0.16875002 26 15
-2.0434198 0.30247498 0.036056671 67 8
-0.93297559 0.1384355 -0.21775262 0 1
-1.4524974 0.21629974 -0.28545028 12 2
-1.4222784 0.21256086 -0.22776861 47 3
-1.472312 0.22108932 -0.18280403 41 4
-1.0929134 0.16509235 0.21485093 60 13
-2.0182486 0.30523112 -0.10697471 45 6
-1.1097951 0.16823682 0.25914362 56 14
-2.0204966 0.30701447 -0.035672721 68 7
-0.64744866 0.098495275 0.17547932 24 15
-2.0511389 0.318266 0.036231197 69 8
-1.4470724 0.22582901 -0.28468704 56 2
-1.4441788 0.22615205 -0.23152302 35 3
-1.4433186 0.22679195 -0.1793917 49 4
-1.2241102 0.19322298 -0.10842174 8 5
-1.0975819 0.1734471 0.2159958 62 13
-2.0772212 0.32899931 -0.11021954 60 6
-1.100895 0.17475845 0.25734401 56 14
-2.0223098 0.32138768 -0.035742529 38 7
-0.6600998 0.10514018 0.17910279 23 15
-0.95350039 0.15443331 -0.25881904 1 0
-2.06071 0.33450025 0.036440626 78 8
-0.93097824 0.15128578 -0.21775262 0 1
-1.4628992 0.23877227 -0.28812161 19 2
-1.45816 0.23878299 -0.23402599 39 3
-1.4730414 0.24201186 -0.18329151 43 4
-1.2207657 0.2014398 -0.10824744 7 5
-1.1040922 0.18238507 0.21752228 58 13
-2.0531988 0.33990481 -0.10906815 68 6
-1.0996481 0.18243991 0.25734401 52 14
-2.0279074 0.33680877 -0.035882145 35 7
-0.6650666 0.11069737 0.1806557 23 15
-2.0563533 0.34854445 0.036405724 74 8
-0.73777145 0.12518187 -0.17276241 1 1
-2.126518 0.36158261 0.11304568 1 9
-1.8076259 0.30800894 -0.35643122 45 2
-1.8984574 0.32450905 -0.30504724 15 3
-1.9134933 0.3281104 -0.23837645 58 4
-1.2114756 0.20860475 -0.10755019 7 5
-1.1105309 0.19142285 0.21904872 41 13
-2.0547121 0.35491043 -0.10927749 72 6
-1.0906669 0.18878272 0.25554439 35 14
-2.0333881 0.35232365 -0.036021769 58 7
-0.63572705 0.11038037 0.17289113 37 15
-0.71153593 0.12546302 -0.19359665 1 0
-2.0519006 0.36254355 0.036370814 78 8
-1.8882537 0.33396962 -0.44270366 0 1
-2.1396749 0.37920797 0.11388306 1 9
-1.8595558 0.33023283 -0.36711654 37 2
-1.9369857 0.34502959 -0.31161749 44 3
-1.9443765 0.34739649 -0.24252002 51 4
-1.2060676 0.21635377 -0.10720156 7 5
-1.1362205 0.20402873 0.22439139 34 13
-2.0600471 0.37066063 -0.10969618 80 6
-2.0249751 0.36544481 -0.035917051 49 7
-0.62163377 0.11240972 0.16926767 91 15
-0.71066552 0.13030322 -0.19359665 1 0
-2.0474184 0.37614068 0.036335908 72 8
-2.0775971 0.38205984 -0.48769391 1 1
-2.1134737 0.38942054 0.11262699 1 9
-1.9016696 0.35108021 -0.37589374 28 2
-1.9520735 0.3614426 -0.31443331 41 3
-1.9478221 0.36171028 -0.24325122 46 4
-1.2241932 0.22799593 -0.10894467 14 5
-1.1290156 0.21067764 0.22324654 28 13
-2.0398071 0.38137084 -0.10875413 74 6
-1.1167282 0.20898987 0.26229292 0 14
-2.0224407 0.37921995 -0.035917051 35 7
-0.63034743 0.11842191 0.17185585 100 15
-0.70973849 0.13526145 -0.19359665 1 0
-2.0467749 0.39044356 0.036370814 71 8
-1.9474396 0.37325531 -0.38543418 13 2
-1.9883657 0.38217878 -0.32069072 15 3
-1.9374527 0.37379608 -0.24227627 31 4
-1.2225717 0.23653685 -0.10894467 8 5
-1.1294445 0.2189281 0.22362815 21 13
-2.0195179 0.3918229 -0.10781208 62 6
-0.6848312 0.13311768 0.16106495 7 14
-2.043298 0.39791647 -0.036335908 45 7
-0.61814976 0.12049202 0.16875002 100 15
-0.85283589 0.1685565 -0.23293714 1 0
-2.0006268 0.39794925 -0.39650109 1 2
-2.092196 0.41730234 -0.33789849 1 3
-1.2267938 0.24602817 -0.10946761 8 5
-1.1356273 0.22815776 0.22515462 16 13
-0.63232958 0.12738517 0.1489176 51 14
-0.64569658 0.13054712 0.1765146 85 15
-1.1918843 0.24769513 -0.10650431 6 5
-1.1147865 0.23207876 0.22133845 6 13
-0.63905531 0.13338912 0.1507172 24 14
-0.6391204 0.13375193 0.17496169 74 15
-0.70680243 0.14984883 -0.19359665 1 0
-0.62594241 0.1329339 0.011169541 7 8
-0.73196369 0.15558377 -0.17276241 1 1
-0.65474296 0.1396476 -0.13013174 2 2
-0.67223406 0.14374623 -0.1088784 3 3
-0.67352355 0.14439076 -0.084577329 8 4
-0.62722588 0.13480894 -0.056128301 7 5
-0.62671185 0.13515641 -0.033599686 21 6
-0.62479848 0.13485786 0.14756788 27 14
-0.65281445 0.1411434 -0.011658208 19 7
-0.63250679 0.13698399 0.17340876 12 15
-0.62459797 0.13698393 -0.17133822 12 0
-0.62306982 0.13676275 0.011134635 32 8
-0.62427604 0.13725594 -0.14756788 14 1
-0.64994276 0.14325589 -0.1293685 19 2
-0.63073415 0.13936839 -0.10230815 41 3
-0.68412733 0.1516674 -0.086039767 77 4
-0.54383075 0.12066384 0.088229045 51 12
-0.63015914 0.14004914 -0.056476917 75 5
-0.58831823 0.13096574 0.11715673 21 13
-0.61603004 0.13724753 -0.033076327 75 6
-0.55727327 0.12436108 0.13182132 3 14
-0.63229775 0.14133525 -0.011309159 100 7
-0.6918878 0.154782 0.18997319 10 15
-0.61423033 0.13909884 -0.16875002 17 0
-0.62405008 0.14155163 0.011169541 59 8
-0.59292108 0.13459954 -0.14036946 22 1
-0.64509833 0.14691795 -0.12860526 18 2
-0.63167161 0.144208 -0.10262102 26 3
-0.65018302 0.14879227 -0.081896208 42 4
-0.63887554 0.14667402 -0.057348479 45 5
-0.5032236 0.11562342 0.10036553 7 13
-0.65009189 0.14960743 -0.034960423 31 6
-0.66842937 0.15407336 0.15836555 5 14
-0.62547559 0.14428729 -0.011204445 12 7
-0.66067415 0.1526501 0.18169098 11 15
-0.62641215 0.14646223 -0.17237349 22 0
-0.61915261 0.1449928 0.011099731 44 8
-0.60714567 0.14229295 -0.14396867 21 1
-0.63641226 0.14962076 -0.12707879 20 2
-0.63064945 0.14861439 -0.10262102 22 3
-0.62980902 0.14876445 -0.079458818 45 4
-0.62232625 0.14745587 -0.055953983 100 5
-0.59600794 0.14132965 0.11906482 6 13
-0.63542908 0.15091191 -0.034227718 24 6
-0.66164994 0.15738308 0.15701583 19 14
-0.62250769 0.14818747 -0.011169541 12 7
-0.63704228 0.15188225 0.17547932 24 15
-0.61410642 0.14811416 -0.16926767 15 0
-0.647282 0.15635492 0.011623302 32 8
-0.62129092 0.15019122 -0.14756788 14 1
-0.63535231 0.15405995 -0.12707879 20 2
-0.61424059 0.14928135 -0.10011807 3 3
-0.63068384 0.15362753 -0.079702556 35 4
-0.62130815 0.15168835 -0.055953983 100 5
-0.65984726 0.16134149 0.13203983 34 13
-0.64793962 0.15866962 -0.034960423 25 6
-0.62081599 0.15214235 0.14756788 39 14
-0.61174768 0.15014637 -0.010995016 13 7
-0.63784236 0.15678705 0.17599694 61 15
-0.61493218 0.15286386 -0.16978529 14 0
-0.62097573 0.15448128 0.011169541 57 8
-0.63535476 0.15829389 -0.15116711 7 1
-0.63428891 0.15838109 -0.12707879 13 2
-0.60937768 0.15249993 -0.099492334 3 3
-0.62959594 0.15802678 -0.079702556 17 4
-0.52303052 0.13137607 0.085413225 27 12
-0.61636966 0.15505011 -0.055605359 100 5
-0.63585955 0.16018888 0.12746042 55 13
-0.62941462 0.15868206 -0.034018375 82 6
-0.64996988 0.16410555 0.15476632 34 14
-0.61262321 0.15490371 -0.011029921 64 7
-0.62926912 0.15922952 0.17392641 62 15
-0.60051072 0.15384984 0.010820491 37 8
-0.64558864 0.16551863 -0.15386651 1 1
-0.65598464 0.16867228 -0.13165821 2 2
-0.61594975 0.15872204 -0.10074381 27 3
-0.6208176 0.16032307 -0.078727603 9 4
-0.57182449 0.14788392 0.093547821 40 12
-0.60758471 0.15724513 -0.054908119 85 5
-0.62335163 0.161558 0.12517071 77 13
-0.61862546 0.16056353 -0.033495016 10 6
-0.62620389 0.16264716 0.1493675 39 14
-0.60187817 0.15655319 -0.010855397 44 7
-0.62814224 0.16361862 0.17392641 62 15
-0.61298561 0.16149993 0.011064826 50 8
-0.57844079 0.15380304 0.094799295 44 12
-0.61032265 0.16250831 -0.055256739 15 5
-0.62410569 0.16641156 0.12555233 71 13
-0.59822071 0.15962158 -0.032448296 11 6
-0.62128776 0.16600865 0.14846769 45 14
-0.6258831 0.16747062 -0.011309159 41 7
-0.63447833 0.16988914 0.17599694 61 15
-0.6157034 0.16682135 0.011134635 100 8
-0.57163662 0.15627483 0.093860693 32 12
-0.59767175 0.16350447 -0.054210871 47 5
-0.59644961 0.16339391 0.12020968 24 13
-0.58553523 0.16062373 -0.031820264 11 6
-0.59002161 0.16218661 -0.010680873 22 7
-0.63513941 0.17482735 0.1765146 12 15
-0.64152455 0.17851366 0.011623302 20 8
-0.608024 0.17090786 -0.055256739 15 5
-5.4105644 1.522879 1.0925723 5 13
-0.60749787 0.17110319 -0.033076327 10 6
-5.073431 1.4308554 1.2169852 0 14
-0.57732838 0.16304085 -0.010471444 23 7
-5.3782201 1.519855 1.497527 10 15
-2.168818 0.61985075 0.039372627 1 8
-5.4323392 1.5659107 0.89543104 2 12
-0.63747615 0.18387739 -0.058045723 14 5
-5.4755192 1.581463 1.1078371 18 13
-2.0798001 0.60148293 -0.11346437 9 6
-5.0261354 1.4545215 1.2079872 0 14
-2.0628147 0.59774119 -0.037487768 0 7
-5.5530119 1.6111971 1.5492908 1 15
-2.0494132 0.60084385 0.037278343 1 8
-5.3647246 1.5860485 0.88604486 3 12
-0.61707252 0.18266799 -0.056302607 52 5
-5.3551712 1.58729 1.0857033 22 13
-2.05268 0.60881066 -0.1122083 8 6
-5.0158587 1.489574 1.2079872 0 14
-2.0547578 0.61098838 -0.037417959 8 7
-5.5789495 1.6599758 1.5596437 1 15
-2.0834675 0.6266557 0.037976436 1 8
-4.4102283 1.3374078 0.72992331 10 12
-0.60246903 0.18281423 -0.055082429 7 5
-4.4087653 1.339485 0.89565748 21 13
-2.1343658 0.64928365 -0.11691854 7 6
-4.40344 1.3403858 1.0626688 14 14
-2.0601156 0.62787497 -0.037592482 24 7
-4.4086943 1.3453499 1.2350845 20 15
-2.073421 0.63905549 0.037871722 2 8
-4.2897239 1.3328147 0.71146405 4 12
-4.2976618 1.3369272 -0.39376962 5 5
-4.3149571 1.3439595 0.87848467 30 13
-4.271234 1.3311591 -0.23446509 8 6
-4.3028212 1.3426514 1.0406237 16 14
-2.1033998 0.65715015 -0.038465101 42 7
-4.3109298 1.3476589 1.2102379 23 15
-1.6452081 0.51904786 -0.46225086 10 0
-2.1318343 0.67339212 0.039023582 1 8
-1.9287462 0.60961205 -0.46699843 1 1
-0.64568925 0.20457661 -0.13165821 2 2
-2.2228088 0.70682448 -0.28639299 4 4
-4.1862001 1.3327668 0.69582063 3 12
-4.1745591 1.3298641 -0.38331094 11 5
-4.215929 1.3446641 0.86016703 27 13
-4.1857328 1.3366419 -0.23027822 7 6
-4.206337 1.3440315 1.0194782 14 14
-2.110306 0.67510766 -0.038674533 8 7
-4.2002277 1.3453119 1.1817677 22 15
-1.6378679 0.52933234 -0.46121556 28 0
-1.9355674 0.62666392 -0.4696978 4 1
-2.0673039 0.67051119 -0.42245111 13 2
-2.0834727 0.6769613 -0.34697169 9 3
-2.1725199 0.70757151 -0.28054324 9 4
-4.0906358 1.3330767 0.68142867 4 12
-3.9454551 1.287287 -0.36309084 9 5
-4.0832691 1.3338288 0.83498025 7 13
-4.1042466 1.3430599 0.99698305 20 14
-2.0903387 0.68484372 -0.038395293 0 7
-4.1010232 1.3443825 1.1564035 27 15
-1.6323929 0.53986257 -0.46069792 31 0
-1.9072087 0.63185722 -0.46384907 7 1
-2.0439405 0.67873973 -0.41863495 49 2
-2.0318365 0.67590159 -0.33914998 38 3
-2.2015522 0.73363888 -0.28493056 29 4
-4.0137715 1.3390954 0.67016536 3 12
-3.9136949 1.3072257 -0.36099908 6 5
-4.0107865 1.3404336 0.82200515 21 13
-3.9699252 1.328318 -0.21939236 7 6
-4.0153141 1.3450636 0.97763729 20 14
-4.0091209 1.3453251 1.1331098 30 15
-1.645053 0.55681962 -0.46535668 29 0
-1.9193611 0.65078801 -0.46789822 8 1
-2.0391524 0.69299257 -0.41863495 58 2
-2.025198 0.68943381 -0.33883709 56 3
-2.1475265 0.73233277 -0.27859333 5 4
-3.9044735 1.3345165 -0.36099908 0 5
-3.9140229 1.3385423 0.80406916 7 13
-3.9320879 1.347788 0.95964122 20 14
-3.9192367 1.3456767 1.1103338 30 15
-1.6429511 0.56892246 -0.46587428 13 0
-1.9110888 0.66289413 -0.46699843 1 1
-2.0342646 0.70721167 -0.41863495 18 2
-2.0483181 0.71329963 -0.34353012 12 3
-3.8518045 1.3466182 -0.35698992 0 5
-3.8378689 1.342499 0.79033089 1 13
-3.8416667 1.3468373 0.93984544 13 14
-3.8386607 1.3480407 1.0901459 11 15
-1.5988762 0.56619191 -0.45448625 3 0
-2.0470104 0.72890699 -0.34415585 1 3
-3.7803404 1.3520687 0.7804088 0 13
-3.7441165 1.3420628 0.9182502 2 14
-3.7691545 1.3532649 1.0730639 1 15
-3.6692519 1.3427551 0.90205371 2 14
-3.6050284 1.3478647 0.88855666 1 14
-3.5411508 1.351526 0.8750596 1 14
-0.46361318 0.20196965 -0.080094457 5 3
-2.7101045 1.3600783 -0.70004767 1 1
-2.1910105 1.1168568 -0.65895331 8 0
-2.3796751 1.2145984 -0.61681581 3 1
-2.6132996 1.3361419 -0.57051897 6 2
-2.6902735 1.3772749 -0.47868952 1 3
-2.6692071 1.3706079 -0.2625131 0 5
-2.682116 1.3790115 -0.15805461 1 6
-2.198595 1.1401298 -0.66361207 11 0
-2.3382773 1.2141198 -0.60826766 12 1
-2.5655894 1.3344233 -0.5621233 10 2
-2.5842316 1.345839 -0.46148172 8 3
-0.50873196 0.26516771 0.070440486 11 11
-2.5627904 1.3363789 -0.35488355 3 4
-2.5571458 1.3357077 -0.25240302 7 5
-2.5644643 1.3412398 -0.15166962 8 6
-2.6018472 1.3619475 0.67800248 1 14
-2.1734946 1.1464382 -0.6584357 16 0
-2.297004 1.2131226 -0.59971952 19 1
-2.5215037 1.3339401 -0.55449098 18 2
-2.5154226 1.3324093 -0.4508442 11 3
-2.5235848 1.338426 -0.35073999 8 4
-2.4952052 1.3250487 -0.24717368 11 5
-2.5250621 1.3431644 -0.14989018 13 6
-2.5443475 1.3539928 0.66540521 2 14
-2.6100078 1.3912733 0.79250389 1 15
-2.1994855 1.179848 -0.66878843 19 0
-2.2610099 1.2143759 -0.59252107 34 1
-2.4777834 1.3324755 -0.54685861 27 2
-2.4628129 1.3260877 -0.44302243 22 3
-2.4809837 1.3381066 -0.34610897 14 4
-2.4578443 1.3272887 -0.24438471 20 5
-2.4947784 1.3489215 -0.14863414 25 6
-2.502269 1.3541008 0.65685707 8 14
-2.4370937 1.3199311 -0.048378069 1 7
-2.4900715 1.3491862 0.75885749 5 15
-2.1931002 1.1957164 -0.6693061 28 0
-2.2680864 1.2381412 -0.59657019 23 1
-2.4425824 1.3356128 -0.54113436 29 2
-2.425772 1.3280711 -0.43801656 26 3
-2.4317815 1.3330165 -0.34050298 25 4
-2.4365268 1.3372772 -0.24316452 32 5
-2.4623833 1.3525878 0.54609537 2 13
-2.4310439 1.336477 -0.1453893 36 6
-2.4366455 1.3401113 0.64201027 12 14
-2.4368119 1.3413107 -0.048552595 7 7
-2.4281375 1.3376399 0.74281067 9 15
-2.1948364 1.2166179 -0.67241186 28 0
-2.375253 1.3182507 -0.62716353 11 1
-2.4025447 1.3350432 -0.53426522 30 2
-2.3976877 1.3339878 -0.43457499 28 3
-2.401608 1.3383646 -0.33757812 32 4
-2.3975534 1.3377513 -0.24020122 35 5
-2.4117422 1.3467722 0.53693652 10 13
-2.3974798 1.3393574 -0.14392389 32 6
-2.3915112 1.3371178 0.63256234 21 14
-2.3907425 1.3377836 -0.047819596 10 7
-2.3987482 1.342813 0.73659903 18 15
-2.1778746 1.2271689 -0.66982371 43 0
-2.3775837 1.3407929 0.04764507 2 8
-2.3812678 1.3434181 -0.63121265 59 1
-2.365582 1.3367474 -0.52815932 31 2
-2.3691685 1.3404112 -0.43113342 33 3
-2.3611159 1.3374876 -0.33319083 35 4
-2.3569603 1.3367642 -0.2370636 35 5
-2.3783777 1.3500085 0.53159386 15 13
-2.3652585 1.3436537 -0.14256316 36 6
-2.3651755 1.3441525 0.62806332 23 14
-2.3448424 1.33368 -0.047086593 22 7
-2.362215 1.3446525 0.72831684 28 15
-2.3083951 1.3220296 -0.71278769 57 0
-2.3371706 1.3390518 0.047016785 6 8
-2.3414011 1.3425614 -0.62311447 31 1
-2.332592 1.3391335 -0.52281672 37 2
-2.3240247 1.335834 -0.4245632 37 3
-2.3310769 1.3420527 -0.33026594 37 4
-2.3365519 1.3457487 0.42706612 2 12
-2.3130479 1.333286 -0.23357739 34 5
-2.3331833 1.3459783 0.5235799 24 13
-2.3422191 1.3517351 -0.14172579 41 6
-2.3337965 1.3479611 0.62221462 25 14
-2.3233554 1.3430123 -0.046842258 34 7
-2.3095264 1.3355563 0.71485823 33 15
-2.2943332 1.3347979 -0.71123475 52 0
-2.3001161 1.3392361 0.046458308 12 8
-2.2985299 1.3388507 -0.61411637 11 1
-2.2943583 1.3385665 -0.51632917 36 2
-2.2754114 1.32911 -0.41736722 36 3
-2.2910435 1.3398504 -0.32587865 35 4
-2.3032327 1.3480581 0.42268598 8 12
-2.2729707 1.3308785 -0.23043977 35 5
-2.2917843 1.3429687 0.51632917 30 13
-2.2810397 1.3377432 -0.13858563 40 6
-2.2976747 1.3480371 0.61501622 25 14
-2.2951918 1.3476582 -0.046458308 39 7
-2.2834904 1.3418597 0.70968187 30 15
-2.2733181 1.3439006 -0.70761132 55 0
-2.2685707 1.3416284 0.046004545 15 8
-2.2539103 1.3340203 -0.60466844 7 1
-2.2683041 1.3441437 -0.51251298 36 2
-2.2476237 1.3334804 -0.41392565 37 3
-2.2440901 1.3335027 -0.32051641 35 4
-2.2549493 1.3404881 0.41549 13 12
-2.2465014 1.3365276 -0.22869666 37 5
-2.2671709 1.3498962 0.51289463 32 13
-2.2461424 1.3379068 -0.13701554 42 6
-2.2513819 1.3420925 0.60511833 25 14
-2.2548163 1.3452066 -0.045830019 39 7
-2.247762 1.3415309 0.70139962 33 15
-2.2343049 1.3414443 -0.69829381 55 0
-2.2437224 1.3481641 0.045690399 26 8
-2.2213945 1.3352758 -0.59836978 7 1
-2.2252259 1.3396945 -0.50488061 38 2
-2.2213416 1.3389418 -0.41079697 36 3
-2.2111671 1.3343877 -0.31710407 35 4
-2.2167909 1.3388364 0.41017124 22 12
-2.2168884 1.3394243 -0.22660492 35 5
-2.23441 1.3510747 0.50755197 35 13
-2.2162423 1.3411468 -0.13575949 39 6
-2.2138541 1.3402302 0.59746999 28 14
-2.2148223 1.3418721 -0.045201734 38 7
-2.2218227 1.3471738 0.69622326 34 15
-2.1951985 1.3389026 -0.68897635 55 0
-2.2071815 1.3467405 0.045131925 31 8
-2.1953869 1.340595 -0.59387076 7 1
-2.1842296 1.3353537 -0.49762988 42 2
-0.43167752 0.2641179 0.044275116 11 10
-2.1919582 1.341656 -0.40704253 38 3
-2.181489 1.3373413 -0.31417918 37 4
-2.1739476 1.3332403 0.40391383 30 12
-2.1735225 1.3340237 -0.22311871 37 5
-2.1931384 1.3471181 0.50030124 36 13
-2.1934493 1.3478355 -0.1349221 42 6
-2.1878443 1.3454443 0.59297097 30 14
-2.174746 1.3384358 -0.044573449 39 7
-2.1862805 1.3460608 0.68794107 38 15
-2.1515436 1.3324537 -0.67810595 51 0
-2.1671312 1.343154 0.044503637 37 8
-2.1663363 1.3431847 -0.58847195 8 1
-2.1548402 1.3381411 -0.49305046 46 2
-2.1556971 1.3402376 -0.40203664 40 3
-2.1588528 1.3437674 -0.31222928 40 4
-2.1494968 1.3389848 0.40109801 37 12
-2.1373367 1.3319278 -0.22032972 36 5
-2.1555989 1.344353 0.49381369 35 13
-2.1585708 1.3472539 -0.13335203 44 6
-2.1654115 1.3520486 0.58937174 33 14
-2.1503224 1.3436706 -0.044259302 40 7
-2.1309679 1.3326104 0.67344719 36 15
-2.1242006 1.336128 -0.67241186 49 0
-2.1274734 1.3387041 0.043875352 41 8
-2.1189787 1.3343923 -0.57812423 22 1
-2.1323957 1.3444012 -0.48999751 45 2
-2.1131158 1.3337923 -0.39577925 39 3
-2.1465366 1.3559356 0.3117418 3 11
-2.1309624 1.3471377 -0.30954817 42 4
-2.1236377 1.3430266 0.39796934 36 12
-2.1111507 1.3361615 -0.21858659 36 5
-2.1229415 1.344662 0.48847106 30 13
-2.1206698 1.3437426 -0.1315726 46 6
-2.1295879 1.3504348 0.58217329 34 14
-2.1155636 1.3425772 -0.043735731 41 7
-2.1039073 1.3356949 0.66775316 35 15
-2.0987749 1.3401587 -0.66723549 54 0
-2.1012251 1.3427566 0.043526303 41 8
-2.0819345 1.3309404 -0.57047588 43 1
-2.1349754 1.3658992 0.13282867 1 9
-2.0965042 1.3423171 -0.48389161 47 2
-2.1173122 1.3561616 0.21998109 2 10
-2.0837963 1.3357193 -0.39202482 39 3
-2.1136267 1.355882 0.30832946 7 11
-2.0950124 1.3444577 -0.30564833 43 4
-2.100913 1.3492794 0.39546639 38 12
-2.0783062 1.335786 -0.21614623 36 5
-2.0972261 1.3484629 0.4846549 35 13
-2.0810049 1.3390607 -0.12968852 46 6
-2.0873401 1.3441676 0.57317531 35 14
-2.0946085 1.3493656 -0.043491397 42 7
-2.0831654 1.3430228 0.66412973 38 15
-2.0731583 1.344268 -0.66205913 56 0
-2.0767028 1.3475959 0.043212157 44 8
-2.044805 1.3274044 -0.56282753 42 1
-2.0550444 1.3350711 0.12843245 3 9
-2.0574546 1.3376584 -0.4770225 43 2
-2.0844104 1.3557014 0.21754073 11 10
-2.0562093 1.3383808 -0.38858327 40 3
-2.064189 1.3446016 0.30247974 3 11
-2.0506496 1.3362913 -0.30052981 42 4
-2.060004 1.3434123 0.38952184 39 12
-2.0489085 1.3371953 -0.2140545 35 5
-2.06639 1.3491193 0.47969386 36 13
-2.0532141 1.3415387 -0.12853712 47 6
-2.0550711 1.3437765 0.56687665 33 14
-2.0550148 1.3442519 -0.042863112 42 7
-2.0559592 1.3458943 0.6584357 38 15
-2.033066 1.3385245 -0.65222406 58 0
-2.0488765 1.3499585 0.04282821 46 8
-2.0224714 1.3330677 -0.5592283 41 1
-2.039005 1.344986 0.12801376 12 9
-2.0218508 1.3346843 -0.47091663 42 2
-2.0466311 1.3515553 0.21457744 27 10
-2.0319836 1.3429012 -0.38576743 42 3
-2.0332277 1.3447433 0.29931113 3 11
-2.0247154 1.3396214 -0.29809242 40 4
-2.0242226 1.3403115 0.38451597 40 12
-2.0162711 1.3360597 -0.21161415 37 5
-2.0421939 1.3537493 0.47625926 39 13
-2.0221617 1.3414873 -0.12717639 46 6
-2.0326514 1.3494681 0.56327748 34 14
-2.0155962 1.3386519 -0.042234823 42 7
-2.0159438 1.339897 0.64860052 40 15
-2.0011868 1.3376551 -0.64497709 58 0
-2.0144701 1.3475522 0.042304631 49 8
-1.9969202 1.3363165 -0.55472928 41 1
-2.0196083 1.3525205 0.12738572 28 9
-1.9961749 1.3378367 -0.46710047 41 2
-1.9974287 1.3391823 0.21039395 40 10
-1.9946728 1.3383441 -0.38044867 40 3
-1.9957738 1.3400925 0.2951676 48 11
-2.0004833 1.343762 -0.2958988 42 4
-1.9984227 1.3433897 0.38138729 43 12
-1.9870572 1.3367575 -0.2095224 39 5
-2.0033751 1.3482436 0.46939012 39 13
-2.0028081 1.3488774 -0.12654836 49 6
-2.0102534 1.3549119 0.55967826 37 14
-1.9962538 1.3459829 -0.042025398 42 7
-1.9889257 1.3420519 0.64290655 43 15
-1.9726168 1.3385764 -0.63876545 61 0
-1.9768906 1.3424845 0.041711252 45 8
-1.9520791 1.326134 -0.54483145 44 1
-1.9869933 1.3508658 0.12592033 51 9
-1.9673085 1.3384873 -0.46252102 41 2
-1.9715604 1.3418837 0.20865084 43 10
-1.9607917 1.3355558 -0.37575564 41 3
-1.9962107 1.3607018 0.29663 7 11
-1.9746523 1.3465116 -0.29346141 45 4
-1.9775733 1.3495148 0.37919718 45 12
-1.959578 1.3382374 -0.20760499 41 5
-1.967977 1.3444769 0.46328428 40 13
-1.9653134 1.3436636 -0.12476893 47 6
-1.9862704 1.3590093 0.55562907 37 14
-1.9670062 1.3463328 -0.041606538 43 7
-1.960382 1.3428038 0.63669485 48 15
-1.9504961 1.3435482 -0.6346243 52 0
-1.9444202 1.340364 0.041222587 35 8
-1.9363565 1.3353039 -0.54303181 9 1
-1.9594319 1.352226 0.12476893 39 9
-1.9563009 1.3510735 -0.46213943 10 2
-1.9424733 1.3420253 0.20655911 33 10
-1.9432957 1.3435951 -0.37419128 14 3
-1.9474849 1.3474965 0.29078028 34 11
-1.9456168 1.3467069 -0.29053652 30 4
-1.937251 1.3419158 0.37325269 44 12
-1.937088 1.3428046 -0.20621049 21 5
-1.9424102 1.3469951 0.4594681 44 13
-1.9312724 1.3402706 -0.12319885 25 6
-1.9335185 1.3428296 0.54348177 42 14
-1.9362099 1.3451996 -0.041152775 56 7
-1.9239953 1.3377094 0.62789506 37 15
-1.9331528 1.3515972 -0.63203615 27 0
-1.9219077 1.3447347 0.040943347 9 8
-1.912619 1.338732 -0.53898275 46 1
-1.9270419 1.3498305 0.12330353 10 9
-1.9227065 1.3477942 -0.45641515 34 2
-1.926532 1.3509774 0.20586187 8 10
-1.9160818 1.3446472 -0.37074974 38 3
-1.9266582 1.353074 0.28907412 9 11
-1.9183009 1.3477039 -0.28785542 34 4
-1.9165235 1.3474553 0.37106261 10 12
-1.924644 1.3536659 -0.20586187 32 5
-1.9152989 1.3480933 0.45527029 9 13
-1.9202359 1.3525701 -0.12309418 29 6
-1.9099963 1.345857 0.53943259 9 14
-1.9087949 1.3460079 -0.040768825 26 7
-1.903561 1.3433114 0.62427157 8 15
-1.8984617 1.3471729 -0.62375391 77 0
-1.9094489 1.3554699 0.040873535 32 8
-1.8936938 1.3452809 -0.53628331 53 1
-1.9112973 1.3582877 0.12288483 41 9
-1.8990887 1.35061 -0.45298058 60 2
-1.9056908 1.3563071 0.20464167 39 10
-1.8988389 1.3519299 -0.36918539 68 3
-1.9125538 1.3627008 0.28834289 32 11
-1.8975313 1.3529961 -0.28614923 67 4
-1.8896174 1.3478508 0.36762103 29 12
-1.8892006 1.3485487 -0.20307288 62 5
-1.9138286 1.3671372 0.45717838 31 13
-1.8963599 1.3551584 -0.12215213 62 6
-1.8815328 1.3455553 0.53403378 28 14
-1.8863425 1.3499901 -0.040489584 56 7
-1.8912317 1.3539883 0.6232363 33 15
-1.8563232 1.3363612 -0.61288351 59 0
-1.8756019 1.351234 0.040349964 64 8
-1.86236 1.342188 -0.52998471 55 1
-1.8855691 1.3599149 0.12183812 71 9
-1.8768783 1.354643 -0.44992763 65 2
-1.8673382 1.3482537 0.20150407 65 10
-1.8781465 1.3570545 -0.3669953 64 3
-1.8917333 1.3678776 0.28663671 67 11
-1.877019 1.3577362 -0.28444308 68 4
-1.8641603 1.3494269 0.36449236 56 12
-1.8493173 1.3391737 -0.19976096 57 5
-1.8726842 1.357092 0.44954604 56 13
-1.8723013 1.3578117 -0.12121009 66 6
-1.8691757 1.3560426 0.53313398 50 14
-1.864164 1.3534001 -0.040210344 63 7
-1.8598518 1.3512619 0.61598933 57 15
-1.837589 1.3424507 -0.60977769 61 0
-1.8534452 1.3545299 0.040070724 63 8
-1.8356417 1.3425027 -0.52503574 57 1
-1.8649852 1.3644634 0.12110542 71 9
-1.8438529 1.3499902 -0.44420335 60 2
-1.8482376 1.3541917 0.20045821 64 10
-1.8385943 1.3476194 -0.36105078 64 3
-1.8567683 1.3619368 0.2827369 63 11
-1.8546923 1.3614105 -0.28249314 71 4
-1.840602 1.3515614 0.36167651 56 12
-1.8286841 1.3437935 -0.19854078 51 5
-1.8410213 1.3538492 0.44420335 56 13
-1.8404921 1.353955 -0.11974468 68 6
-1.8502471 1.3621268 0.53043455 55 14
-1.8434007 1.3580785 -0.039966013 61 7
-1.8303945 1.3489901 0.60926002 54 15
-1.8128878 1.3434254 -0.60460132 58 0
-1.827881 1.3555254 0.039721675 65 8
-1.8014199 1.3363888 -0.51783729 56 1
-1.8281524 1.3572106 0.119326 67 9
-1.8217758 1.3534633 -0.4411504 60 2
-1.8293823 1.3596101 0.19941233 64 10
-1.813291 1.3486336 -0.35792211 64 3
-1.8185514 1.3535322 0.27834961 60 11
-1.8246837 1.3585914 -0.27932456 57 4
-1.8200331 1.3561171 0.35948643 61 12
-1.8035206 1.3443023 -0.19679767 51 5
-1.8176003 1.3557849 0.44076881 55 13
-1.8101883 1.3512391 -0.11838394 64 6
-1.8159497 1.3560339 0.52323616 53 14
-1.8277065 1.3658065 -0.039826389 64 7
-1.8101026 1.353637 0.6056366 57 15
-1.8003762 1.3537273 -0.60356599 69 0
-1.8042295 1.3571177 0.039407536 67 8
-1.7873751 1.3454171 -0.5164876 68 1
-1.7965347 1.3528031 0.11786059 67 9
-1.7968416 1.3540174 -0.43733424 60 2
-1.8039386 1.360352 0.19766922 64 10
-1.7882991 1.3490487 -0.3547934 61 3
-1.7934531 1.3539186 0.27591223 58 11
-1.7834766 1.3473651 -0.2744498 63 4
-1.8013047 1.3613278 0.35760921 59 12
-1.7750225 1.3424387 -0.19470593 53 5
-1.7955675 1.3589622 0.43771586 62 13
-1.7866178 1.3526791 -0.1174419 68 6
-1.7846931 1.3522023 0.51693749 53 14
-1.7846639 1.3531616 -0.03909339 59 7
-1.7900728 1.3577541 0.60201317 60 15
-1.7588615 1.3413497 -0.59269565 61 0
-1.786763 1.3636141 0.03923301 65 8
-1.7580397 1.3421794 -0.51063889 65 1
-1.7759372 1.3568242 0.11712788 63 9
-1.7592719 1.3450644 -0.4304651 60 2
-1.7724808 1.3556536 0.19522884 64 10
-1.7694259 1.3542963 -0.35291618 61 3
-1.7713494 1.35675 0.27396232 58 11
-1.7585071 1.3473998 -0.27201241 60 4
-1.7541349 1.3450223 0.35010037 59 12
-1.7500349 1.3423631 -0.1929628 56 5
-1.778489 1.3651757 0.43580776 63 13
-1.7676274 1.3578191 -0.11681387 68 6
-1.7661763 1.3571945 0.51423806 57 14
-1.7532197 1.3482118 -0.038604725 59 7
-1.752992 1.3490113 0.59269565 59 15
-1.7311195 1.3394096 -0.58648396 59 0
-1.7505567 1.354937 0.038639627 67 8
-1.7424644 1.3496464 -0.50883931 62 1
-1.7445575 1.3517548 0.11566247 63 9
-1.7407669 1.3497903 -0.42817542 63 2
-1.7330661 1.3447881 0.19191694 62 10
-1.7320788 1.3445063 -0.34728456 64 3
-1.7495321 1.359033 0.27201241 60 11
-1.7396536 1.352334 -0.27054995 61 4
-1.7324644 1.34723 0.34759742 61 12
-1.7233247 1.3410888 -0.19104539 57 5
-1.7441319 1.3582579 0.42970186 63 13
-1.7441636 1.3587724 -0.11587181 64 6
-1.7459 1.3611047 0.51108879 58 14
-1.7343048 1.3530385 -0.038395293 59 7
-1.7254939 1.3466491 0.58648396 65 15
-1.7052443 1.3380438 -0.58078998 69 0
-1.7190361 1.3498356 0.038150962 67 8
-1.7087175 1.3422151 -0.50164086 64 1
-1.727227 1.3577297 0.11513911 65 9
-1.7189567 1.3521996 -0.42512247 65 2
-1.7097806 1.3454643 0.19034813 59 10
-1.7071308 1.3443445 -0.34415585 63 3
-1.7212921 1.3564699 0.26908755 58 11
-1.7210553 1.3567703 -0.26908755 64 4
-1.7106097 1.3495041 0.34509447 68 12
-1.7047721 1.3453821 -0.18999951 60 5
-1.707113 1.3481961 0.42283276 65 13
-1.7126979 1.3535777 -0.11440641 64 6
-1.7304802 1.3681228 0.50928921 59 14
-1.7093729 1.3524045 -0.038046245 59 7
-1.7054483 1.3502684 0.58286053 69 15
-1.6943502 1.3487126 -0.58027232 62 0
-1.6972936 1.3515401 0.037871722 69 8
-1.6810173 1.3395377 -0.49624202 65 1
-1.6976422 1.3532706 0.11377838 71 9
-1.6974348 1.3540745 -0.42206952 65 2
-1.6925606 1.3511528 0.18947658 62 10
-1.6886791 1.3485374 -0.34227866 64 3
-1.6918595 1.3520439 0.26591894 66 11
-1.6898369 1.3513949 -0.26567519 66 4
-1.6952146 1.3561802 0.34384301 65 12
-1.6844509 1.3485343 -0.18877934 61 5
-1.6884663 1.3527162 0.42054302 65 13
-1.6831843 1.348967 -0.11304568 66 6
-1.6874422 1.3533468 0.49939132 60 14
-1.6920916 1.3580472 -0.037871722 57 7
-1.6796474 1.3485411 0.5771665 65 15
-1.6698629 1.3483719 -0.57509595 61 0
-1.6751357 1.3535964 0.037592482 69 8
-1.6595004 1.3414403 -0.49264279 64 1
-1.6754923 1.3553352 0.112941 69 9
-1.6663384 1.3488923 -0.41672686 67 2
-1.6784413 1.3591751 0.18895365 64 10
-1.6667086 1.350637 -0.33977571 64 3
-1.6698066 1.3541133 0.26396903 66 11
-1.6572372 1.3443998 -0.2620191 71 4
-1.6639953 1.3508462 0.33946282 68 12
-1.659529 1.347701 -0.18703623 60 5
-1.6698401 1.357042 0.41825336 65 13
-1.661092 1.3508956 -0.1122083 68 6
-1.6628362 1.3527964 0.4948923 62 14
-1.6593084 1.3508891 -0.037348151 59 7
-1.6654614 1.3568653 0.57561362 69 15
-1.6394855 1.3428591 -0.56784898 65 0
-1.6504158 1.3522933 0.037243433 69 8
-1.6410534 1.3455796 -0.48994341 59 1
-1.6476976 1.3515084 0.11168494 69 9
-1.6419432 1.3477473 -0.41291067 67 2
-1.6473577 1.3531544 0.18651329 66 10
-1.648319 1.3544259 -0.33789849 69 3
-1.6544174 1.3604046 0.26299405 69 11
-1.6447452 1.3534145 -0.26153165 69 4
-1.6364605 1.3470758 0.33570841 68 12
-1.6347016 1.346586 -0.18529311 63 5
-1.6557806 1.3649203 0.41710848 67 13
-1.6487764 1.3596298 -0.11199896 72 6
-1.6413269 1.3544494 0.49129307 62 14
-1.637502 1.3522534 -0.037068911 63 7
-1.6383144 1.3534058 0.56940192 67 15
-1.6080151 1.3354735 -0.5600844 73 0
-1.6270938 1.3522791 0.036929294 72 8
-1.6243641 1.3504891 -0.48769391 69 1
-1.6320807 1.3578691 0.11126626 71 9
-1.6234416 1.3516406 -0.41062099 67 2
-1.6212684 1.3503103 0.18459585 75 10
-1.6190966 1.3494589 -0.33383119 69 3
-1.6342083 1.3630217 0.2612879 68 11
-1.6263496 1.3569477 -0.26006919 68 4
-1.6118528 1.3458076 0.33257973 68 12
-1.6099718 1.3451903 -0.18355 56 5
-1.6238562 1.3572732 0.41138422 63 13
-1.6254566 1.3595742 -0.11105692 74 6
-1.6198767 1.3558685 0.48769391 62 14
-1.6175269 1.3543823 -0.03682458 66 7
-1.6095763 1.3486805 0.56267262 64 15
-1.5971748 1.3454227 -0.5595668 64 0
-1.6007955 1.3494276 0.03654534 72 8
-1.5910599 1.3416965 -0.48049545 69 1
-1.6179824 1.3653654 0.11095224 75 9
-1.6034663 1.3540742 -0.40794963 73 2
-1.5981039 1.3500243 0.18302706 68 10
-1.5870076 1.3416003 -0.32913816 66 3
-1.6064668 1.3590119 0.25836304 66 11
-1.6077448 1.3605747 -0.25860679 71 4
-1.6039258 1.3583038 0.33289257 69 12
-1.5944614 1.3512447 -0.18285275 55 5
-1.5933758 1.3508027 0.40604156 63 13
-1.600695 1.357968 -0.11001018 76 6
-1.6044289 1.3620998 0.48589426 60 14
-1.5988871 1.3578746 -0.036615148 66 7
-1.5854008 1.3473747 0.55749625 65 15
-1.5789305 1.3490105 -0.55646098 68 0
-1.5791765 1.3501744 0.0362661 74 8
-1.5698071 1.342638 -0.47689623 69 1
-1.5841327 1.3558489 0.10927749 77 9
-1.5820451 1.3550191 -0.40489674 71 2
-1.5795619 1.3533703 0.18198119 65 10
-1.5746038 1.3500755 -0.32851243 76 3
-1.5788617 1.3546821 0.25543818 66 11
-1.5801312 1.3562509 -0.2556819 68 4
-1.5839148 1.3604583 0.33070248 64 12
-1.5761598 1.3542759 -0.18180689 57 5
-1.577952 1.3567737 0.40451509 63 13
-1.576036 1.356083 -0.10896347 76 6
-1.577397 1.3577335 0.48049545 63 14
-1.583308 1.3637837 -0.036475532 66 7
-1.5715661 1.3546257 0.55594331 69 15
-1.554875 1.3473492 -0.55128461 68 0
-1.5669274 1.3582727 0.036196291 74 8
-1.5486184 1.3433493 -0.47329703 71 1
-1.5627993 1.356128 0.10844011 75 9
-1.5549966 1.3503094 -0.40031728 71 2
-1.5610522 1.3565233 0.18093532 70 10
-1.5549418 1.3516905 -0.32632235 71 3
-1.5576223 1.3549747 0.25348827 65 11
-1.5466683 1.3463947 -0.25178206 71 4
-1.5597206 1.3582354 0.32757381 65 12
-1.5576545 1.3573924 -0.18076101 60 5
-1.562523 1.3625954 0.40298861 65 13
-1.5592439 1.3602145 -0.10844011 80 6
-1.550263 1.3533337 0.47509661 63 14
-1.5496527 1.3537543 -0.035917051 66 7
-1.5521264 1.3563931 0.55231988 64 15
-1.5282519 1.3426015 -0.54507297 68 0
-1.5453923 1.3586156 0.035917051 74 8
-1.5335857 1.3487113 -0.47149745 75 1
-1.5427984 1.3577688 0.10770741 71 9
-1.5322722 1.3494543 -0.39688274 66 2
-1.5338426 1.3513126 0.17884357 62 10
-1.5395404 1.3572873 -0.32507086 71 3
-1.5481248 1.365816 0.25348827 66 11
-1.5404447 1.3595185 -0.25226957 67 4
-1.5294716 1.3507842 0.32319364 68 12
-1.5244889 1.3468573 -0.17797202 64 5
-1.5458579 1.3666973 0.40108052 67 13
-1.5182965 1.3432754 -0.10624201 71 6
-1.5293413 1.3535223 0.47149745 58 14
-1.5254321 1.3510129 -0.035568006 64 7
-1.5310537 1.3569449 0.54817873 65 15
-1.5044175 1.3403866 -0.53989661 64 0
-1.5196878 1.3544677 0.035533097 71 8
-1.5124979 1.3490078 -0.46789822 71 1
-1.5215986 1.357601 0.10687003 73 9
-1.5157288 1.353315 -0.39497465 71 2
-1.5124853 1.3513682 0.17744908 67 10
-1.5155377 1.3545711 -0.32194218 69 3
-1.5299146 1.3683819 0.25202581 65 11
-1.5072496 1.3490571 -0.24836974 68 4
-1.5128835 1.3545754 0.32162929 69 12
-1.4942746 1.3388537 -0.17553167 67 5
-1.5158147 1.3591076 0.39573789 67 13
-1.5210123 1.3642476 -0.10707937 80 6
-1.5184045 1.3628643 0.47104752 57 14
-1.5115004 1.3576205 -0.035463288 69 7
-1.5031004 1.3505503 0.54144943 67 15
-1.4866571 1.3428262 -0.53679073 70 0
-1.4953594 1.3516353 0.035184052 61 8
-1.4859351 1.3435875 -0.46249935 71 1
-1.5091214 1.3655109 0.10666069 73 9
-1.500423 1.3585925 -0.39344814 71 2
-1.4943919 1.3536069 0.17640322 64 10
-1.4914081 1.3518521 -0.31881347 68 3
-1.4997399 1.3603575 0.24861349 66 11
-1.500972 1.3619533 -0.24885722 69 4
-1.4946156 1.3571365 0.3197521 69 12
-1.4851267 1.348994 -0.17553167 61 5
-1.4905481 1.3548677 0.39154008 74 13
-1.4907669 1.3560177 -0.10561397 72 6
-1.4990034 1.3639872 0.46789822 60 14
-1.4963101 1.3624922 -0.035323672 69 7
-1.4807838 1.3493003 0.53679073 73 15
-1.4658502 1.3427329 -0.53264964 70 0
-1.4817019 1.3577294 0.035079334 78 8
-1.4592834 1.3381239 -0.45710054 71 1
-1.4791864 1.3568498 0.10519528 71 9
-1.4810165 1.3594809 -0.39077684 69 2
-1.4790367 1.358615 0.17570597 64 10
-1.4734446 1.3539531 -0.31693625 72 3
-1.4758331 1.3570975 0.24617608 70 11
-1.4709772 1.3535802 -0.24544489 74 4
-1.4766229 1.3592515 0.31787488 71 12
-1.4639497 1.3485297 -0.17413718 74 5
-1.4651742 1.3506041 0.3873423 71 13
-1.4682876 1.3539481 -0.10467192 76 6
-1.4722581 1.3585606 0.46249935 65 14
-1.479416 1.3661222 -0.03514915 66 7
-1.4602127 1.3488617 0.53264964 68 15
-1.4538454 1.3500506 -0.53161436 70 0
-1.4604682 1.3571508 0.034800097 72 8
-1.4472868 1.3453721 -0.45620075 71 1
-1.4535917 1.3521796 0.10404389 67 9
-1.4499344 1.3497219 -0.38505259 71 2
-1.4639221 1.3632199 0.17500873 64 10
-1.4552857 1.3561262 -0.31505907 73 3
-1.4547085 1.3565372 0.2442262 68 11
-1.450117 1.352729 -0.24349497 73 4
-1.4497694 1.3533521 0.31412044 71 12
-1.4489118 1.353024 -0.17343993 72 5
-1.4473403 1.3525033 0.38505259 68 13
-1.4442115 1.3505241 -0.10362521 70 6
-1.4515915 1.3579004 0.45890018 66 14
-1.456944 1.3638611 -0.034835003 79 7
-1.4521705 1.3603433 0.5331673 76 15
-1.4246947 1.3416259 -0.52436739 68 0
-1.4482857 1.3643178 0.034730289 76 8
-1.4293507 1.3474232 -0.45350131 69 1
-1.437089 1.355191 0.10352053 69 9
-1.4321463 1.3514754 -0.38276285 73 2
-1.4369866 1.3569914 0.17291699 70 10
-1.4374052 1.3578615 -0.31318185 73 3
-1.4411134 1.3623167 0.24349497 75 11
-1.4319856 1.354634 -0.24203253 74 4
-1.4233066 1.3468955 0.310366 67 12
-1.4220703 1.3466672 -0.17134818 77 5
-1.4378631 1.3625743 0.38505259 71 13
-1.4306368 1.3562011 -0.10331119 72 6
-1.4293523 1.3559302 0.45485103 74 14
-1.4299839 1.3574779 -0.034416147 72 7
-1.4204637 1.3489119 0.52488506 73 15
-1.4043509 1.3406205 -0.5202263 67 0
-1.4213737 1.3578202 0.034311432 74 8
-1.4145108 1.3517356 -0.45170173 71 1
-1.4189318 1.3569089 0.1028925 73 9
-1.4141662 1.3532962 -0.38047317 68 2
-1.4104457 1.3502082 0.17082524 70 10
-1.4107733 1.3514651 -0.30942741 68 3
-1.4229697 1.3641016 0.24203253 72 11
-1.4138981 1.3563534 -0.2405701 74 4
-1.4081678 1.3513283 0.30911455 67 12
-1.4011378 1.3455218 -0.16995369 79 5
-1.4113286 1.3562552 0.38047317 65 13
-1.4139349 1.3592346 -0.10278783 74 6
-1.4198513 1.365876 0.45485103 74 14
-1.411828 1.3591069 -0.034206714 72 7
-1.3943136 1.3427154 0.51867342 72 15
-1.386395 1.342572 -0.51712048 70 0
-1.3888797 1.345448 0.033752955 74 8
-1.3908098 1.348259 -0.44720268 70 1
-1.4120531 1.3698089 0.10310185 73 9
-1.3934126 1.352198 -0.37742022 70 2
-1.3964601 1.3561021 0.17030232 75 10
-1.3840666 1.3450058 -0.30567297 71 3
-1.4020246 1.3629335 0.24008264 75 11
-1.4015492 1.3634225 -0.24008264 78 4
-1.3899692 1.3531028 0.30723733 71 12
-1.3831462 1.3469304 -0.16890782 79 5
-1.3849533 1.3496329 0.37589374 66 13
-1.3898731 1.3553736 -0.10174111 74 6
-1.4005166 1.3662297 0.45170173 70 14
-1.3922889 1.3591522 -0.033962384 70 7
-1.3736143 1.3418586 0.51453227 73 15
-1.3700964 1.3454502 -0.51453227 75 0
-1.3792164 1.3553522 0.033752955 76 8
-1.3688561 1.3456407 -0.44315359 72 1
-1.3867937 1.3642262 0.10195045 73 9
-1.3837011 1.3621342 -0.37742022 70 2
-1.378441 1.3574303 0.16925645 75 10
-1.3746426 1.3546358 -0.30567297 75 3
-1.3752748 1.3562049 0.23715776 72 11
-1.3778641 1.3592333 -0.23764524 76 4
-1.3804892 1.3627734 0.30723733 69 12
-1.3708736 1.3537542 -0.16855921 79 5
-1.3727046 1.3565084 0.3751305 65 13
-1.366176 1.3509997 -0.1006944 76 6
-1.3784758 1.3636394 0.44765261 71 14
-1.3827666 1.3688387 -0.033962384 74 7
-1.3669578 1.3541348 0.51556754 72 15
-1.3551949 1.3495297 -0.51246172 78 0
-1.3642921 1.3590637 0.033613335 76 8
-1.3511478 1.346909 -0.44045416 74 1
-1.3647474 1.3609416 0.10100841 77 9
-1.3605001 1.3576536 -0.37360403 74 2
-1.3576525 1.3557575 0.16786195 75 10
-1.35421 1.3527926 -0.30317003 73 3
-1.3561841 1.3557106 0.23545158 68 11
-1.3515005 1.3519722 -0.23472038 78 4
-1.34884 1.3497818 0.3022314 67 12
-1.3557581 1.3576521 -0.16786195 84 5
-1.3604275 1.3632793 0.37436727 65 13
-1.3555378 1.3588536 -0.10058971 80 6
-1.3524128 1.3566678 0.44225377 69 14
-1.3534185 1.3586253 -0.033473715 76 7
-1.3522564 1.3579321 0.51349699 71 15
-1.3323817 1.3449982 -0.50728536 83 0
-1.3491437 1.3628702 0.033473715 76 8
-1.3323532 1.3463788 -0.43730485 68 1
-1.3467871 1.3619151 0.10038038 79 9
-1.3344291 1.3503615 -0.36902463 70 2
-1.3399915 1.3564628 0.16681609 78 10
-1.3391817 1.3565905 -0.30191854 71 3
-1.3480805 1.3665589 0.23569533 80 11
-1.339479 1.3583134 -0.23423289 76 4
-1.3255186 1.3450956 0.29910272 69 12
-1.3297068 1.3498166 -0.16577022 70 5
-1.3442299 1.3655126 0.3724592 68 13
-1.3404156 1.3625886 -0.10017103 80 6
-1.3335824 1.3561157 0.43910447 68 14
-1.3371315 1.3606745 -0.033299193 79 7
-1.327854 1.3521775 0.50780302 69 15
-1.3121598 1.3432122 -0.50314426 86 0
-1.3272617 1.3591459 0.033159573 78 8
-1.3188381 1.3514634 -0.43595514 74 1
-1.3346962 1.3681914 0.10017103 84 9
-1.3224661 1.3566014 -0.36826137 77 2
-1.3138053 1.3486593 0.16472435 78 10
-1.3188918 1.3543527 -0.29941559 71 3
-1.3304409 1.3671672 0.23423289 82 11
-1.3244281 1.3619387 -0.23325793 73 4
-1.3135785 1.3512542 0.29847699 67 12
-1.3091446 1.3476341 -0.16437572 74 5
-1.3264595 1.3664113 0.37016946 68 13
-1.3102459 1.3501815 -0.098600946 81 6
-1.322726 1.3639935 0.43865454 71 14
-1.3095086 1.3513079 -0.03284543 78 7
-1.3078663 1.3500839 0.50366187 69 15
-1.2949432 1.3437662 -0.50003839 78 0
-1.3038697 1.3539748 0.032810524 84 8
-1.2987964 1.3491777 -0.43235591 75 1
-1.3195734 1.3717186 0.099752344 84 9
-1.3075207 1.3601395 -0.36673489 77 2
-1.2949315 1.3475143 0.16350417 68 10
-1.2929857 1.3464298 -0.29566118 78 3
-1.3098683 1.3649638 0.232283 80 11
