# .PCD v0.7 - Point Cloud Data file format
VERSION 0.7
FIELDS x y z intensity ring
SIZE 4 4 4 4 2
TYPE F F F F U
COUNT 1 1 1 1 1
WIDTH 1253
HEIGHT 1
VIEWPOINT 0 0 0 1 0 0 0
POINTS 1253
DATA ascii
-1.2285328 0.043545485 -0.10755019 9 5
-1.7564411 0.063484557 -0.092111297 76 6
-1.1840534 0.043003459 0.2735405 2 14
-1.7705402 0.064922385 -0.030925665 97 7
-0.62549156 0.023154367 0.16771474 93 15
-1.1138037 0.044150684 -0.29867718 100 0
-1.8062936 0.071916848 0.03155395 75 8
-1.5733136 0.063190885 -0.36352089 48 1
-1.8599329 0.075027846 0.097554229 7 9
-1.5496886 0.063054696 -0.30147824 48 2
-1.5236975 0.062796243 -0.24153483 68 3
-1.5470139 0.064839005 -0.1901162 52 4
-1.2481048 0.052965656 -0.1092933 9 5
-1.7719316 0.076124638 -0.092948668 96 6
-1.1915121 0.051605672 0.27534011 2 14
-1.7760375 0.077543609 -0.031030379 74 7
-0.62917942 0.027580483 0.16875002 92 15
-1.1154072 0.051820759 -0.29919481 100 0
-1.7877699 0.083683461 0.031239808 72 8
-1.5670073 0.073624276 -0.3621712 45 1
-1.8912842 0.089521259 0.099228986 1 9
-1.5472498 0.073778152 -0.30109662 60 2
-1.5113834 0.072861053 -0.23965763 52 3
-1.5326575 0.074690968 -0.18841003 43 4
-1.2397448 0.061284296 -0.10859605 14 5
-1.7813309 0.088991471 -0.093472026 32 6
-1.2028004 0.060510211 0.27803952 2 14
-1.7774655 0.089731336 -0.031065283 88 7
-0.63475966 0.032266535 0.17030294 91 15
-1.1246636 0.060122129 -0.301783 100 0
-1.7851454 0.096054979 0.031204903 53 8
-1.5645092 0.084456831 -0.36172128 12 1
-1.882636 0.1022893 0.0988103 1 9
-1.546697 0.084578194 -0.30109662 43 2
-1.5009761 0.082866266 -0.23809329 61 3
-1.5102966 0.084174365 -0.18572889 39 4
-1.2213838 0.068927519 -0.10702725 9 5
-1.7268274 0.098358721 -0.090645887 35 6
-1.2023486 0.068905868 0.27803952 2 14
-1.7827849 0.10248248 -0.031169999 67 7
-0.64223343 0.037143372 0.17237349 89 15
-1.1319299 0.068438396 -0.30385357 22 0
-1.7964073 0.10924358 0.03141433 52 8
-1.524979 0.093004175 -0.35272324 24 1
-1.5323521 0.09452796 -0.29842529 21 2
-1.4983894 0.093220375 -0.23778042 22 3
-1.4819354 0.092975631 -0.18231656 39 4
-1.2487241 0.079000495 -0.10946761 6 5
-1.6962008 0.108499 -0.089075804 21 6
-1.1746253 0.075342074 0.27174088 2 14
-1.7461061 0.11260963 -0.030541712 47 7
-0.6515975 0.042250965 0.17496169 99 15
-1.1217871 0.0756891 -0.30126539 77 0
-1.7896367 0.12106351 0.031309616 41 8
-1.4161122 0.097037494 -0.27590984 11 2
-1.5056028 0.10396176 -0.2390319 40 3
-1.4733289 0.10276671 -0.18134159 57 4
-1.2242924 0.086040206 -0.10737588 8 5
-1.7033921 0.12060682 -0.089494489 29 6
-1.1779584 0.083817013 0.27264068 2 14
-1.7432828 0.12465396 -0.030506806 34 7
-0.62817192 0.045027811 0.16875002 100 15
-1.121246 0.083322868 -0.30126539 65 0
-1.7887479 0.13355458 0.031309616 46 8
-1.5254951 0.11416686 -0.35317314 13 1
-1.4623845 0.11047036 -0.28506866 53 2
-1.477265 0.11237234 -0.23465173 52 3
-1.4785333 0.11324744 -0.18207282 35 4
-1.2097728 0.093299031 -0.10615569 7 5
-1.6985263 0.13218547 -0.08928515 26 6
-1.1870747 0.092590891 0.27489018 1 14
-1.742394 0.13651724 -0.030506806 29 7
-0.61821276 0.048654329 0.16616184 95 15
-1.1129349 0.090522155 -0.29919481 61 0
-1.7897906 0.14588918 0.031344522 62 8
-1.4527978 0.11893108 -0.33652678 43 1
-1.4635553 0.12058316 -0.28545028 40 2
-1.4764658 0.12242518 -0.23465173 32 3
-1.4658375 0.12257463 -0.18061039 44 4
-1.2170336 0.10241111 -0.10685294 7 5
-1.6717154 0.14155322 -0.087924413 18 6
-1.1902829 0.10120619 0.27579001 1 14
-1.7513608 0.14952828 -0.030681333 27 7
-0.62941623 0.05384931 0.16926767 91 15
-1.1257638 0.099283323 -0.3028183 51 0
-1.4325435 0.12709473 -0.33202776 7 1
-1.2925534 0.11558466 -0.25224951 10 2
-1.3339199 0.1199878 -0.21212517 8 3
-1.1984506 0.10906737 -0.10528414 3 5
-1.656764 0.15194334 -0.087191716 9 6
-1.1216466 0.10306489 0.26004341 8 14
-1.7463198 0.16107862 -0.030611521 27 7
-0.63094848 0.058420103 0.16978529 100 15
-1.1077348 0.10549217 -0.29815957 18 0
-1.8134874 0.17302157 0.031798285 10 8
-1.4238617 0.13634996 -0.33022815 64 1
-1.4500283 0.13962187 -0.28316057 75 2
-1.4431785 0.13972495 -0.22964582 69 3
-1.2921206 0.12601043 -0.15940511 1 4
-1.2016257 0.11782033 -0.10563275 8 5
-1.6715924 0.16478458 -0.088029087 16 6
-1.7252536 0.17129105 -0.030262474 12 7
-0.65168232 0.064816698 0.17547932 74 15
-1.1204439 0.11440346 -0.301783 65 0
-1.1498046 0.1178066 0.020174982 2 8
-1.4364706 0.14743149 -0.33337748 98 1
-1.1105937 0.11437674 0.058511604 2 9
-1.4392539 0.14873219 -0.28125247 84 2
-1.4480623 0.15040874 -0.23058443 87 3
-1.275438 0.13315345 -0.15745521 1 4
-1.2087219 0.12682818 -0.10633 11 5
-1.6425942 0.17351313 -0.086563677 31 6
-1.096864 0.11605924 0.2546446 55 14
-1.6564381 0.17585248 -0.02907571 35 7
-0.64160901 0.068341792 0.17289113 75 15
-1.1119365 0.12138402 -0.29971248 73 0
-1.1310855 0.12367391 0.019860838 6 8
-1.4470291 0.15873095 -0.33607689 44 1
-1.1733193 0.12891378 0.061861105 2 9
-1.4538198 0.16024622 -0.28430542 40 2
-1.4450417 0.16004448 -0.23027156 46 3
-1.1916165 0.132819 -0.14721818 4 4
-1.1860269 0.13282469 -0.10441258 11 5
-1.1451916 0.12885863 -0.060395699 8 6
-1.1076456 0.12502542 0.25734401 54 14
-1.1385503 0.12891626 -0.020000458 30 7
-0.62385303 0.070748173 0.16823238 80 15
-1.1187601 0.12984076 -0.301783 57 0
-1.1246006 0.13111538 -0.26139313 29 1
-1.1446185 0.1338542 0.060395699 40 9
-1.152383 0.13516994 -0.22553624 7 2
-1.1319619 0.13337548 -0.18052539 58 3
-1.1354876 0.13439369 -0.1403935 70 4
-1.0975369 0.13087344 0.21485093 0 13
-1.1183784 0.13395256 0.26004341 54 14
-0.63676977 0.076719344 0.17185585 51 15
-1.1178265 0.13764775 -0.301783 52 0
-1.1101197 0.13728911 -0.2582438 31 1
-1.1159313 0.13820556 0.058930293 100 9
-1.1027291 0.13696131 -0.2159958 48 2
-1.1231871 0.14009941 -0.17927392 77 3
-1.1030071 0.13836434 -0.13649367 100 4
-1.1307101 0.14244084 -0.099706165 100 5
-1.127761 0.14246923 0.22095683 7 13
-1.109683 0.14077576 0.2582438 53 14
-1.1386482 0.14485444 -0.020035362 153 7
-0.64964741 0.082760707 0.17547932 49 15
-1.1302738 0.14699717 -0.30540648 46 0
-1.1421534 0.14894788 0.020105172 100 8
-1.1228607 0.14702983 0.059348982 76 9
-1.1075858 0.14542297 -0.21714064 62 2
-1.1319737 0.14922795 -0.18083826 60 3
-1.1256551 0.14899459 -0.13941854 72 4
-1.1336645 0.15065874 -0.10005479 71 5
-1.1131426 0.14832717 0.2182855 27 13
-1.1383092 0.15208502 -0.060186356 100 6
-1.1048361 0.14780909 0.25734401 54 14
-1.1396179 0.15286723 -0.020070268 150 7
-0.64330995 0.086521566 0.17392641 37 15
-1.1215641 0.15383458 -0.30333593 49 0
-1.1411132 0.15671884 0.020105172 100 8
-0.99615103 0.13716422 -0.2321495 0 1
-1.1139196 0.15357837 0.058930293 76 9
-1.0987912 0.15188341 -0.21561417 40 2
-1.1368017 0.15774414 -0.18177687 61 3
-1.1245874 0.15684979 -0.13941854 76 4
-1.1207461 0.15691228 -0.099008918 100 5
-1.1140243 0.15636738 0.21866712 43 13
-1.1234028 0.15788397 -0.059453651 100 6
-1.099918 0.15497465 0.25644422 55 14
-1.1207026 0.15830237 -0.019756125 147 7
-0.6465317 0.0914395 0.17496169 24 15
-1.1453485 0.16504727 -0.31006524 8 0
-1.1281164 0.16296606 0.019895744 100 8
-1.1167735 0.16192442 0.059139632 20 9
-1.1171324 0.16237436 -0.21943036 18 2
-1.3721898 0.20018074 -0.21963401 35 3
-1.1608124 0.16996518 -0.14404957 37 4
-1.1109917 0.16366057 0.2182855 55 13
-1.1065201 0.16379142 0.2582438 55 14
-0.63059056 0.09367989 0.17082058 26 15
-2.1174819 0.32099479 0.037383057 72 8
-0.93251145 0.1415284 -0.21775262 0 1
-1.457556 0.22225647 -0.28659514 27 2
-1.4430068 0.22081105 -0.23121016 36 3
-2.1955836 0.33714804 -0.27274361 42 4
-0.78095454 0.12020036 0.12514758 64 12
-1.2188699 0.18803748 -0.10789881 5 5
-1.0943002 0.16901539 0.21523255 64 13
-2.2125716 0.34252444 -0.11733723 30 6
-1.1092011 0.17210974 0.25914362 56 14
-2.2032349 0.34226033 -0.038918864 37 7
-0.64710087 0.10075472 0.17547932 24 15
-0.94830948 0.15019737 -0.25726613 1 0
-2.127039 0.33765078 0.037592482 58 8
-0.93150067 0.14803511 -0.21775262 0 1
-1.4482141 0.23118839 -0.28506866 43 2
-1.9290587 0.30898476 -0.30942741 20 3
-2.1578972 0.34679762 -0.26835632 55 4
-1.2155607 0.1962247 -0.1077245 8 5
-1.1027842 0.17821699 0.21714064 61 13
-2.2002687 0.35636565 -0.11681387 55 6
-1.1041253 0.17922473 0.2582438 57 14
-2.1850014 0.35506698 -0.038639627 25 7
-0.66544896 0.10837518 0.1806557 11 15
-0.90149593 0.14924166 -0.24484283 1 0
-2.1522481 0.3570742 0.038081151 84 8
-0.93044448 0.15453459 -0.21775262 0 1
-2.2006631 0.36629057 0.11691854 1 9
-1.4678662 0.24484672 -0.28926644 11 2
-1.97751 0.33092189 -0.31756201 22 3
-2.1436772 0.35988265 -0.26689389 64 4
-1.2318431 0.20768701 -0.1092933 6 5
-1.1111923 0.18754518 0.21904872 49 13
-2.1839421 0.36938563 -0.11608116 62 6
-1.0932405 0.18530032 0.25599429 47 14
-2.1745834 0.36897394 -0.038500007 45 7
-0.63229942 0.10751306 0.17185585 38 15
-2.1536438 0.3727726 0.038150962 90 8
-0.73732996 0.1277566 -0.17276241 1 1
-2.2137947 0.38437796 0.1177559 1 9
-1.9767492 0.34393141 -0.39001361 21 2
-2.0315843 0.35456806 -0.32663518 47 3
-2.1391575 0.37449676 -0.26665017 68 4
-1.214702 0.21331027 -0.10789881 7 5
-1.1233909 0.19767964 0.22172007 34 13
-2.1537731 0.37976843 -0.11461575 53 6
-1.0996302 0.19409217 0.2577939 11 14
-2.1502938 0.38031587 -0.038116053 47 7
-0.64106429 0.11349829 0.17444403 75 15
-0.70921457 0.12748013 -0.19307902 1 0
-2.1313763 0.38387877 0.037801914 72 8
-2.1796799 0.39375705 0.11608116 1 9
-2.0361817 0.36856869 -0.40222538 37 2
-2.0427289 0.37085846 -0.32882527 29 3
-2.1365588 0.38904893 -0.26665017 68 4
-1.2210617 0.22300537 -0.10859605 9 5
-1.1393999 0.20850228 0.22515462 34 13
-2.1413159 0.39261842 -0.11409239 50 6
-2.1279881 0.39132649 -0.037767008 40 7
-0.6136778 0.11296303 0.16719711 94 15
-0.77289677 0.1443644 -0.21067871 1 0
-2.1149549 0.3958028 0.03755758 61 8
-2.1146271 0.39612401 -0.49669194 1 1
-2.1926532 0.41153196 0.11691854 1 9
-2.0548499 0.38641065 -0.40642318 34 2
-2.0556867 0.3876825 -0.33132821 37 3
-2.1280096 0.40247577 -0.26591894 64 4
-1.2234305 0.232054 -0.10894467 9 5
-1.1225244 0.21332087 0.22210167 22 13
-2.1248598 0.40456989 -0.1133597 54 6
-0.72934312 0.13899767 0.17141271 2 14
-2.1193826 0.40467706 -0.03766229 39 7
-0.62997228 0.1204015 0.17185585 100 15
-0.79086173 0.15329824 -0.21585509 1 0
-2.1141748 0.41057041 0.037592482 42 8
-2.075295 0.40490004 -0.41100258 10 2
-2.0665708 0.40432122 -0.33351833 8 3
-2.1330123 0.41848004 -0.26689389 12 4
-1.2159579 0.23922245 -0.10842174 6 5
-1.1287512 0.22247505 0.22362815 21 13
-2.1240163 0.41941097 -0.11346437 10 6
-0.65573335 0.12960069 0.15431643 28 14
-2.1146173 0.41870546 -0.037627388 7 7
-0.63671815 0.12618892 0.17392641 100 15
-0.8011359 0.16110069 -0.21896091 1 0
-1.2044972 0.24571441 -0.10755019 7 5
-1.1310174 0.23113625 0.22439139 10 13
-2.2403939 0.45866403 -0.11984935 1 6
-0.63190365 0.12948138 0.1489176 33 14
-2.1704085 0.44552043 -0.038674533 0 7
-0.64147562 0.13190942 0.17547932 86 15
-1.1501198 0.2429972 -0.10284378 1 5
-1.1312972 0.23943287 0.22477302 1 13
-0.63501871 0.13451403 -0.034018375 10 6
-0.62717175 0.13308059 0.14801779 30 14
-0.67286307 0.14302152 -0.012007256 18 7
-0.64623159 0.13747855 0.17703223 60 15
-0.61376482 0.13225199 -0.16823238 3 0
-0.64309031 0.13880602 0.011483684 41 8
-0.65906131 0.14237379 -0.15566613 6 1
-0.66770709 0.14472927 -0.13280307 14 2
-0.65052003 0.14136052 -0.10543684 18 3
-0.60903424 0.13267946 -0.076533951 9 4
-0.64426935 0.14082684 -0.057697102 36 5
-0.64249539 0.14055656 0.12784202 19 13
-0.62040734 0.13595137 -0.03328567 85 6
-0.61099994 0.13411343 0.14441857 6 14
-0.62695223 0.13772961 -0.011204445 100 7
-0.66223651 0.14572324 0.18169098 11 15
-0.62036908 0.13821423 -0.17030294 14 0
-0.62258863 0.13893685 0.011134635 87 8
-0.62762123 0.14017493 -0.14846769 12 1
-0.64560723 0.14466523 -0.12860526 13 2
-0.60133356 0.13507523 -0.097615115 8 3
-0.64488852 0.14521369 -0.081164986 17 4
-0.61994946 0.1400528 -0.055605359 100 5
-0.55724192 0.12598862 0.11105084 3 13
-0.64671421 0.14645515 -0.03475108 21 6
-0.59104413 0.13406499 0.13991956 3 14
-0.62402534 0.14166054 -0.011169541 12 7
-0.66120303 0.15034297 0.18169098 11 15
-0.6080932 0.13994217 -0.16719711 20 0
-0.59814429 0.1379824 -0.14171916 28 1
-0.64458156 0.14916888 -0.12860526 18 2
-0.63116437 0.14641209 -0.10262102 26 3
-0.62259054 0.14476675 -0.078483865 36 4
-0.62089694 0.1448299 -0.055779677 100 5
-0.58311468 0.1361243 0.11639349 6 13
-0.63595206 0.14869276 -0.034227718 28 6
-0.6773746 0.1586272 0.16061506 5 14
-0.63275582 0.14829504 -0.011344064 15 7
-0.66013736 0.15495522 0.18169098 11 15
-0.61837882 0.14686254 -0.17030294 19 0
-0.62836975 0.1494669 0.011274255 42 8
-0.59906214 0.14260629 -0.14216907 22 1
-0.63970536 0.15275316 -0.12784202 18 2
-0.63204801 0.15127453 -0.10293389 22 3
-0.61963439 0.14864649 -0.078240126 46 4
-0.6237449 0.15009332 -0.056128301 31 5
-0.65658903 0.15811791 0.13127659 21 13
-0.64654791 0.15593861 -0.034855749 32 6
-0.63457686 0.15328592 0.1507172 30 14
-0.6258741 0.15129915 -0.01123935 13 7
-0.63463056 0.1536506 0.17496169 61 15
-0.60420358 0.1479594 -0.16667947 16 0
-0.6331374 0.15527907 0.011378969 70 8
-0.6131925 0.15050098 -0.14576827 12 1
-0.62718529 0.15439978 -0.12555233 20 2
-0.63289434 0.15615672 -0.10324676 3 3
-0.61858147 0.15296888 -0.078240126 27 4
-0.48319691 0.11966852 0.078842975 19 12
-0.62464261 0.15481482 -0.056302607 33 5
-0.64213121 0.1593872 0.12860526 68 13
-0.62993741 0.15659395 -0.034018375 32 6
-0.60893452 0.15148577 0.14486848 50 14
-0.60733914 0.15131401 -0.010925207 11 7
-0.64291435 0.16041566 0.17754988 72 15
-0.60502911 0.15264638 -0.16719711 1 0
-0.60879952 0.1537108 0.010960111 44 8
-0.63101971 0.15955532 -0.1502673 1 1
-0.60518569 0.15336025 -0.12135453 4 2
-0.61650002 0.15657113 -0.10074381 3 3
-0.60403275 0.15385364 -0.076533951 9 4
-0.56850886 0.14491113 0.092922084 32 12
-0.6158247 0.15720057 -0.055605359 83 5
-0.62007982 0.15851748 0.12440747 37 13
-0.63995421 0.16395518 0.15251681 28 14
-0.59077221 0.1515746 -0.010645968 45 7
-0.6249671 0.16046426 0.17289113 63 15
-0.59803474 0.15544191 0.010785587 45 8
-0.64877892 0.16875243 -0.15476632 1 1
-0.55805731 0.14588316 -0.091357745 4 3
-0.64137739 0.16802286 -0.081408732 8 4
-0.58467984 0.1533878 0.095737904 42 12
-0.60317791 0.15835321 -0.054559495 39 5
-0.62468272 0.16423199 0.12555233 71 13
-0.58136386 0.15306036 -0.031506252 11 6
-0.61809462 0.16284597 0.14756788 39 14
-0.60712856 0.16018361 -0.010960111 43 7
-0.63877374 0.16877131 0.17703223 72 15
-0.63173735 0.16880079 0.011413874 84 8
-0.57599318 0.15530701 0.09448643 40 12
-0.61552227 0.16619584 -0.055779677 22 5
-0.6254161 0.16910151 0.12593395 60 13
-0.64971423 0.17579298 -0.035274439 9 6
-0.62070453 0.16817637 0.14846769 33 14
-0.56739712 0.15394562 -0.010262014 48 7
-0.62642401 0.17007829 0.17392641 37 15
-0.59390646 0.16314302 0.010750683 22 8
-0.59709734 0.16558973 -0.054210871 39 5
-5.4158473 1.5039818 1.0925723 3 13
-0.60613769 0.16855261 -0.032971658 10 6
-4.9695044 1.3828379 1.1908909 0 14
-0.58559924 0.16317172 -0.010611064 22 7
-5.4132662 1.5093753 1.5058093 1 15
-0.56583756 0.15958266 0.010262014 8 8
-0.62278402 0.17728722 -0.056651231 7 5
-5.4187007 1.5445788 1.0952437 6 13
-2.1299009 0.60792363 -0.11608116 3 6
-4.9262486 1.4069978 1.1827927 0 14
-0.56524885 0.16165535 -0.010262014 24 7
-5.4400129 1.5568163 1.516162 1 15
-2.1379373 0.61870122 0.038849056 1 8
-0.58905035 0.17202714 -0.053687938 24 5
-2.1084626 0.61735624 -0.11513911 29 6
-4.8903756 1.4328262 1.176494 0 14
-2.0857658 0.61189651 -0.03794153 6 7
-5.5902696 1.6421257 1.5611964 3 15
-2.1490128 0.63779098 0.039128296 1 8
-0.60119498 0.18013838 -0.054908119 46 5
-4.4397407 1.3319856 0.90100008 18 13
-2.0869954 0.6265254 -0.11419707 21 6
-4.4472828 1.3367869 1.0721167 10 14
-2.1063361 0.63393545 -0.038395293 26 7
-4.4283938 1.3336375 1.2392256 16 15
-2.148334 0.65394247 0.039198104 1 8
-4.364223 1.3392758 0.72304016 2 12
-4.3403926 1.3336208 -0.39725587 0 5
-4.3592625 1.3402513 0.88649869 31 13
-2.1035678 0.64754379 -0.11534845 41 6
-4.34659 1.339676 1.0500715 14 14
-2.1038833 0.64884698 -0.038430199 51 7
-4.3414497 1.340582 1.2174848 20 15
-1.730006 0.53916806 -0.48554453 3 0
-2.1513522 0.67130738 0.039337724 1 8
-1.8378536 0.57383543 -0.44450328 1 1
-0.67263013 0.21053162 -0.13700087 2 2
-2.3029099 0.72345448 -0.29638627 1 4
-4.2473578 1.3359268 0.70520669 3 12
-4.2340574 1.3333676 -0.38836598 7 5
-4.25243 1.339969 0.86665452 25 13
-2.1047099 0.66401643 -0.11566247 60 6
-4.2367864 1.338293 1.0257769 14 14
-2.0783284 0.65688998 -0.038046245 52 7
-4.2527862 1.3457959 1.1952263 24 15
-1.7059566 0.54476786 -0.47985053 11 0
-1.8226665 0.58308893 -0.44180387 11 1
-1.9124798 0.61329371 -0.39039519 1 2
-2.1139169 0.6791113 -0.35166472 1 3
-2.2448933 0.7224853 -0.2895616 4 4
-4.1326375 1.3316208 0.68768603 3 12
-2.1711037 0.70041025 -0.19958666 1 5
-4.1719742 1.3467073 0.852153 31 13
-2.1114259 0.68237859 -0.11629051 56 6
-4.1383438 1.339041 1.0041815 16 14
-2.083204 0.67446309 -0.038220771 35 7
-4.1495638 1.345072 1.1688268 27 15
-1.6892586 0.55246133 -0.47622705 77 0
-1.8333663 0.60065359 -0.4454031 43 1
-1.8764426 0.61621672 -0.38390771 12 2
-2.0340667 0.66915995 -0.33914998 1 3
-2.0889671 0.68843311 -0.27006248 9 4
-4.0632114 1.3406322 0.67767417 7 12
-2.1131895 0.69805217 -0.19470593 36 5
-4.0562196 1.3406806 0.83040082 23 13
-2.1217797 0.70212215 -0.11712788 62 6
-4.0511999 1.3421603 0.98528558 21 14
-4.0410624 1.3411502 1.1408744 28 15
-1.6890244 0.5654673 -0.47726235 46 0
-1.830976 0.61405742 -0.44585299 29 1
-1.8534852 0.62304664 -0.38009155 19 2
-1.9338685 0.65119451 -0.32319364 9 3
-2.061538 0.69538683 -0.26713762 20 4
-3.9657912 1.3392601 0.66296935 1 12
-2.0932887 0.70731771 -0.19331144 36 5
-3.9537747 1.3375096 0.81131989 14 13
-2.0960176 0.70987046 -0.11597649 50 6
-3.9736814 1.3465627 0.96863925 20 14
-2.1663747 0.7349633 -0.039931107 0 7
-3.9531789 1.341923 1.1186159 28 15
-1.6979302 0.58133137 -0.4808858 34 0
-1.8285971 0.6271385 -0.44630289 31 1
-1.8640546 0.64075369 -0.3831445 22 2
-1.9256558 0.66305667 -0.32256791 15 3
-2.051127 0.70746142 -0.26640642 16 4
-2.0884256 0.72154993 -0.19331144 21 5
-3.8666518 1.337437 0.79529196 3 13
-2.0835881 0.7215066 -0.1155578 27 6
-3.8797216 1.3442324 0.94794375 19 14
-3.8709512 1.343464 1.0979104 20 15
-1.6975808 0.59415138 -0.48192108 7 0
-1.8744678 0.65863371 -0.38619745 6 2
-1.9248246 0.67746001 -0.32319364 4 3
-2.0369034 0.71810597 -0.26518771 4 4
-3.7797174 1.3362417 0.77926397 1 13
-3.7933292 1.3432887 0.92904782 8 14
-1.7406826 0.62291211 -0.49537966 1 0
-1.922506 0.68911415 -0.47149745 1 1
-2.0233059 0.72644114 -0.41787171 1 2
-2.166357 0.7820726 -0.20150407 0 5
-3.7462935 1.3539208 0.7743029 0 13
-3.6995699 1.3392252 0.90835232 2 14
-3.684974 1.3361241 1.0502877 1 15
-3.6355338 1.3441032 0.89485526 1 14
-3.5750158 1.350173 0.88225806 1 14
-0.48054028 0.18832165 -0.063372068 12 4
-0.45461386 0.20393005 0.061178416 13 11
-0.46488979 0.23138036 0.0272147 39 9
-2.2017925 1.1126878 -0.66102386 1 0
-2.6360271 1.3338636 -0.6820516 3 1
-2.6564724 1.3465394 -0.57891452 1 2
-2.216306 1.139515 -0.66775316 7 0
-2.3563623 1.2130854 -0.61186683 7 1
-2.5946603 1.3380573 -0.56746602 7 2
-2.6099761 1.3476859 -0.46523616 5 3
-2.6062331 1.347482 -0.36024579 1 4
-2.5991812 1.345561 -0.25606358 4 5
-2.5939534 1.3451515 -0.15313502 3 6
-2.2082963 1.1549605 -0.66775316 14 0
-2.3150351 1.2123301 -0.60331875 14 1
-2.5368078 1.3301601 -0.5567807 13 2
-2.5517707 1.3397095 -0.45647582 11 3
-2.5370269 1.3342283 -0.35195872 6 4
-2.5385997 1.3367527 -0.25100854 8 5
-2.5370355 1.337626 -0.15030889 9 6
-2.6145515 1.3796629 0.68250149 1 14
-2.198678 1.1690577 -0.66723549 16 0
-2.2792072 1.2134068 -0.5961203 19 1
-2.4945459 1.3302851 -0.54952991 22 2
-2.4900796 1.3295782 -0.44708973 16 3
-2.4893727 1.3308761 -0.34659645 9 4
-2.4642186 1.3196418 -0.24455902 14 5
-2.5135534 1.3477554 -0.14947151 18 6
-2.5104146 1.3472009 0.65775687 4 14
-2.5229602 1.3545004 -0.049983691 0 7
-2.5049767 1.3459722 0.76196331 1 15
-2.1955609 1.1871353 -0.66878843 28 0
-2.3854997 1.2914495 -0.62626374 61 1
-2.4575846 1.3326937 -0.54342401 28 2
-2.440809 1.3252509 -0.43989375 26 3
-2.4573483 1.3358972 -0.34342784 20 4
-2.4444475 1.3310956 -0.24351314 21 5
-2.5015702 1.3627679 0.55372775 1 13
-2.4672585 1.3451923 -0.14727339 30 6
-2.4701571 1.3478922 0.64965868 9 14
-2.4432349 1.3337541 -0.048587501 2 7
-2.4548311 1.3411976 0.74953997 7 15
-2.1990702 1.2089485 -0.67241186 47 0
-2.2517998 1.2394732 -0.59342086 19 1
-2.4275897 1.3384435 -0.53884465 28 2
-2.4159331 1.3336666 -0.43707794 28 3
-2.4114771 1.3328545 -0.33830932 29 4
-2.4159207 1.3375138 -0.24159572 33 5
-2.4267333 1.3440527 0.53922629 7 13
-2.4106421 1.3362411 -0.14444725 32 6
-2.4146769 1.3395787 0.63751125 14 14
-2.4128821 1.3391346 -0.048168644 8 7
-2.401499 1.333913 0.73608136 12 15
-2.1888902 1.2233291 -0.67189431 30 0
-2.4433327 1.3666523 0.048866738 1 8
-2.3893437 1.3370008 -0.6321125 55 1
-2.3873599 1.3380802 -0.53197551 30 2
-2.3807237 1.3359991 -0.43238491 32 3
-2.3778846 1.3360441 -0.33489698 34 4
-2.3752708 1.3367581 -0.2384581 35 5
-2.395051 1.3484404 0.53426522 12 13
-2.3768945 1.3393109 -0.14298184 35 6
-2.3781071 1.3410879 0.63031286 24 14
-2.3651583 1.3343298 -0.047400735 16 7
-2.37867 1.3430474 0.73194027 24 15
-2.1954141 1.2471687 -0.67655301 55 0
-2.3641973 1.3441424 0.047470544 3 8
-2.3647063 1.344978 -0.62806332 13 1
-2.3438432 1.3352782 -0.52434313 37 2
-2.352464 1.341822 -0.42894334 37 3
-2.3426423 1.3378458 -0.33124092 38 4
-2.3804474 1.3605378 0.4342621 1 12
-2.3330219 1.3345118 -0.23514619 33 5
-2.354907 1.3475765 0.52739608 19 13
-2.3501551 1.3459457 -0.14193512 39 6
-2.3382537 1.3402145 0.62221462 25 14
-2.3367031 1.3398675 -0.047016785 31 7
-2.3340492 1.3394285 0.72106987 32 15
-2.3087852 1.3329777 -0.71434063 54 0
-2.3253217 1.3436066 0.046877164 9 8
-2.3181417 1.3399985 -0.61816549 8 1
-2.3123767 1.3388206 -0.51938212 37 2
-2.3071501 1.3374077 -0.42237309 34 3
-2.3126431 1.3422101 -0.32831606 32 4
-2.3196473 1.3473579 0.42487606 4 12
-2.2943652 1.3337449 -0.23218289 35 5
-2.3047109 1.3402963 0.51823723 24 13
-2.3199871 1.3502647 -0.14067906 39 6
-2.3120012 1.3466974 0.6177156 25 14
-2.3100142 1.3460802 -0.046667732 39 7
-2.2912652 1.3362263 0.71071708 29 15
-2.2763283 1.3349801 -0.70709366 56 0
-2.283355 1.3401716 0.046213973 12 8
-2.2719967 1.3340389 -0.60826766 7 1
-2.2812107 1.3415906 -0.51442105 41 2
-2.2605445 1.331031 -0.41549 34 3
-2.2675421 1.3367505 -0.32319754 34 4
-2.2780969 1.3440444 0.41893157 10 12
-2.2614479 1.334754 -0.22974254 35 5
-2.2735593 1.3429725 0.51327622 33 13
-2.2591634 1.3355329 -0.1375389 38 6
-2.279536 1.3481133 0.611417 25 14
-2.2594981 1.3373276 -0.045830019 37 7
-2.2574184 1.3366288 0.70295256 30 15
-2.250592 1.3405571 -0.70191729 56 0
-2.2484148 1.3403238 0.045690399 20 8
-2.2310629 1.3305079 -0.59971952 7 1
-2.2467437 1.3419863 -0.50869679 38 2
-2.2243068 1.3301651 -0.41048408 33 3
-2.2277339 1.3337985 -0.31881022 32 4
-2.2248394 1.3331214 0.41079697 15 12
-2.2318037 1.3378239 -0.22765081 35 5
-2.2357452 1.3412476 0.50678873 34 13
-2.2328968 1.3405989 -0.13649218 39 6
-2.2335544 1.3415239 0.60151911 27 14
-2.2366316 1.3444349 -0.045550782 38 7
-2.2300568 1.3410125 0.69725859 35 15
-2.2116616 1.3378474 -0.69259977 55 0
-2.225554 1.3473132 0.045411162 28 8
-2.2036192 1.334559 -0.59477055 8 1
-2.2073424 1.3389208 -0.50182766 38 2
-0.43264258 0.26253402 0.044275116 11 10
-2.1983171 1.3350211 -0.4073554 32 3
-2.1931608 1.3334621 -0.31515417 38 4
-2.2039013 1.3410463 0.40860689 25 12
-2.1951826 1.3367918 -0.22486182 38 5
-2.2165043 1.3503058 0.50449902 34 13
-2.1913192 1.3360125 -0.13450342 40 6
-2.1991813 1.3418591 0.59477055 28 14
-2.1984124 1.3419164 -0.044957399 35 7
-2.2041545 1.3464776 0.69208211 39 15
-2.1775789 1.3380835 -0.68483526 51 0
-2.1905432 1.3471041 0.044887587 34 8
-2.1710117 1.3356146 -0.58847195 12 1
-2.1695268 1.3367904 -0.4953402 42 2
-2.1721308 1.3399644 -0.40422669 34 3
-2.1652195 1.3372664 -0.31247303 40 4
-2.1692803 1.3408214 0.40391383 35 12
-2.1586859 1.3353139 -0.22207282 37 5
-2.1736338 1.3450855 0.49686664 31 13
-2.170053 1.3439167 -0.13377072 43 6
-2.1632578 1.3407533 0.58757216 32 14
-2.1600986 1.3393172 -0.044364017 38 7
-2.1536627 1.3363683 0.67914116 36 15
-2.1321297 1.3307508 -0.67344719 51 0
-2.1437731 1.3390574 0.044119682 34 8
-2.1418025 1.3383467 -0.58307308 37 1
-2.1401706 1.3394053 -0.49076074 45 2
-2.1292446 1.3341194 -0.39796934 39 3
-2.1728847 1.3625194 0.31491041 2 11
-2.1356516 1.3396915 -0.30954817 40 4
-2.1314256 1.3380774 0.39859506 38 12
-2.1191764 1.3309032 -0.21893522 36 5
-2.1409199 1.3456011 0.49152401 30 13
-2.1386395 1.3452101 -0.13240999 44 6
-2.1375878 1.3450685 0.58307308 32 14
-2.1202371 1.3351847 -0.043735731 41 7
-2.1148622 1.3328311 0.66982371 36 15
-2.1015759 1.3321571 -0.66671789 55 0
-2.1058998 1.3354133 0.043526303 37 8
-2.101145 1.3334268 -0.574525 40 1
-2.185257 1.3873408 0.13565481 1 9
-2.1111195 1.3413078 -0.48618135 43 2
-2.1318855 1.355547 0.22102696 1 10
-2.0951133 1.3326783 -0.3932763 40 3
-2.1166718 1.3474301 0.30808574 5 11
-2.1061561 1.3417692 -0.30662328 40 4
-2.1039441 1.3408766 0.39515349 41 12
-2.0896757 1.3328087 -0.21684349 39 5
-2.104996 1.3436135 0.48541811 35 13
-2.0923998 1.3360879 -0.13010719 45 6
-2.1051557 1.3452685 0.57677448 33 14
-2.099072 1.3424121 -0.043491397 40 7
-2.091095 1.3378257 0.66516501 35 15
-2.0794628 1.3380684 -0.66257679 55 0
-2.0864379 1.3435867 0.043316875 40 8
-2.0625319 1.3287015 -0.56642675 41 1
-2.0815141 1.3419582 0.12979318 2 9
-2.0819073 1.3432415 -0.48160195 46 2
-2.0790861 1.3419344 0.21649487 7 10
-2.0625277 1.3322675 -0.38889611 39 3
-2.0838745 1.3470867 0.30467337 8 11
-2.0786383 1.3442169 -0.30394217 42 4
-2.0779481 1.3447988 0.39202482 40 12
-2.0669422 1.3386998 -0.21544899 35 5
-2.0743821 1.3440331 0.48045707 36 13
-2.0645874 1.3387104 -0.12895581 46 6
-2.079366 1.3493241 0.57227546 31 14
-2.0764673 1.3479583 -0.043212157 42 7
-2.0590246 1.3376569 0.65791804 35 15
-2.0538988 1.3419859 -0.65740043 55 0
-2.0585968 1.3460819 0.04293292 42 8
-2.0336359 1.3302671 -0.56102794 39 1
-2.0487003 1.3411425 0.12832777 7 9
-2.0429196 1.3383771 -0.47473282 41 2
-2.0663342 1.3542322 0.21614623 19 10
-2.0416141 1.3390501 -0.38670605 42 3
-2.0694406 1.3583341 0.30394217 1 11
-2.0310385 1.3336351 -0.29833618 42 4
-2.0354919 1.3375772 0.38576743 40 12
-2.0375693 1.3399608 -0.21335725 36 5
-2.0485468 1.347692 0.47664091 36 13
-2.0318367 1.3377151 -0.1274904 43 6
-2.0275862 1.3359308 0.56057805 32 14
-2.0386226 1.3437134 -0.042618778 42 7
-2.0367351 1.3434886 0.65377688 39 15
-2.0187221 1.3392054 -0.64911819 56 0
-2.0358214 1.3515725 0.04265368 49 8
-1.9983259 1.3271819 -0.55382949 42 1
-2.0176637 1.3410403 0.12696704 19 9
-2.0041025 1.3330348 -0.46786368 41 2
-2.021996 1.3454466 0.2124857 31 10
-2.0174186 1.3434162 -0.38389024 40 3
-2.0186098 1.3452274 0.2978487 2 11
-2.0068128 1.3378723 -0.29614252 42 4
-2.0030994 1.3364061 0.38138729 43 12
-2.0016532 1.3364512 -0.21056828 39 5
-2.0292931 1.3554176 0.47435117 41 13
-2.0141463 1.3463175 -0.12696704 47 6
-2.0182099 1.3500539 0.56057805 35 14
-1.9976159 1.336782 -0.041955583 40 7
-1.9984131 1.3383261 0.64445943 43 15
-1.9852889 1.3370782 -0.64135361 69 0
-1.999805 1.3478696 0.042095207 47 8
-1.9857805 1.3389212 -0.5529297 46 1
-2.0016303 1.3506246 0.12654836 37 9
-1.9784765 1.3360071 -0.46404752 41 2
-1.9828364 1.3394544 0.2093481 38 10
-1.9768968 1.3364478 -0.37794572 42 3
-2.0025928 1.3548378 0.29687375 6 11
-1.9842724 1.3429482 -0.29419261 44 4
-1.982272 1.3426034 0.37919718 45 12
-1.9658866 1.3325067 -0.20777929 40 5
-1.9905324 1.3497192 0.46748206 41 13
-1.9931294 1.3524958 -0.12623434 48 6
-1.9942268 1.3542572 0.55652893 37 14
-1.97831 1.3439537 -0.041746158 42 7
-1.9650574 1.3359526 0.63669485 45 15
-1.9631478 1.342183 -0.63721251 37 0
-1.9589894 1.3403435 0.041432012 46 8
-1.9361817 1.3252347 -0.54168218 45 1
-1.9773223 1.3544075 0.12560631 51 9
-1.9448117 1.3331362 -0.45832324 45 2
-1.957005 1.3419974 0.20760499 35 10
-1.9382015 1.3300971 -0.37231407 45 3
-1.9718125 1.354176 0.29370514 48 11
-1.9519426 1.341031 -0.29078028 44 4
-1.9516894 1.3418607 0.37512988 29 12
-1.9387138 1.3334371 -0.20586187 41 5
-1.9406313 1.3357545 0.45794162 25 13
-1.9408735 1.3369199 -0.12351287 48 6
-1.9608923 1.3512141 0.54978037 30 14
-1.9507711 1.3452442 -0.041362204 37 7
-1.9334232 1.3342772 0.62944794 30 15
-1.9442071 1.349247 -0.6341067 20 0
-1.9317517 1.3411021 0.041048057 9 8
-1.9188803 1.3331598 -0.53943259 19 1
-1.9549373 1.358716 0.12476893 16 9
-1.9421389 1.3508272 -0.45984969 21 2
-1.9377773 1.3487972 0.20655911 9 10
-1.9274817 1.3421304 -0.3720012 13 3
-1.9381195 1.3505423 0.29004908 10 11
-1.9278779 1.3444062 -0.28858662 12 4
-1.9327904 1.3483328 0.37325269 9 12
-1.9162879 1.3378158 -0.20446737 7 5
-1.9232118 1.3436482 0.45603353 8 13
-1.9120837 1.3363702 -0.12225681 10 6
-1.9370394 1.3548186 0.54573125 8 14
-1.9265881 1.3485096 -0.041048057 8 7
-1.9132187 1.33965 0.62582451 9 15
-1.9128644 1.3468784 -0.62685978 55 0
-1.9141684 1.3487968 0.040873535 34 8
-1.9017978 1.3405761 -0.53718311 63 1
-1.914395 1.350457 0.12278017 38 9
-1.9166226 1.3530307 -0.45603353 60 2
-1.917159 1.3539107 0.20533893 36 10
-1.9067726 1.3475735 -0.36981112 61 3
-1.9205402 1.3583088 0.28883037 40 11
-1.904098 1.3471787 -0.28639299 49 4
-1.9088203 1.3515198 0.37043685 27 12
-1.9038858 1.3485248 -0.20411874 39 5
-1.9252331 1.3646553 0.45870483 28 13
-1.9027079 1.3496861 -0.12225681 46 6
-1.8943979 1.3442892 0.53628331 24 14
-1.89943 1.3488563 -0.040664107 30 7
-1.9101187 1.35745 0.62789506 29 15
-1.8782663 1.3422287 -0.61857754 63 0
-1.8951828 1.354817 0.040664107 67 8
-1.8812977 1.345884 -0.53403378 57 1
-1.8970376 1.3576443 0.12225681 66 9
-1.8850226 1.3500414 -0.4506909 62 2
-1.8882276 1.3533335 0.20324717 65 10
-1.8895289 1.3547661 -0.36824676 62 3
-1.9031861 1.3655634 0.28761166 63 11
-1.8833594 1.3523343 -0.28468683 62 4
-1.8755112 1.347195 0.36574382 56 12
-1.8750114 1.3478286 -0.20202701 56 5
-1.8965347 1.3643044 0.45412543 56 13
-1.8772656 1.3509401 -0.12121009 62 6
-1.8786418 1.3529261 0.53448373 52 14
-1.8753661 1.3515614 -0.040349964 56 7
-1.8726276 1.3500844 0.61857754 57 15
-1.8424971 1.3357066 -0.60977769 65 0
-1.8630178 1.3515753 0.040175438 62 8
-1.8563213 1.3472123 -0.52953476 59 1
-1.869737 1.3579446 0.12110542 73 9
-1.8517302 1.3458542 -0.44496658 62 2
-1.8547999 1.34858 0.20063251 62 10
-1.8544683 1.3493286 -0.36324087 64 3
-1.872744 1.3636268 0.28444308 69 11
-1.85967 1.3546033 -0.28249314 64 4
-1.8532898 1.3509469 0.36324087 59 12
-1.8335973 1.3370814 -0.19854078 53 5
-1.8586582 1.3563509 0.4472563 53 13
-1.8613366 1.3593012 -0.1207914 70 6
-1.8583744 1.3576355 0.5313344 55 14
-1.8467516 1.3501332 -0.039931107 59 7
-1.8335328 1.3414522 0.60874242 56 15
-1.8253467 1.3428134 -0.60718954 59 0
-1.8344481 1.3500016 0.039756581 67 8
-1.8217649 1.3416489 -0.5223363 55 1
-1.8508028 1.3635317 0.12047738 71 9
-1.8362057 1.3537674 -0.44344014 58 2
-1.8341172 1.3532161 0.19941233 64 10
-1.8166323 1.3408054 -0.35760921 63 3
-1.8378708 1.3574722 0.28054324 58 11
-1.834204 1.3557541 -0.28005576 64 4
-1.8345215 1.3564835 0.36136368 59 12
-1.8114049 1.3403692 -0.19714628 50 5
-1.8270555 1.3529366 0.44191366 56 13
-1.8263627 1.3529178 -0.11911664 70 6
-1.8378928 1.3624521 0.52818507 58 14
-1.8260388 1.3546525 -0.039686773 61 7
-1.8088462 1.3423884 0.60356599 56 15
-1.7975845 1.3413426 -0.60097784 61 0
-1.8169669 1.3567935 0.039582059 63 8
-1.7938557 1.3400233 -0.51693749 65 1
-1.8156431 1.3572863 0.11880264 69 9
-1.8109899 1.3547927 -0.43962395 60 2
-1.8152926 1.3585064 0.19836646 66 10
-1.7977408 1.3463504 -0.35573202 63 3
-1.801345 1.3500313 0.2763997 60 11
-1.7931677 1.3443917 -0.275181 63 4
-1.8028855 1.3526607 0.35698348 61 12
-1.7860709 1.3410196 -0.19540317 54 5
-1.8036758 1.35473 0.4384791 60 13
-1.789732 1.3452343 -0.11733723 68 6
-1.8049756 1.3576789 0.52143651 55 14
-1.8023949 1.3562295 -0.039372627 59 7
-1.7901713 1.3480114 0.60046023 59 15
-1.7789353 1.3468627 -0.59787202 69 0
-1.793106 1.3585763 0.039267913 67 8
-1.7658205 1.3383883 -0.51153868 64 1
-1.782254 1.3518236 0.11723255 67 9
-1.7764664 1.3484114 -0.43351805 64 2
-1.7930701 1.3615069 0.19697197 66 10
-1.7757152 1.3493073 -0.35322908 63 3
-1.7823951 1.3553647 0.27493724 61 11
-1.7616194 1.3400518 -0.27176866 60 4
-1.7745371 1.3508562 0.35322908 64 12
-1.7608167 1.3413819 -0.19366007 54 5
-1.7801206 1.3565793 0.43504456 63 13
-1.7675915 1.3480074 -0.11649985 62 6
-1.7768638 1.3560593 0.5160377 55 14
-1.776988 1.3566456 -0.039023582 63 7
-1.7715063 1.353439 0.59735435 64 15
-1.7495728 1.3439502 -0.59114271 59 0
-1.7661382 1.3576556 0.038883962 65 8
-1.747165 1.3435557 -0.50883931 62 1
-1.7569444 1.3520529 0.11618583 67 9
-1.754566 1.3511972 -0.4304651 62 2
-1.7566894 1.3533217 0.19400868 62 10
-1.7506078 1.3496097 -0.35010037 63 3
-1.7524575 1.3520112 0.27176866 57 11
-1.7427927 1.3450402 -0.27030623 63 4
-1.7400491 1.3438922 0.34822315 63 12
-1.7387973 1.3438952 -0.19226557 56 5
-1.7581815 1.3593665 0.43199161 65 13
-1.7518194 1.3554255 -0.11608116 66 6
-1.7504041 1.3553076 0.51108879 58 14
-1.7358555 1.3445274 -0.038325485 56 7
-1.7406384 1.3492043 0.5901075 65 15
-1.7142433 1.3359442 -0.58234286 73 0
-1.7345409 1.3527359 0.038395293 65 8
-1.7254509 1.346131 -0.50524008 64 1
-1.7364428 1.3556817 0.11545313 63 9
-1.7234313 1.3464918 -0.42512247 64 2
-1.722082 1.3459216 0.19121969 60 10
-1.7162474 1.3423269 -0.34509447 63 3
-1.7320336 1.3556484 0.27006248 60 11
-1.7239819 1.3498316 -0.2688438 63 4
-1.7181848 1.3462609 0.3457202 64 12
-1.7089906 1.3400193 -0.18999951 60 5
-1.7301112 1.3570683 0.42741215 65 13
-1.7328879 1.3602228 -0.11545313 68 6
-1.7347698 1.3626795 0.50928921 60 14
-1.7169929 1.3491995 -0.038116053 59 7
-1.708398 1.3434112 0.58234286 69 15
-1.6942667 1.3394924 -0.57871938 61 0
-1.7062364 1.349923 0.037976436 72 8
-1.6976743 1.3436315 -0.49984124 65 1
-1.7128454 1.3566107 0.11451109 65 9
-1.7047573 1.3511739 -0.42283276 67 2
-1.6970319 1.3455324 0.18947658 62 10
-1.6882651 1.3395422 -0.34134007 63 3
-1.7069809 1.3553632 0.26762509 63 11
-1.702081 1.351957 -0.26689389 66 4
-1.6994665 1.3508481 0.34384301 66 12
-1.6951513 1.3479009 -0.18947658 61 5
-1.6960155 1.3495545 0.42130631 65 13
-1.6967882 1.3511376 -0.11367371 64 6
-1.7102119 1.362314 0.50479019 59 14
-1.6965858 1.3524286 -0.037871722 57 7
-1.6884061 1.3468721 0.57871938 73 15
-1.6713111 1.3404096 -0.57406068 69 0
-1.6845301 1.3514946 0.0376972 75 8
-1.6669787 1.3383698 -0.49354258 65 1
-1.6879997 1.3557314 0.11346437 67 9
-1.6863394 1.3553667 -0.42054302 64 2
-1.6798339 1.3511039 0.18860501 64 10
-1.6729518 1.346049 -0.34008855 64 3
-1.6807076 1.3532565 0.26494396 66 11
-1.6786895 1.3525975 -0.26470023 71 4
-1.6794664 1.353707 0.3416529 69 12
-1.6670907 1.344692 -0.18738484 63 5
-1.678914 1.3551964 0.41939822 67 13
-1.6642435 1.3438343 -0.11210363 68 6
-1.6764073 1.3546239 0.49759173 62 14
-1.6793283 1.3579527 -0.0376972 59 7
-1.6611754 1.3437541 0.57250774 59 15
-1.657652 1.348098 -0.57250774 62 0
-1.664197 1.3543862 0.037452865 66 8
-1.6487628 1.3423038 -0.49084321 67 1
-1.6583642 1.351083 0.11210363 69 9
-1.6585763 1.3522201 -0.41596362 69 2
-1.661335 1.3549513 0.18755916 64 10
-1.6558619 1.3514509 -0.33852422 69 3
-1.6589197 1.354911 0.26299405 69 11
-1.6448478 1.3438971 -0.26080042 69 4
-1.6531531 1.3516445 0.33821136 65 12
-1.6517302 1.3509629 -0.1866876 60 5
-1.6620547 1.3603753 0.41749012 65 13
-1.6501859 1.3516235 -0.11178961 70 6
-1.6520745 1.3536522 0.49309272 66 14
-1.6499437 1.3528692 -0.037243433 57 7
-1.6502606 1.3540926 0.57199007 67 15
-1.6243567 1.3399683 -0.56422555 65 0
-1.6410583 1.3542278 0.037138719 75 8
-1.6258284 1.3426132 -0.48679405 71 1
-1.6398903 1.3547078 0.1114756 71 9
-1.6281499 1.3459655 -0.41062099 69 2
-1.6318779 1.3500066 0.18529311 75 10
-1.6374934 1.3551342 -0.33664703 69 3
-1.6420141 1.3598406 0.26177537 68 11
-1.6293122 1.3502805 -0.25982547 67 4
-1.622624 1.3452154 0.33383119 65 12
-1.6207913 1.3446509 -0.18424724 63 5
-1.6404324 1.3619133 0.41443717 65 13
-1.6348017 1.3577201 -0.11137092 74 6
-1.6305944 1.3551884 0.48949349 66 14
-1.6235467 1.3502895 -0.036859483 63 7
-1.6187294 1.346761 0.56422555 64 15
-1.5974163 1.3361206 -0.55801392 67 0
-1.6177635 1.3540995 0.03682458 72 8
-1.6136632 1.3511472 -0.48589426 69 1
-1.6212076 1.3584265 0.11084756 73 9
-1.6096872 1.3497306 -0.40833127 69 2
-1.6028069 1.3444374 0.18302706 65 10
-1.6083242 1.3500226 -0.33257973 67 3
-1.623361 1.3636104 0.26031294 66 11
-1.6109647 1.3536772 -0.25836304 74 4
-1.6041219 1.3488829 0.331954 68 12
-1.6024525 1.3479567 -0.18320136 53 5
-1.6040893 1.3502897 0.40756804 65 13
-1.6145903 1.3600931 -0.11063822 80 6
-1.610901 1.3574655 0.48634419 62 14
-1.6066744 1.3548636 -0.036684956 66 7
-1.5900947 1.3418319 0.55749625 69 15
-1.5792106 1.3397415 -0.55490804 65 0
-1.5871637 1.3469652 0.036335908 72 8
-1.5833964 1.3447189 -0.47959566 71 1
-1.6088793 1.3668441 0.11063822 73 9
-1.5914885 1.353026 -0.40604156 69 2
-1.5842764 1.3478483 0.18198119 64 10
-1.58255 1.3468556 -0.32913816 80 3
-1.5989287 1.3617578 0.25787556 66 11
-1.59241 1.357165 -0.25690058 69 4
-1.5918965 1.3572072 0.33132821 65 12
-1.5687519 1.3384206 -0.1804124 56 5
-1.5856649 1.3538069 0.40527833 63 13
-1.590108 1.3580803 -0.10959151 72 6
-1.591015 1.3598156 0.48319483 62 14
-1.5880589 1.3582486 -0.036475532 66 7
-1.5765204 1.3488564 0.55594331 64 15
-1.5641962 1.3454208 -0.55283749 70 0
-1.5686282 1.3501858 0.036126483 74 8
-1.5623926 1.3452933 -0.47599643 69 1
-1.5766017 1.3584872 0.10906815 75 9
-1.5745693 1.3576933 -0.40413347 73 2
-1.5629959 1.3481903 0.1805867 64 10
-1.5626416 1.3488355 -0.32694808 71 3
-1.5683515 1.3547199 0.2544632 63 11
-1.5711188 1.3575896 -0.25495067 69 4
-1.5704291 1.3579508 0.32882527 64 12
-1.5488231 1.3402139 -0.1791922 57 5
-1.5660226 1.3555743 0.40260699 69 13
-1.5639821 1.3547636 -0.10844011 76 6
-1.5667577 1.3581256 0.47869584 63 14
-1.5712227 1.3624762 -0.036301006 71 7
-1.5539336 1.3484347 0.55128461 64 15
-1.5474868 1.3499579 -0.55024934 72 0
-1.5546446 1.3571587 0.036021769 78 8
-1.5353489 1.3407857 -0.47059759 71 1
-1.5475286 1.352375 0.10770741 73 9
-1.5487963 1.3544366 -0.39993569 69 2
-1.5505469 1.3564452 0.18023807 65 10
-1.5472414 1.3545072 -0.32569659 71 3
-1.5498964 1.3577878 0.2530008 63 11
-1.5436881 1.3528247 -0.25202581 68 4
-1.5460585 1.3558571 0.32569659 68 12
-1.5409268 1.3523078 -0.17936651 61 5
-1.546193 1.3574078 0.39993569 65 13
-1.5424826 1.3551035 -0.10760273 76 6
-1.5382119 1.3523031 0.4728471 57 14
-1.5331421 1.3483211 -0.035637815 58 7
-1.5415814 1.3566977 0.55024934 64 15
-1.5163212 1.3415278 -0.54248476 68 0
-1.5376461 1.3613509 0.035847243 72 8
-1.523033 1.348888 -0.4696978 75 1
-1.5335659 1.3591714 0.10739339 75 9
-1.521677 1.3495837 -0.39535624 67 2
-1.5261357 1.3540142 0.17849496 64 10
-1.52593 1.3547839 -0.32319364 68 3
-1.5344439 1.3633009 0.25202581 63 11
-1.5223358 1.3530189 -0.25007591 71 4
-1.5173671 1.349551 0.32162929 69 12
-1.513824 1.346873 -0.17727478 61 5
-1.5293475 1.3616412 0.3980276 67 13
-1.5270197 1.3605244 -0.10718405 74 6
-1.5231525 1.3575557 0.47104752 57 14
-1.5177222 1.3536675 -0.035498194 64 7
-1.5133358 1.350704 0.54352003 67 15
-1.4925399 1.339179 -0.53730839 70 0
-1.5060216 1.3517499 0.035323672 71 8
-1.5048804 1.3516744 -0.46699843 69 1
-1.5109075 1.3575652 0.10645135 69 9
-1.5036964 1.3520341 -0.39306656 69 2
-1.4988725 1.3486438 0.17640322 64 10
-1.49465 1.3453161 -0.31850061 76 3
-1.5133288 1.3630856 0.25007591 65 11
-1.5040059 1.3556395 -0.24861349 72 4
-1.4964094 1.3492658 0.31912637 69 12
-1.4836748 1.3387226 -0.17483442 64 5
-1.5023181 1.3564967 0.39344814 67 13
-1.5103127 1.3641932 -0.10666069 80 6
-1.506409 1.3616229 0.46879801 59 14
-1.5037863 1.3602057 -0.03539348 69 7
-1.4854846 1.3441235 0.53679073 71 15
-1.4748154 1.341508 -0.53420252 70 0
-1.4817599 1.3487704 0.034974623 78 8
-1.4783542 1.3461422 -0.46159956 73 1
-1.495488 1.3626988 0.10603265 73 9
-1.482615 1.3519168 -0.39001361 69 2
-1.480826 1.3507583 0.17535736 64 10
-1.4779264 1.3490595 -0.31693625 72 3
-1.4920506 1.3629065 0.248126 66 11
-1.4859508 1.3578111 -0.24715105 72 4
-1.4752909 1.3490156 0.31662342 74 12
-1.4684135 1.3436676 -0.17413718 72 5
-1.4785687 1.3534348 0.38963199 76 13
-1.4742424 1.3504202 -0.10477659 69 6
-1.4825015 1.3589382 0.46429899 65 14
-1.4709109 1.3487861 -0.034835003 61 7
-1.4661012 1.3453181 0.5331673 71 15
-1.4583141 1.3452222 -0.53161436 75 0
-1.4649606 1.3523002 0.034800097 72 8
-1.4488767 1.3379215 -0.45530096 71 1
-1.4654022 1.3541293 0.10456725 73 9
-1.4716995 1.3609011 -0.38963199 71 2
-1.4684348 1.3583577 0.17500873 67 10
-1.462674 1.3539765 -0.3156848 72 3
-1.4621115 1.3544039 0.24471366 68 11
-1.4647871 1.3573575 -0.24520114 73 4
-1.4658374 1.3592818 0.31662342 72 12
-1.4531549 1.3484658 -0.17343993 74 5
-1.4546951 1.3503675 0.3858158 71 13
-1.4559987 1.352524 -0.10414857 72 6
-1.4644145 1.3612937 0.46159956 67 14
-1.4629232 1.360384 -0.034869909 70 7
-1.4496021 1.3489404 0.53057909 69 15
-1.4404222 1.3474519 -0.52850848 75 0
-1.4496447 1.3570282 0.034660477 74 8
-1.436656 1.3453398 -0.45440111 71 1
-1.441339 1.3506699 0.10352053 69 9
-1.444978 1.3550267 -0.38505259 75 2
-1.4501972 1.3603976 0.17396286 68 10
-1.4445444 1.356043 -0.31380758 73 3
-1.4453863 1.3577826 0.24349497 72 11
-1.4350227 1.3485193 -0.24178879 74 4
-1.4361655 1.3505368 0.31224322 71 12
-1.4352354 1.3501348 -0.17239405 77 5
-1.4395146 1.3551072 0.38428935 71 13
-1.4377984 1.3544384 -0.10352053 84 6
-1.4380957 1.3551923 0.45620075 70 14
-1.440297 1.3582162 -0.034555767 68 7
-1.4317192 1.3510723 0.52747321 76 15
-1.4155635 1.3428496 -0.52281445 70 0
-1.4302205 1.3572286 0.034416147 71 8
-1.4159244 1.3446013 -0.45080194 73 1
-1.4292159 1.3576983 0.10331119 69 9
-1.4186461 1.3485992 -0.38047317 68 2
-1.4276729 1.3581291 0.17239405 72 10
-1.4238329 1.3549502 -0.31130463 68 3
-1.4332358 1.3648512 0.2430075 72 11
-1.4226996 1.3557656 -0.24130133 74 4
-1.4126418 1.3466507 0.30911455 69 12
-1.4113586 1.346369 -0.17065094 79 5
-1.427179 1.3624126 0.38352609 68 13
-1.4169903 1.353159 -0.10268316 75 6
-1.4116931 1.3490429 0.45080194 73 14
-1.4062104 1.3447436 -0.033962384 66 7
-1.4057384 1.3447613 0.52126157 68 15
-1.3868958 1.3337072 -0.51556754 70 0
-1.4106245 1.357474 0.034171812 74 8
-1.4039311 1.3515049 -0.44990209 71 1
-1.4110725 1.3593289 0.10268316 73 9
-1.4063697 1.3557451 -0.37970993 68 2
-1.4011853 1.3512192 0.17030232 75 10
-1.4029676 1.3538834 -0.30880168 71 3
-1.4193882 1.3706872 0.24227627 70 11
-1.4020164 1.3543845 -0.23935141 78 4
-1.3975245 1.3509885 0.30786306 67 12
-1.3876052 1.3423362 -0.16890782 77 5
-1.4009423 1.3557124 0.37894669 65 13
-1.4032044 1.3588501 -0.10236914 73 6
-1.3994416 1.356153 0.44990209 73 14
-1.402768 1.3598514 -0.034102004 76 7
-1.3893828 1.3478167 0.51867342 76 15
-1.3761677 1.3420084 -0.51504993 72 0
-1.3810771 1.3477359 0.033683144 74 8
-1.383306 1.350383 -0.44630289 70 1
-1.3986908 1.3663555 0.10247381 71 9
-1.3884472 1.3572961 -0.37742022 72 2
-1.3803216 1.3498247 0.16890782 75 10
-1.3765395 1.3470656 -0.30504724 73 3
-1.3941834 1.3652849 0.23959514 75 11
-1.3868549 1.3585825 -0.23837645 78 4
-1.3824166 1.3551804 0.30661157 69 12
-1.3725106 1.34641 -0.16821058 72 5
-1.3788327 1.3530836 0.37551212 62 13
-1.3822834 1.3574181 -0.10153177 74 6
-1.3857701 1.3617923 0.4485524 71 14
-1.3804059 1.3569946 -0.033787858 72 7
-1.3661675 1.3439357 0.51349699 72 15
-1.3585236 1.3434324 -0.51194406 72 0
-1.3687913 1.354532 0.033613335 74 8
-1.3558412 1.3421844 -0.44045416 74 1
-1.3720908 1.3592197 0.10121775 73 9
-1.3733606 1.3614277 -0.37589374 72 2
-1.3652058 1.3538163 0.16821058 75 10
-1.361493 1.3510772 -0.30379578 73 3
-1.3677154 1.3581997 0.23667029 77 11
-1.3660698 1.3570395 -0.23642655 74 4
-1.364516 1.3564429 0.30473438 66 12
-1.3576634 1.3501015 -0.16751333 79 5
-1.3679608 1.3612921 0.3751305 71 13
-1.3572061 1.3515325 -0.10038038 84 6
-1.3668042 1.3615663 0.4454031 65 14
-1.3680665 1.3637747 -0.03371805 72 7
-1.3471783 1.34389 0.50987357 68 15
-1.3436549 1.3474126 -0.50987357 78 0
-1.3510693 1.35532 0.033403907 76 8
-1.3436869 1.3488564 -0.43955436 74 1
-1.3473049 1.3529598 0.10006636 86 9
-1.3529831 1.3596113 -0.37284079 75 2
-1.3515068 1.3590757 0.16768765 70 10
-1.3439089 1.3519076 -0.30191854 69 3
-1.3486454 1.3576198 0.23496412 70 11
-1.3397804 1.3496376 -0.23350169 81 4
-1.3441203 1.3544821 0.3022314 71 12
-1.3453989 1.3567175 -0.16716471 77 5
-1.3515147 1.3638363 0.37322241 68 13
-1.3367302 1.3493879 -0.099542998 79 6
-1.3435559 1.3572255 0.44090405 65 14
-1.3430426 1.3576546 -0.033334095 76 7
-1.3461497 1.3612705 0.51297939 73 15
-1.3209047 1.3427552 -0.50469714 81 0
-1.3387707 1.3618672 0.033334095 72 8
-1.3262795 1.3496314 -0.43685496 72 1
-1.332229 1.3566327 0.099647671 86 9
-1.3324579 1.3578135 -0.36978784 74 2
-1.3324579 1.3582876 0.16646746 78 10
-1.3316729 1.3584354 -0.30129281 71 3
-1.3349673 1.3627478 0.23423289 77 11
-1.3305631 1.3587257 -0.23350169 74 4
-1.3180522 1.3468907 0.29847699 67 12
-1.3194141 1.3487526 -0.16507298 84 5
-1.335338 1.3659848 0.37131432 65 13
-1.3258814 1.3572586 -0.099438325 85 6
-1.3233944 1.3551857 0.43730485 66 14
-1.3267871 1.3596091 -0.033159573 79 7
-1.3204281 1.3540385 0.50676769 69 15
-1.3007374 1.3408513 -0.50055605 78 0
-1.3141569 1.355157 0.032950144 78 8
-1.3141125 1.3560588 -0.43595514 74 1
-1.3229642 1.3656691 0.099647671 84 9
-1.3149915 1.3583883 -0.36749816 77 2
-1.3063194 1.3503728 0.16437572 75 10
-1.3059169 1.3504281 -0.2975384 71 3
-1.3201427 1.3660929 0.23325793 77 11
-1.3155289 1.3622701 -0.23252673 72 4
-1.30611 1.3529885 0.29785126 67 12
-1.2961327 1.343592 -0.16332985 77 5
-1.3135064 1.3625526 0.36787975 68 13
-1.3082967 1.3576232 -0.0988103 83 6
-1.3111976 1.3615843 0.43640503 68 14
-1.2964644 1.3472251 -0.032636002 78 7
-1.2964488 1.3476801 0.50107372 69 15
-1.2889093 1.3468822 -0.49952078 86 0
-1.2908431 1.3498465 0.032601096 84 8
-1.2886928 1.3480682 -0.4305563 78 1
-1.3037403 1.3647629 0.098914966 82 9
-1.3000536 1.3618551 -0.36597168 77 2
-1.2943465 1.3563507 0.16402711 78 10
-1.2828248 1.3452168 -0.29440969 71 3
-1.2996179 1.3637794 0.23130804 77 11
-1.3007491 1.3654435 -0.23155177 74 4
-1.2911845 1.3563509 0.29659978 71 12
-1.2812285 1.3468335 -0.16263261 72 5
-1.2879661 1.35439 0.36330032 71 13
-1.2795255 1.3464543 -0.09734489 81 6
-1.3016599 1.370705 0.43640503 66 14
-1.2817571 1.3502175 -0.032496382 76 7
-1.2790313 1.348289 0.49796787 67 15
-1.267542 1.3432025 -0.49486202 62 0
-1.2786444 1.3559154 0.032531288 81 8
-1.2645459 1.3414345 -0.42560738 64 1
-1.2818553 1.360747 0.097972922 86 9
-1.2784033 1.3580325 -0.36253712 64 2
-1.2766536 1.3566477 0.16298124 72 10
-1.2706957 1.3512617 -0.29378396 71 3
-1.2778306 1.3597999 0.22911438 70 11
-1.274875 1.3571291 -0.22862691 72 4
-1.2789799 1.3624516 0.29597405 66 12
-1.2690681 1.3528395 -0.16228399 72 5
-1.2757938 1.3604842 0.36253712 71 13
-1.260534 1.3451529 -0.096612185 77 6
-1.2760751 1.3626894 0.43100622 66 14
-1.2695659 1.3562135 -0.03242657 69 7
-1.2616692 1.3487203 0.49486202 69 15
-1.2555294 1.3501655 0.032182239 27 8
-1.2628087 1.3594201 0.097240217 48 9
-1.258206 1.3554131 -0.35948417 12 2
-1.2576643 1.3553045 0.16176106 23 10
-1.2710052 1.3715994 0.22960186 32 11
-1.2600441 1.3611997 0.29378396 15 12
-1.251603 1.3535018 0.35833931 15 13
-1.2599204 1.3644065 0.42875671 15 14
-1.2478598 1.351819 -0.032112427 12 7
-1.2443634 1.3489758 0.4917562 15 15
-1.2225416 1.3323015 -0.48450929 58 0
-1.2474247 1.3603714 0.032217141 30 8
-1.2272582 1.3388479 -0.41930875 57 1
-1.239797 1.3534749 0.096193492 16 9
-1.2328057 1.3467861 -0.35490477 69 2
-1.2414472 1.3567019 0.16088949 43 10
-1.2370422 1.3528357 -0.29034239 69 3
-1.2426515 1.3599235 0.22618952 20 11
-1.2330427 1.3498803 -0.22448336 67 4
-1.214553 1.3305717 0.28533649 41 12
-1.2272303 1.3454021 -0.1593207 61 5
-1.2315406 1.3506013 0.35528636 36 13
-1.2295235 1.3493344 -0.095670134 55 6
-1.2254357 1.3457921 0.42020854 50 14
-1.2141626 1.3338794 -0.031484142 50 7
-1.2167168 1.337623 0.48450929 38 15
-1.2093221 1.3365065 -0.48295635 81 0
