# .PCD v0.7 - Point Cloud Data file format
VERSION 0.7
FIELDS x y z intensity ring
SIZE 4 4 4 4 2
TYPE F F F F U
COUNT 1 1 1 1 1
WIDTH 383
HEIGHT 1
VIEWPOINT 0 0 0 1 0 0 0
POINTS 383
DATA ascii
1.7557536 0.2040793 0.092634656 2 9
1.7650774 0.19268465 0.093053341 87 9
1.7644241 0.17984575 0.092948668 100 9
1.7657117 0.16846418 0.030960569 12 8
1.7576832 0.16676961 0.092529982 91 9
1.7628108 0.15453649 0.092739321 88 9
1.7883663 0.1558333 0.15705465 6 10
1.7858551 0.14494173 0.031274714 90 8
1.7678283 0.14254703 0.092948668 91 9
1.7854387 0.14302617 0.15670602 72 10
1.7728639 0.13143566 0.031030379 44 8
1.7847153 0.13137478 0.093786038 91 9
1.7724839 0.1295414 0.15548584 100 10
1.7853022 0.12577964 -0.031239808 39 7
1.7757334 0.11918944 0.031065283 7 8
1.799539 0.11984091 0.094518751 93 9
1.7892497 0.11821476 0.15688033 39 10
1.7921437 0.11337989 -0.031344522 43 7
1.7924911 0.10774949 0.031344522 10 8
1.7943692 0.10660528 0.094204731 86 9
1.8019834 0.10611089 0.1579262 7 10
1.8071944 0.095659867 0.031588856 10 8
1.7950697 0.094075628 0.094204731 88 9
1.8066597 0.093734547 0.15827483 9 10
1.7992995 0.089574724 -0.094414078 59 6
1.7855629 0.087953724 -0.031204903 9 7
1.8137964 0.083633631 0.03169357 9 8
1.8032892 0.080940731 0.1579262 9 10
1.8178262 0.078097589 -0.095356122 78 6
1.7941251 0.075823747 -0.031344522 9 7
1.812338 0.070890754 0.031658668 9 8
1.8161539 0.070087701 0.095251448 10 9
1.8077803 0.068816669 0.15827483 9 10
1.8437253 0.067284137 -0.16141243 1 5
1.8442746 0.066337317 -0.096716851 100 6
1.8265859 0.0644252 -0.031902999 33 7
1.8287779 0.058749303 0.031937905 17 8
1.8405641 0.057842642 0.096507512 10 9
1.8122094 0.056001808 0.15862344 9 10
1.8393321 0.055876054 0.22594579 50 11
1.8381757 0.05423459 -0.16088949 78 5
1.8207451 0.052448183 -0.095460795 79 6
1.82899 0.05172731 -0.031937905 81 7
1.8111598 0.045213103 0.031623758 73 8
1.8389266 0.044941995 0.096402846 66 9
1.8304825 0.043776691 0.16019225 9 10
1.8337312 0.042574435 0.22521456 86 11
1.8385167 0.041079525 -0.16088949 20 5
1.8210667 0.039735712 -0.095460795 79 6
1.8533045 0.039145648 -0.032356761 100 7
1.8414221 0.033106927 0.032147333 80 8
1.8332101 0.031679142 0.096088827 100 9
1.8466858 0.030944865 0.16158675 11 10
1.8280293 0.02967488 0.22448336 76 11
1.8796453 0.029856531 -0.23082055 1 4
1.8507116 0.028426852 -0.16193536 8 5
1.8352838 0.0269084 -0.096193492 85 6
1.8295386 0.02586608 -0.031937905 85 7
1.8556088 0.020080637 0.032391667 84 8
1.8553553 0.019106384 0.097240217 84 9
1.85797 0.016863294 0.22813943 70 11
1.8599607 0.016231213 -0.22838317 70 4
1.8448907 0.015133709 -0.16141243 8 5
1.8454129 0.014171734 -0.096716851 89 6
1.8356758 0.012815424 -0.032042619 25 7
1.8597032 0.007140914 0.032461476 84 8
1.8634336 0.0058552669 0.097658902 84 9
1.8489312 0.0048398864 0.16176106 85 10
1.8719379 0.0039200196 0.2298456 72 11
1.8600286 0.0032467316 -0.22838317 100 4
1.8409665 0.0022495862 -0.16106381 8 5
1.8574508 0.00097217568 -0.09734489 67 6
1.8297213 -0 -0.031937905 7 7
1.8617073 -0.0058487449 0.032496382 93 8
1.869422 -0.0068518203 0.097972922 77 9
1.8529061 -0.0077614798 0.16210969 70 10
1.878564 -0.0085247112 -0.2975384 1 3
1.8659645 -0.009118895 0.22911438 66 11
1.8719181 -0.0094747096 -0.2298456 74 4
1.8528916 -0.010672007 -0.16210969 8 5
1.8596737 -0.012658593 -0.032461476 8 7
1.8596215 -0.018825423 0.032461476 51 8
1.8707371 -0.020897202 0.16367848 75 10
1.8784587 -0.021639245 -0.2975384 66 3
1.8718102 -0.022216136 0.2298456 77 11
1.8797461 -0.022638448 -0.23082055 73 4
1.9120181 -0.023694629 0.30285716 3 12
1.8667175 -0.023784952 -0.16332985 8 5
1.867538 -0.025751434 -0.032601096 8 7
1.8811258 -0.033163592 0.098600946 7 9
1.8725377 -0.033992957 0.1638528 64 10
1.888137 -0.034935441 -0.29910272 74 3
1.8755728 -0.035685372 -0.23033307 73 4
1.8824419 -0.037130747 -0.16472435 7 5
1.88902 -0.038249981 -0.099019639 80 6
1.8613149 -0.038663987 -0.032496382 7 7
1.9031579 -0.045847461 0.033229381 63 8
1.8868384 -0.046442848 0.098914966 9 9
1.9057264 -0.047573395 -0.37055111 11 2
1.9090219 -0.049322672 0.23447664 7 11
1.8951222 -0.049294531 -0.23277046 76 4
1.872007 -0.049347181 0.29659978 60 12
1.8881119 -0.050431255 -0.16524729 9 5
1.9006859 -0.051763024 -0.099647671 84 6
1.8629986 -0.051712856 -0.032531288 8 7
1.8927977 -0.058822211 0.033054858 73 8
1.9044346 -0.060181983 0.099857017 7 9
1.899461 -0.060688522 -0.36940622 50 2
1.8917941 -0.060774073 0.1655959 10 10
1.8933883 -0.0614869 -0.30004135 7 3
1.9006948 -0.062388353 0.23350169 8 11
1.9066359 -0.062916487 -0.23423289 73 4
1.8933339 -0.06313917 0.30004135 29 12
1.8897052 -0.063678525 -0.16542161 48 5
1.9002782 -0.06503094 -0.099647671 79 6
1.8765818 -0.065203756 -0.032775622 8 7
1.8963376 -0.072187029 0.033124667 67 8
1.9119512 -0.073783956 0.1002757 7 9
1.9127233 -0.074482411 -0.37207755 9 2
1.8988343 -0.074937329 -0.30097994 6 3
1.9041799 -0.075814024 0.23398916 8 11
1.9180514 -0.076701604 -0.23569533 73 4
1.8987683 -0.076594338 0.30097994 6 12
1.9031496 -0.077436492 -0.16664177 8 5
1.899778 -0.0782957 -0.099647671 77 6
1.9020542 -0.079387136 -0.033229381 12 7
1.9057759 -0.085874178 0.033299193 72 8
1.9113895 -0.087129973 0.1002757 7 9
1.9415746 -0.089185104 -0.37780184 19 2
1.9146446 -0.088282965 0.16768765 80 10
1.9101045 -0.088741809 -0.30285716 6 3
1.9016215 -0.089012921 0.23374543 7 11
1.9135033 -0.089903817 -0.23520786 72 4
1.9164935 -0.091385268 -0.16786195 7 5
1.903175 -0.09174899 -0.099857017 75 6
1.9114401 -0.093150616 -0.033403907 10 7
1.9270966 -0.10032033 0.033683144 72 8
1.9149498 -0.10002314 -0.44270366 43 1
1.916718 -0.10078638 0.10058971 12 9
1.9330626 -0.10232247 -0.37627536 78 2
1.9219398 -0.1020701 0.16838489 67 10
1.9311366 -0.10323452 -0.3062987 7 3
1.9247404 -0.10356639 0.23667029 7 11
1.9231558 -0.10449103 0.30504724 64 12
1.9237666 -0.10519774 -0.16855921 7 5
1.9064765 -0.1052535 -0.10006636 69 6
1.9227231 -0.10716027 -0.033613335 7 7
1.9343343 -0.11424305 0.033822764 72 8
1.9180957 -0.11361992 -0.44360349 68 1
1.935905 -0.11535302 0.10163644 15 9
1.9303416 -0.11569773 -0.37589374 62 2
1.925158 -0.11572427 0.16873352 70 10
1.9323405 -0.11683299 -0.30661157 6 3
1.9279333 -0.11724196 0.23715776 7 11
1.9358385 -0.11806183 -0.23813272 32 4
1.9204078 -0.1177936 0.30473438 67 12
1.9269625 -0.11887083 -0.16890782 7 5
1.9355963 -0.12042081 -0.10163644 30 6
1.9239237 -0.1207059 -0.033648241 7 7
1.9508258 -0.12820582 -0.52384979 2 0
1.9434662 -0.12840351 0.033997286 71 8
1.934756 -0.12816718 -0.44765261 62 1
1.9529879 -0.13005969 0.10257848 6 9
1.9451576 -0.13022025 -0.37894669 70 2
1.9243032 -0.12916148 0.16873352 70 10
1.947245 -0.13138416 -0.30911455 11 3
1.9488537 -0.1321761 0.23983888 61 11
1.9448698 -0.13224688 -0.23935141 72 4
1.9274217 -0.13173638 0.30598584 66 12
1.924098 -0.13218401 -0.16873352 6 5
1.9566557 -0.13476382 0.3812364 21 13
1.944671 -0.13462043 -0.1021598 6 6
1.9369981 -0.13510838 -0.033892576 6 7
1.9441029 -0.14140148 -0.52229685 55 0
1.9425224 -0.14196821 0.033997286 15 8
1.9435316 -0.14238301 -0.44990209 37 1
1.9599999 -0.14427733 0.10299717 6 9
1.9559487 -0.14466558 -0.3812364 68 2
1.9432241 -0.14406545 0.17047663 65 10
1.9443104 -0.14482842 -0.30880168 83 3
1.9538221 -0.14622277 0.2405701 6 11
1.9537967 -0.14656378 -0.2405701 71 4
1.946153 -0.14667358 0.30911455 64 12
1.9370351 -0.14666641 -0.16995369 7 5
1.9419639 -0.14738047 0.37856507 55 13
1.9380015 -0.14878085 -0.033927478 7 7
1.9372911 -0.15450957 -0.52074397 49 0
1.9454707 -0.15584539 0.034067098 7 8
1.9502603 -0.15657163 -0.45170173 7 1
1.9669081 -0.1585992 0.10341586 6 9
1.9646753 -0.15910943 -0.3831445 67 2
1.9540859 -0.15859513 0.1715225 51 10
1.9452207 -0.15855913 -0.30911455 60 3
1.948797 -0.15953542 0.24008264 7 11
1.9566827 -0.1605248 -0.24105757 72 4
1.9549252 -0.16106762 0.31067887 60 12
1.9578058 -0.16199301 -0.17187113 72 5
1.9565399 -0.16223209 0.38161799 53 13
1.9505632 -0.16242209 -0.10257848 66 6
1.9568427 -0.16397674 -0.034276526 7 7
1.9785067 -0.17170516 -0.53213197 7 0
1.9582802 -0.17063855 0.034311432 34 8
1.9627092 -0.17136961 -0.45485103 7 1
1.9577944 -0.17162913 0.10299717 7 9
1.9713393 -0.17350997 -0.38467094 60 2
1.971614 -0.17457454 -0.31349471 32 3
1.9753178 -0.17559741 0.24349497 7 11
1.9634234 -0.17488545 -0.24203253 76 4
1.9576882 -0.1750634 0.31130463 61 12
1.9586115 -0.17583516 -0.17204544 62 5
1.9613168 -0.17711329 -0.10320652 66 6
1.9656078 -0.17853841 -0.034451049 15 7
1.9753364 -0.18533298 -0.53161436 40 0
1.9729683 -0.18580559 0.034590669 67 8
1.9789262 -0.18671513 -0.45890018 5 1
1.9784206 -0.18736419 0.10414857 6 9
1.9695319 -0.18756296 0.17309129 8 10
1.9860783 -0.18983826 -0.31599763 6 3
1.989852 -0.19089994 0.24544489 7 11
1.9661067 -0.18896821 -0.24252002 67 4
1.9672518 -0.19046445 -0.17291699 66 5
1.9736249 -0.1914292 0.38543418 6 13
1.981899 -0.19293006 -0.10435791 70 6
1.964384 -0.1981494 -0.52902615 23 0
1.9915184 -0.20158873 0.034939718 78 8
1.9911458 -0.20190212 -0.46204948 6 1
1.9929602 -0.20278895 0.10498594 49 9
1.9980211 -0.20400859 -0.39039519 6 2
1.9681746 -0.20130818 0.17309129 49 10
2.0023901 -0.20551412 -0.31881347 6 3
2.0003185 -0.20600714 0.24690731 8 11
1.9727371 -0.20421053 0.31412044 7 12
1.976146 -0.20560928 0.38619745 6 13
2.0003686 -0.20883535 -0.10540463 70 6
1.9808222 -0.20784327 -0.034765195 68 7
1.976146 -0.21398023 0.034695383 71 8
1.9896878 -0.21579792 -0.46204948 11 1
2.0113513 -0.21885787 0.10603265 88 9
1.9965481 -0.21795233 -0.39039519 27 2
1.9805851 -0.21655953 0.17431147 78 10
1.9950159 -0.21884213 -0.31787488 7 3
2.0027781 -0.22040117 0.2473948 26 11
2.0145781 -0.2220556 -0.24885722 6 4
2.0007143 -0.22123437 0.31881347 8 12
1.9861833 -0.22032937 -0.17483442 6 5
1.9746624 -0.21940023 0.38619745 6 13
1.9991958 -0.22389241 -0.035114244 63 7
1.9865232 -0.22914587 0.034904812 60 8
1.9920048 -0.23013048 -0.46294928 78 1
1.9998547 -0.23174478 0.1055093 63 9
2.0144789 -0.23415212 -0.39421138 80 2
1.9988153 -0.23268506 0.17605458 64 10
2.0071735 -0.23436821 -0.32006493 9 3
2.0090768 -0.23530133 0.24836974 91 11
2.0050929 -0.2351895 -0.24788228 6 4
1.9984473 -0.23582451 -0.17605458 6 5
1.9964789 -0.23594552 0.39077684 40 13
1.9913077 -0.23603921 -0.10509061 7 6
1.994218 -0.24450588 -0.46384907 86 1
2.0041349 -0.2464319 0.10582332 67 9
2.0108471 -0.24796976 -0.39382979 71 2
2.0169163 -0.24907558 0.17779772 64 10
2.0152907 -0.24958907 -0.32162929 74 3
2.0054152 -0.24907683 0.248126 56 11
2.003402 -0.24918184 -0.24788228 20 4
1.9974303 -0.24914713 0.31881347 61 12
2.0184991 -0.2524907 -0.17797202 7 5
1.9935746 -0.25043318 -0.10529996 7 6
2.0057945 -0.25303516 -0.035288766 5 7
2.0128772 -0.26071265 0.035428386 6 8
2.0117879 -0.2609286 -0.46834809 54 1
2.0182104 -0.26247793 0.10666069 39 9
2.0207477 -0.26352528 -0.39611951 60 2
2.0291684 -0.26570404 -0.32413223 66 3
2.0154369 -0.26462162 0.24958843 61 11
2.0232632 -0.26600841 -0.25056338 78 4
2.0113099 -0.26515108 0.32131645 65 12
2.0344641 -0.26892608 -0.17954083 71 5
2.0095968 -0.26670966 -0.10624201 6 6
2.0039792 -0.26703194 -0.035288766 6 7
2.0248768 -0.27665359 0.035672721 7 8
2.0330865 -0.2781367 -0.47374693 36 1
2.0262225 -0.27791825 0.10718405 6 9
2.0227485 -0.27816114 -0.39688274 50 2
2.0033729 -0.27585292 0.17692617 6 10
2.0350912 -0.28094426 -0.32538372 69 3
2.0351701 -0.28167912 0.25226957 69 11
2.0272555 -0.28094432 -0.25129461 62 4
2.0231056 -0.28108904 0.3235065 46 12
2.0108304 -0.280099 -0.17762341 54 5
2.0571363 -0.28764725 -0.1088588 24 6
2.0238495 -0.28407326 -0.035672721 41 7
2.0129995 -0.2893604 0.035498194 6 8
2.0420239 -0.29462394 0.10812609 11 9
2.0211165 -0.2926878 0.17866927 7 10
2.0291708 -0.29457739 -0.32475799 53 3
2.0488694 -0.29816735 0.25421947 54 11
2.0468526 -0.29823869 -0.25397575 58 4
2.0206544 -0.2958622 -0.17866927 50 5
2.0392697 -0.29967856 -0.10802142 50 6
2.0475347 -0.30198845 -0.036126483 55 7
2.0445447 -0.30847833 0.036091577 8 8
2.0418921 -0.30917171 0.10823077 51 9
2.071075 -0.31432995 -0.40718642 6 2
2.0505402 -0.31157947 0.18145825 7 10
2.0447752 -0.3121641 0.25397575 27 11
2.0342939 -0.31238088 -0.18006375 54 5
2.0667372 -0.31847054 -0.10959151 64 6
2.0651388 -0.31933132 -0.036475532 64 7
2.0640683 -0.32617778 0.036475532 66 8
2.0594101 -0.326547 0.10927749 75 9
2.06883 -0.32878101 -0.40718642 6 2
2.056186 -0.3271395 0.1821555 7 10
2.0599728 -0.32847932 -0.33038962 6 3
2.0502725 -0.3284004 -0.25495067 5 4
2.0517349 -0.32973665 -0.18180689 56 5
2.0608265 -0.33378109 -0.036440626 63 7
2.0854166 -0.34449062 0.036894388 7 8
2.0708127 -0.34356353 0.11001018 67 9
2.0722947 -0.34418103 -0.40833127 25 2
2.0675497 -0.34413457 0.18337567 9 10
2.0809512 -0.34711182 -0.33414406 50 3
2.0616353 -0.3449994 -0.25665686 5 4
2.0620284 -0.34765556 -0.10959151 6 6
2.0683048 -0.34982753 -0.036615148 64 7
2.0769863 -0.35838452 0.036789671 7 8
2.08214 -0.36039653 0.1107429 63 9
2.0852537 -0.36168525 -0.41138422 21 2
2.0670598 -0.35890114 0.18355 34 10
2.0823696 -0.3623082 -0.33476979 74 3
2.0787315 -0.36279672 -0.25909427 5 4
2.0723805 -0.36317939 -0.18407291 57 5
2.0752881 -0.36480892 -0.11042888 6 6
2.0776279 -0.36634186 -0.03682458 64 7
2.0744338 -0.37287572 0.036789671 6 8
2.0992289 -0.37846741 0.11178961 61 9
2.0817332 -0.37718916 -0.33508268 64 3
2.0976322 -0.38120437 -0.26177537 10 4
2.0874352 -0.3808569 -0.18564174 56 5
2.0825138 -0.38108578 -0.11095224 5 6
2.0789535 -0.38155937 -0.036894388 42 7
2.099299 -0.3924939 0.037278343 6 8
2.0984983 -0.39348152 0.11189428 65 9
2.0984614 -0.39537054 -0.33821136 64 3
2.1104548 -0.39915609 -0.26372528 63 4
2.0945129 -0.39727697 -0.18651329 60 5
2.0935369 -0.39822757 -0.11168494 6 6
2.1017046 -0.40130177 -0.037348151 55 7
2.1063228 -0.40904614 0.037452865 6 8
2.1072094 -0.41265428 -0.34008855 64 3
2.1076167 -0.41387996 -0.26372528 7 4
2.1053722 -0.41458422 -0.18773346 55 5
2.1239431 -0.41978163 -0.11346437 16 6
2.1106212 -0.41829705 -0.03755758 56 7
2.130785 -0.42964157 0.03794153 9 8
2.123636 -0.43128672 -0.34321725 55 3
2.1357229 -0.43529412 -0.26762509 5 4
2.1121118 -0.43163383 -0.18860501 57 5
2.1307435 -0.43660378 -0.11398773 8 6
2.1056151 -0.43298677 -0.037522674 57 7
2.1296911 -0.44491568 0.037976436 15 8
2.1359594 -0.44972789 -0.3457202 13 3
2.1404011 -0.45183364 -0.26860005 5 4
2.1109965 -0.44678107 -0.18877934 54 5
2.1353793 -0.45349941 -0.11440641 6 6
2.1240556 -0.45225692 -0.037906628 52 7
2.1469731 -0.46850836 -0.26981872 5 4
2.1370201 -0.46789968 -0.191394 12 5
2.1439481 -0.47059309 -0.11503445 6 6
2.1424105 -0.47143149 -0.038290579 57 7
2.1707606 -0.48960015 -0.27323109 6 4
2.1570206 -0.48808396 -0.19348574 53 5
2.1406105 -0.48554903 -0.11503445 6 6
2.1468668 -0.48815021 -0.038430199 22 7
2.1672895 -0.50474286 -0.27323109 7 4
2.1477401 -0.50177091 -0.1929628 45 5
2.1488364 -0.5032137 -0.11566247 6 6
2.1849449 -0.52496213 -0.27591223 63 4
2.1596801 -0.52048707 -0.19435729 53 5
2.1705096 -0.52429956 -0.11702321 37 6
2.1559939 -0.53555167 -0.19435729 50 5
2.171505 -0.55552816 -0.19610041 50 5
2.206007 -0.58120489 -0.19958666 10 5
