# .PCD v0.7 - Point Cloud Data file format
VERSION 0.7
FIELDS x y z intensity ring
SIZE 4 4 4 4 2
TYPE F F F F U
COUNT 1 1 1 1 1
WIDTH 186
HEIGHT 1
VIEWPOINT 0 0 0 1 0 0 0
POINTS 186
DATA ascii
2.0152504 0.76914692 0.11304568 1 9
1.9454812 0.72777301 0.1088588 43 9
1.9730443 0.72398484 0.036684956 34 8
1.9691436 0.72138399 0.10990552 66 9
1.9781742 0.70984846 0.036684956 56 8
1.9856607 0.71096963 0.11053354 60 9
1.9927603 0.6986357 0.036859483 58 8
2.0170894 0.70597953 0.11199896 57 9
2.004755 0.69460106 -0.037034009 30 7
2.012722 0.6898948 0.037138719 53 8
2.0333068 0.69576102 0.11262699 54 9
2.0303898 0.68764436 -0.037417959 5 7
2.0436835 0.67746711 -0.11283633 38 6
2.0408361 0.67533743 -0.037522674 4 7
2.0620699 0.67478466 0.037871722 6 8
2.0713012 0.67660517 0.11419707 5 9
2.0628159 0.6726383 0.18982521 49 10
2.0825663 0.6742565 -0.11472043 62 6
2.0645289 0.66722274 -0.037871722 5 7
2.0743496 0.66280788 0.038011342 38 8
2.096905 0.66880512 0.11534845 3 9
2.0731566 0.66003388 0.19034813 26 10
2.0760903 0.65737832 -0.19052245 29 5
2.0948403 0.66210872 -0.11513911 48 6
2.0824862 0.65700489 -0.038116053 39 7
2.1075616 0.65723991 0.038534917 59 8
2.1225002 0.66067934 0.11649985 4 9
2.1043513 0.65382171 0.1927885 65 10
2.0977612 0.6481629 -0.19209124 7 5
2.1280394 0.65629792 -0.11670919 66 6
2.1137786 0.65068799 -0.038604725 59 7
2.1331429 0.64891219 0.038918864 62 8
2.1327941 0.64758623 0.11681387 7 9
2.1336522 0.64662683 0.19505455 48 10
2.1530032 0.65043944 -0.27615595 8 4
2.1384807 0.6444245 -0.19540317 5 5
2.1230063 0.63854909 -0.11618583 37 6
2.1491239 0.63741684 0.039128296 52 8
2.1449232 0.63494939 0.11723255 7 9
2.1591322 0.63792622 0.19697197 49 10
2.1593957 0.63595468 -0.2763997 60 4
2.1658673 0.63621676 -0.19749491 4 5
2.14185 0.62672615 -0.03895377 2 7
2.1765747 0.6290592 0.039547153 49 8
2.1665752 0.62494034 0.11817461 4 9
2.1692777 0.62448978 0.19749491 47 10
2.2098229 0.63532674 -0.36417946 4 3
2.1961102 0.63055456 0.28054324 40 11
2.1752315 0.62414885 -0.27786213 47 4
2.1645091 0.6194371 -0.19697197 11 5
2.1778061 0.62200904 -0.11869796 38 6
2.1596344 0.61559618 -0.039198104 3 7
2.2059369 0.62089175 0.040000916 34 8
2.2035735 0.61898166 0.11995402 4 9
2.2065957 0.61775362 -0.362928 47 3
2.2214885 0.6210869 0.28322437 55 11
2.2082138 0.61696005 -0.28151822 50 4
2.2052472 0.61447191 -0.20028389 49 5
2.2205806 0.61749166 -0.1207914 48 6
2.1947098 0.60905981 -0.039756581 3 7
2.2160037 0.60706133 0.04010563 50 8
2.2405932 0.61253649 0.12173345 4 9
2.2143061 0.60410428 0.20080683 4 10
2.2412002 0.60934192 -0.28517428 26 4
2.2402608 0.60614717 -0.12162878 56 6
2.2240055 0.60049945 -0.040210344 29 7
2.2356458 0.59569585 0.04038487 45 8
2.2525351 0.59893316 0.12215213 49 9
2.2580323 0.59954989 -0.45412543 26 2
2.2492814 0.5968073 0.20359582 3 10
2.2493765 0.59599113 -0.36855966 4 3
2.2337818 0.59102482 0.28371185 43 11
2.2425096 0.59124184 -0.20289856 2 5
2.2521636 0.59252614 -0.12204745 51 6
2.2532873 0.59156054 -0.040664107 5 7
2.2784665 0.59010077 0.041082963 46 8
2.307291 0.59713638 -0.55023026 11 1
2.2701976 0.58669102 0.12288483 51 9
2.2735689 0.58671463 -0.45641515 48 2
2.2765443 0.58705992 0.20568755 40 10
2.2764385 0.58618408 -0.37231407 50 3
2.2763042 0.58530354 0.28858662 47 11
2.2725613 0.5839172 -0.28809914 42 4
2.3056498 0.59156233 0.3770071 10 12
2.2755337 0.58298784 -0.20551322 3 5
2.2910762 0.58569169 -0.12393155 8 6
2.2806141 0.58174521 -0.041082963 3 7
2.296284 0.57721329 -0.54663104 31 1
2.2974844 0.57666141 0.1241409 52 9
2.298557 0.57607901 -0.46061292 33 2
2.3034711 0.576029 -0.3760685 43 3
2.3015208 0.57468778 0.29126775 47 11
2.2958426 0.57284433 -0.29053652 44 4
2.3001394 0.57306367 0.37544277 17 12
2.2911491 0.56997341 -0.20655911 3 5
2.3028631 0.57160729 -0.12435025 44 6
2.2904434 0.56725156 -0.041187681 3 7
2.3195086 0.56629348 0.041676346 4 8
2.3229764 0.56671059 -0.55202991 15 1
2.3383241 0.56959009 0.12612967 9 9
2.325176 0.56509787 0.2093481 3 10
2.3362315 0.56692123 -0.3807615 8 3
2.326699 0.56374699 0.29394889 46 11
2.3267972 0.56334203 -0.29394889 44 4
2.3175249 0.56023967 0.37763283 34 12
2.3105664 0.55770516 -0.2079536 15 5
2.353399 0.56673998 -0.12686236 50 6
2.3449006 0.56339467 -0.042095207 23 7
2.3389723 0.55377209 0.041955583 6 8
2.3401511 0.5536198 -0.55517924 8 1
2.3655686 0.55876118 0.12738572 49 9
2.3675232 0.55835038 -0.47282472 3 2
2.3465178 0.55296427 0.21091689 2 10
2.3593612 0.55512166 -0.38389024 3 3
2.357729 0.55343503 -0.29736122 42 4
2.3493235 0.54973191 -0.21109121 2 5
2.3650782 0.55211252 -0.12728105 51 6
2.3682528 0.55154622 -0.042444255 44 7
2.3681195 0.54324198 0.042409346 32 8
2.3908279 0.5471338 0.12853712 51 9
2.4000726 0.5483678 -0.478549 41 2
2.3833423 0.54410762 0.2138802 6 10
2.3785868 0.54214859 -0.38639316 2 3
2.3846688 0.54265934 0.30028611 3 11
2.400249 0.54576421 -0.30223599 24 4
2.4060283 0.54619509 0.39077336 6 12
2.3783646 0.53904223 -0.21335725 2 5
2.3610828 0.53382587 -0.12686236 7 6
2.3974044 0.54071879 -0.042898018 44 7
2.4082394 0.53345412 0.12926982 46 9
2.4172609 0.53456628 -0.4812203 60 2
2.4084823 0.53218526 0.21579762 36 10
2.4266808 0.53531694 -0.39358914 50 3
2.409724 0.53069437 0.30296722 48 11
2.4098167 0.5302738 -0.30296722 46 4
2.4248848 0.53181374 -0.2171921 2 5
2.4018238 0.52543825 -0.12885113 3 6
2.4341273 0.52272034 0.043456491 3 8
2.4509642 0.52499372 0.13136327 50 9
2.4343729 0.52055126 -0.48389161 36 2
2.4433138 0.52201724 0.21858659 49 10
2.4361546 0.5195986 -0.39452776 31 3
2.4463768 0.52088743 0.30711079 44 11
2.4387012 0.51880699 -0.3061358 45 4
2.4421816 0.51776564 -0.21841228 39 5
2.4464681 0.51733607 -0.13104925 23 6
2.4321134 0.51297045 -0.043386683 27 7
2.4631712 0.51099467 0.043910254 3 8
2.4694865 0.5073632 -0.30954817 44 4
2.4535446 0.50230181 -0.21910954 43 5
2.4735026 0.50503856 -0.13230531 46 6
2.4669871 0.50236291 -0.04394516 39 7
2.4882472 0.49810496 0.044294208 32 8
2.5031033 0.49971598 0.13377072 35 9
2.489445 0.49563405 0.22207282 29 10
2.4819217 0.49323562 -0.40078515 3 3
2.5294375 0.50130206 -0.31661656 12 4
2.5077164 0.49244905 -0.044608355 43 7
2.5211163 0.48640388 0.044817779 38 8
2.5182984 0.48449275 0.13439874 48 9
2.5435088 0.48704043 -0.41017124 5 3
2.5231266 0.48176825 -0.31539789 42 4
2.5209947 0.47953865 -0.2245132 2 5
2.5274076 0.47938749 -0.13481744 3 6
2.540566 0.48050541 -0.045131925 44 7
2.5510778 0.47235438 0.13596882 29 9
2.5526745 0.47034651 -0.41110981 7 3
2.5440819 0.46692601 -0.31759155 40 4
2.5791569 0.47196773 -0.22939391 44 5
2.5464115 0.46459779 -0.13565481 3 6
2.5537767 0.46410102 -0.045306448 13 7
2.598531 0.46380514 0.046074353 5 8
2.5805135 0.4550136 -0.32173508 42 4
2.5686526 0.45153564 -0.22817372 36 5
2.614593 0.45773 -0.13910899 27 6
2.594383 0.45279205 -0.045969639 41 7
2.615042 0.44042301 -0.23200859 9 5
2.6310861 0.43982166 -0.046563022 49 7
2.657234 0.42990252 -0.33050969 21 4
2.6514912 0.42754897 -0.23497188 10 5
2.6484106 0.42515424 -0.1405744 3 6
2.6538384 0.42460045 -0.04691207 26 7
2.6997745 0.41553548 -0.23898104 42 5
2.6868491 0.4121061 -0.14245848 3 6
2.7223225 0.3995707 -0.24072415 42 5
2.742805 0.38303569 -0.24229297 40 5
