# .PCD v0.7 - Point Cloud Data file format
VERSION 0.7
FIELDS x y z intensity ring
SIZE 4 4 4 4 2
TYPE F F F F U
COUNT 1 1 1 1 1
WIDTH 1247
HEIGHT 1
VIEWPOINT 0 0 0 1 0 0 0
POINTS 1247
DATA ascii
-1.704955 -0.028569629 -0.20937155 78 4
-1.2789456 -0.020761266 -0.11190797 3 5
-1.7314148 -0.026896851 -0.09075056 72 6
-1.1885914 -0.0182571 0.27444029 3 14
-1.7495365 -0.026262151 -0.030541712 75 7
-0.64710075 -0.0094878152 0.17340876 100 15
-1.1493684 -0.013842411 -0.30799466 8 0
-1.7696059 -0.021003358 0.030890759 76 8
-1.6212443 -0.018676499 -0.37431854 50 1
-1.7874318 -0.020278966 0.093681373 8 9
-1.6411815 -0.018046793 -0.31903264 60 2
-1.6453987 -0.0172312 -0.26061985 53 3
-1.6971729 -0.016588496 -0.20839658 72 4
-1.237221 -0.01144501 -0.10824744 7 5
-1.735552 -0.015146109 -0.090959899 72 6
-1.1692032 -0.0097954655 0.26994127 2 14
-1.7496772 -0.014047863 -0.030541712 85 7
-0.65101391 -0.0051131016 0.17444403 100 15
-1.1475042 -0.0060084574 -0.30747706 22 0
-1.7677097 -0.0086388951 0.030855855 63 8
-1.6174365 -0.0076222164 -0.37341875 51 1
-1.6294881 -0.0065414594 -0.31674296 60 2
-1.6316514 -0.0056954636 -0.25842977 75 3
-1.7051868 -0.0050593587 -0.20937155 71 4
-1.2631711 -0.0030865201 -0.11051348 6 5
-1.7456017 -0.0030467326 -0.091483258 70 6
-1.1887301 -0.0018676047 0.27444029 2 14
-1.7477325 -0.0021353941 -0.030506806 81 7
-0.64523822 -0.00056314014 0.17289113 100 15
-1.1397908 0.0019890203 -0.30540648 23 0
-1.7757263 0.0034091037 0.030995475 87 8
-1.6135528 0.0036605771 -0.37251896 51 1
-1.8035196 0.0044067302 0.094518751 3 9
-1.6255684 0.0045389361 -0.31597972 57 2
-1.6415291 0.005443743 -0.25999412 69 3
-1.7031956 0.006836839 -0.20912781 63 4
-1.2133527 0.0055058314 -0.10615569 7 5
-1.7475793 0.0088449884 -0.091587931 68 6
-1.1906629 0.0064421683 0.27489018 1 14
-1.7457051 0.010054613 -0.0304719 83 7
-0.64715892 0.0038403426 0.17340876 18 15
-1.1358871 0.009714257 -0.30437121 53 0
-1.7636615 0.01569871 0.030786045 81 8
-1.6037471 0.014555192 -0.37026942 53 1
-1.8234166 0.017185798 0.095565468 21 9
-1.6039023 0.01567675 -0.31178191 51 2
-1.6256489 0.016740525 -0.25749114 63 3
-1.6911998 0.018301107 -0.20766538 66 4
-1.2591091 0.014284602 -0.11016486 8 5
-1.7235096 0.020756967 -0.090331867 62 6
-1.2042316 0.014713277 0.27803952 2 14
-1.755594 0.022062685 -0.030646425 100 7
-0.6084826 0.0078591239 0.16305602 100 15
-1.1280653 0.017524252 -0.30230066 99 0
-1.7695122 0.027797462 0.030890759 76 8
-1.5782762 0.025344718 -0.36442071 50 1
-1.8292483 0.029693842 0.09587948 7 9
-1.6017954 0.026561273 -0.31140029 54 2
-1.5998212 0.027366387 -0.25342387 68 3
-1.6652287 0.029647678 -0.20449677 74 4
-1.2430423 0.022782411 -0.10877036 8 5
-1.7173377 0.032375135 -0.090017848 74 6
-1.1924093 0.02289529 0.27534011 2 14
-1.7573966 0.034357175 -0.030681333 85 7
-0.63931853 0.012610323 0.17133822 100 15
-1.1221259 0.025072627 -0.30074775 92 0
-1.7752726 0.040286839 0.030995475 81 8
-1.5819635 0.036175866 -0.3653205 49 1
-1.8230063 0.042325042 0.095565468 8 9
-1.5799812 0.037234098 -0.30720252 52 2
-1.5976163 0.038486622 -0.25311098 73 3
-1.6709418 0.041128404 -0.205228 66 4
-1.2568009 0.031593505 -0.10999054 9 5
-1.731046 0.044724308 -0.09075056 68 6
-1.1863816 0.030858947 0.27399039 2 14
-1.737132 0.045791671 -0.030332282 65 7
-0.64501143 0.017115474 0.17289113 100 15
-1.1219292 0.032710128 -0.30074775 89 0
-1.7749572 0.052369401 0.030995475 69 8
-1.5777849 0.04682751 -0.36442071 51 1
-1.8226759 0.054732461 0.095565468 8 9
-1.573804 0.047809009 -0.30605766 56 2
-1.595343 0.04929937 -0.25279811 55 3
-1.6547501 0.05200278 -0.20327808 48 4
-1.2227032 0.039065931 -0.10702725 8 5
-1.7446748 0.056962367 -0.091483258 64 6
-1.1822487 0.038805835 0.2730906 2 14
-1.726787 0.057283413 -0.030157758 81 7
-0.63908768 0.021312224 0.17133822 100 15
-1.113958 0.040068343 -0.29867718 100 0
-1.7625693 0.064014487 0.030786045 60 8
-1.575482 0.057495017 -0.36397079 53 1
-1.8162735 0.066917174 0.095251448 2 9
-1.5773659 0.058666024 -0.30682087 58 2
-1.5594389 0.058816895 -0.24716648 64 3
-1.6127013 0.061671734 -0.19815956 60 4
-1.2383277 0.04822097 -0.10842174 8 5
-1.7661995 0.069702648 -0.092634656 100 6
-1.1994737 0.04775656 0.27713972 2 14
-1.7443399 0.069754682 -0.0304719 78 7
-0.62734157 0.025306335 0.16823238 100 15
-1.1175114 0.048009835 -0.29971248 100 0
-1.756086 0.076057985 0.030681333 81 8
-1.5653077 0.068068869 -0.36172128 50 1
-1.8137667 0.079507627 0.095146775 1 9
-1.5651498 0.069157086 -0.30453119 60 2
-1.5471498 0.069173381 -0.24528927 52 3
-1.6023163 0.072480492 -0.19694087 57 4
-1.2439318 0.057138924 -0.10894467 12 5
-1.7736503 0.082402103 -0.093053341 66 6
-1.2030042 0.056311253 0.27803952 2 14
-1.7597904 0.082681999 -0.030751141 83 7
-0.63486844 0.030050596 0.17030294 100 15
-1.1267962 0.056292322 -0.30230066 100 0
-1.7595066 0.088516861 0.030751141 66 8
-1.547278 0.078110844 -0.35767215 24 1
-1.8430877 0.093689092 0.096716851 1 9
-1.5567862 0.079680413 -0.30300471 56 2
-1.5367656 0.079462446 -0.24372493 57 3
-1.5700529 0.082007892 -0.19304106 66 4
-1.2534508 0.066348694 -0.10981624 8 5
-1.7311491 0.09254355 -0.090855226 39 6
-1.1870145 0.063870788 0.27444029 3 14
-1.7631639 0.095180802 -0.030820949 85 7
-0.62499809 0.033958036 0.16771474 100 15
-1.1398767 0.064926475 -0.30592412 39 0
-1.7608421 0.10091279 0.030786045 75 8
-1.5680959 0.090141192 -0.3626211 15 1
-1.8463767 0.10678462 0.096926205 1 9
-1.5307127 0.089064389 -0.29804367 50 2
-1.5263134 0.089610629 -0.24216059 34 3
-1.5337729 0.090854406 -0.18865377 32 4
-1.2350575 0.074024685 -0.10824744 6 5
-1.7264736 0.10438551 -0.090645887 22 6
-1.1865396 0.072156154 0.27444029 2 14
-1.7504805 0.10675688 -0.030611521 56 7
-0.64209986 0.03938498 0.17237349 100 15
-1.1278284 0.072142541 -0.3028183 55 0
-1.768077 0.1137163 0.030925665 50 8
-1.5693731 0.10121179 -0.36307099 31 1
-1.8136969 0.11760396 0.095251448 1 9
-1.5222174 0.099237733 -0.29651719 49 2
-1.5197372 0.099875137 -0.24122196 20 3
-1.5172553 0.10050988 -0.18670385 41 4
-1.236513 0.082562499 -0.10842174 8 5
-1.7257028 0.11643644 -0.090645887 32 6
-1.186021 0.080230728 0.27444029 2 14
-1.7337319 0.11789007 -0.030332282 48 7
-0.63409984 0.04333964 0.17030294 100 15
-1.1041731 0.078373186 -0.29660663 73 0
-1.4640749 0.10417549 0.025620133 6 8
-0.71277791 0.051342506 -0.13890895 54 2
-1.5052308 0.1092167 -0.2390319 57 3
-1.5184964 0.11124491 -0.18694758 42 4
-1.2080886 0.089140393 -0.10598138 8 5
-1.5336607 0.11397053 -0.080597378 6 6
-1.185432 0.088508762 0.27444029 2 14
-1.4317588 0.10740298 -0.025061656 13 7
-0.62223166 0.046785891 0.16719711 94 15
-1.1228743 0.087386154 -0.301783 57 0
-1.4393886 0.11252391 0.025201276 12 8
-1.5736569 0.12329663 -0.36442071 11 1
-1.5070043 0.11913292 -0.29384586 40 2
-1.4748943 0.11737194 -0.23433885 45 3
-1.4979165 0.11999331 -0.1845102 39 4
-1.2571024 0.1013649 -0.11033916 6 5
-1.5089393 0.12273173 -0.079341315 17 6
-1.1945136 0.097367026 0.2766898 1 14
-1.4569037 0.1192672 -0.025515417 15 7
-0.64115262 0.052599784 0.17237349 100 15
-1.1222534 0.095027298 -0.301783 69 0
-1.4087018 0.11977769 0.024677703 23 8
-1.4815209 0.1262297 -0.34327531 2 1
-1.484642 0.12753928 -0.28964809 71 2
-1.4760294 0.12757866 -0.23465173 8 3
-1.2008089 0.10505724 -0.10545845 6 5
-1.4861841 0.13106951 -0.078189924 7 6
-1.1647054 0.1029228 0.26994127 4 14
-1.4321557 0.12706034 -0.025096562 9 7
-0.63308269 0.056278378 0.17030294 91 15
-1.3341753 0.12259355 0.023386225 4 8
-1.373898 0.12648503 -0.31853068 8 1
-1.4837395 0.13764234 -0.28964809 29 2
-1.4397238 0.13431944 -0.22902009 69 3
-1.2629275 0.11849221 -0.15574904 1 4
-1.2318032 0.11622265 -0.10824744 2 5
-1.4474798 0.13759163 -0.076201163 8 6
-1.111599 0.10586016 0.2577939 35 14
-1.3556141 0.12957543 -0.023770178 7 7
-0.64613551 0.061988179 0.17392641 75 15
-1.1093014 0.10935427 -0.29867718 50 0
-1.3830605 0.136585 0.024258846 29 8
-1.4427942 0.14299257 -0.33472717 64 1
-1.4690932 0.14637612 -0.28697675 67 2
-1.4800525 0.14825071 -0.23559032 87 3
-1.2660197 0.12770467 -0.15623651 1 4
-1.2111394 0.12280945 -0.10650431 9 5
-1.4663794 0.14946644 -0.07724788 15 6
-1.1030782 0.11282459 0.25599429 52 14
-1.326827 0.13617827 -0.023281511 42 7
-0.64377689 0.066187121 0.17340876 75 15
-1.114295 0.11751007 -0.30023012 75 0
-1.3840618 0.14644766 0.024293751 53 8
-1.4495389 0.15363197 -0.33652678 86 1
-1.4504659 0.15475386 -0.28354219 66 2
-1.4652326 0.15710528 -0.23340026 61 3
-1.2374898 0.13334163 -0.15282416 1 4
-1.1924483 0.12911993 -0.10493552 10 5
-1.3699962 0.14931306 -0.072223626 8 6
-1.1080965 0.12096484 0.25734401 55 14
-1.3318326 0.14585932 -0.023386225 76 7
-0.62217587 0.068359084 0.16771474 80 15
-1.1115278 0.12507072 -0.29971248 73 0
-1.1644502 0.13123114 0.02045422 84 8
-1.1677707 0.13325703 -0.18615703 14 3
-1.1596154 0.13314681 -0.14331836 27 4
-1.1360983 0.13104928 -0.10005479 51 5
-1.1876984 0.13742116 0.23240536 0 13
-1.1110964 0.12914759 0.2582438 56 14
-1.1440752 0.13338588 -0.020105172 100 7
-0.62553376 0.073040478 0.16875002 53 15
-1.1183234 0.13355005 -0.301783 48 0
-1.1237955 0.13460138 0.019756125 100 8
-1.1086807 0.13298729 -0.2577939 29 1
-1.1183897 0.1345479 0.059034962 100 9
-1.1363354 0.13710897 -0.22248329 22 2
-1.1197473 0.1357023 -0.17864819 87 3
-1.1302242 0.13857372 0.22133845 2 13
-1.1062995 0.13642462 0.25734401 54 14
-0.65184945 0.080730073 0.17599694 49 15
-1.1403629 0.14426342 -0.30799466 51 0
-1.1367151 0.14420506 0.020000458 100 8
-1.1135249 0.14146061 -0.25914362 15 1
-1.1174233 0.14235221 0.059034962 100 9
-1.1080866 0.1415561 -0.21714064 65 2
-1.1324878 0.14527597 -0.18083826 74 3
-1.1301057 0.14557186 -0.13990602 100 4
-1.1400855 0.14766626 -0.10057773 100 5
-1.1292292 0.1464608 0.22133845 17 13
-1.1328914 0.1473376 -0.05987234 100 6
-1.1053202 0.14414446 0.25734401 54 14
-1.1361787 0.14837065 -0.020000458 151 7
-0.64360809 0.084275447 0.17392641 37 15
-1.125924 0.15043029 -0.30437121 44 0
-1.1376624 0.15240282 0.020035362 100 8
-1.1421349 0.15361071 0.060395699 76 9
-1.0992888 0.14823881 -0.21561417 40 2
-1.1373186 0.15397346 -0.18177687 59 3
-1.131029 0.15372503 -0.14014976 63 4
-1.1212871 0.15299889 -0.099008918 100 5
-1.1203988 0.15327631 0.21981198 35 13
-1.1318352 0.15524335 -0.05987234 100 6
-1.1004522 0.15113452 0.25644422 55 14
-1.1212484 0.1543894 -0.019756125 147 7
-0.63919193 0.088126704 0.17289113 25 15
-1.1153086 0.15674642 -0.301783 37 0
-1.1306585 0.15930589 0.01993065 100 8
-0.93394232 0.13175572 -0.21775262 0 1
-1.1291974 0.1597033 0.059767671 74 9
-1.1021419 0.15626924 -0.21637741 42 2
-1.19687 0.17033969 -0.19147581 71 3
-1.1397822 0.16282381 -0.14136845 100 4
-1.1083864 0.15893096 -0.097963057 41 5
-1.1076697 0.15922278 0.21752228 48 13
-1.107113 0.15973443 0.2582438 56 14
-1.1280879 0.16316295 -0.019895744 139 7
-0.63092971 0.091367863 0.17082058 26 15
-2.086993 0.30855215 0.03682458 67 8
-1.0024225 0.14838248 -0.23394911 0 1
-1.4486514 0.21546824 -0.28468704 12 2
-1.4379454 0.21464543 -0.23027156 55 3
-1.4782786 0.22145733 -0.18353525 44 4
-1.1007363 0.1658811 0.21637741 60 13
-2.0795221 0.31412664 -0.11021954 43 6
-1.1059709 0.16745991 0.2582438 56 14
-2.0838711 0.31589961 -0.036789671 61 7
-0.64555591 0.098092221 0.17496169 24 15
-0.95267195 0.14731106 -0.25830141 1 0
-2.0966449 0.32495221 0.037034009 76 8
-0.932037 0.14461999 -0.21775262 0 1
-2.1590466 0.33578134 0.11451109 3 9
-1.4471118 0.22557682 -0.28468704 56 2
-1.4539766 0.22742672 -0.23308739 40 3
-1.4531635 0.22807904 -0.18061039 62 4
-1.2143035 0.19145782 -0.10755019 8 5
-1.1034299 0.17417386 0.21714064 66 13
-2.067415 0.32707635 -0.10969618 49 6
-1.1009254 0.17456633 0.25734401 54 14
-2.0796402 0.33012655 -0.036754768 42 7
-0.65439463 0.1041142 0.17754988 24 15
-0.90203691 0.14593649 -0.24484283 1 0
-2.1022205 0.34086183 0.037173625 72 8
-0.93100464 0.1511233 -0.21775262 0 1
-2.1329937 0.34699774 0.11325502 2 9
-1.4493772 0.23630555 -0.28545028 41 2
-1.4562523 0.23820926 -0.23371312 45 3
-1.4632891 0.24014701 -0.18207282 51 4
-1.2149032 0.20025463 -0.1077245 6 5
-1.1079983 0.18283191 0.2182855 58 13
-2.0749335 0.34313092 -0.11021954 58 6
-1.095835 0.18161051 0.25644422 52 14
-2.0792572 0.34496444 -0.036789671 36 7
-0.65365177 0.1086802 0.17754988 36 15
-2.1017616 0.35586366 0.037208531 69 8
-0.86075878 0.1458955 -0.20155615 1 1
-2.1344573 0.3625493 0.11346437 1 9
-1.4728526 0.25070068 -0.29041129 18 2
-1.5090753 0.25768009 -0.24247345 50 3
-1.4948391 0.25605476 -0.18621638 42 4
-1.2134756 0.20873109 -0.1077245 8 5
-1.1086297 0.19089563 0.21866712 45 13
-2.0823286 0.35930589 -0.1107429 39 6
-1.0906998 0.18859264 0.25554439 36 14
-2.0846798 0.36083567 -0.036929294 58 7
-0.64145654 0.11126 0.17444403 50 15
-2.0933182 0.36948478 0.037103817 74 8
-2.163341 0.38301232 0.11513911 1 9
-1.8093537 0.32099187 -0.35719445 56 2
-1.8009082 0.32046625 -0.28971666 68 3
-1.8858109 0.33659315 -0.23520786 8 4
-1.206143 0.21593277 -0.10720156 8 5
-1.1265939 0.20209716 0.22248329 32 13
-2.1485705 0.38620192 -0.11440641 67 6
-2.0978537 0.37821963 -0.037208531 49 7
-0.62357408 0.11253567 0.16978529 91 15
-0.70878804 0.12983112 -0.19307902 1 0
-2.0809205 0.38192007 0.036929294 69 8
-1.8419141 0.33838654 -0.43235591 29 1
-2.1606839 0.39772889 0.11513911 1 9
-1.8341565 0.3382856 -0.36253712 48 2
-1.8103396 0.33487308 -0.29159388 57 3
-1.9771619 0.36680225 -0.24690731 6 4
-1.2124804 0.22559558 -0.10789881 12 5
-1.1329122 0.21120018 0.22400977 31 13
-2.1144791 0.39494991 -0.11273166 52 6
-1.1052713 0.20664614 0.25959352 0 14
-2.0755754 0.38880861 -0.036859483 29 7
-0.62848997 0.11784571 0.17133822 100 15
-0.7800051 0.14837047 -0.21274926 1 0
-2.0900586 0.39832184 0.037138719 53 8
-1.8453106 0.35201213 -0.43370563 30 1
-1.8549501 0.35519272 -0.36711654 45 2
-1.8235378 0.35016766 -0.29409683 49 3
-2.0447936 0.39376479 -0.2556819 6 4
-1.2324356 0.23799872 -0.10981624 8 5
-1.1295209 0.21853386 0.22362815 21 13
-2.0882127 0.40477282 -0.1114756 40 6
-0.6714862 0.13028044 0.15791564 5 14
-2.0748439 0.40330872 -0.036894388 36 7
-0.63713312 0.12407675 0.17392641 100 15
-0.75999773 0.15007012 -0.20757288 1 0
-2.0692472 0.41347662 -0.25909427 1 4
-1.2112082 0.24268296 -0.10807312 8 5
-1.1356672 0.22795931 0.22515462 16 13
-0.62853092 0.12650563 0.14801779 42 14
-0.64574212 0.13032158 0.1765146 98 15
-2.2097435 0.45279154 0.039372627 1 8
-1.2075775 0.2505168 -0.10789881 6 5
-1.1321671 0.23528484 0.22477302 7 13
-0.63910186 0.13316604 0.1507172 24 14
-0.62968886 0.13166359 0.17237349 76 15
-0.70493871 0.14932497 -0.19307902 1 0
-0.65337569 0.13852185 0.011658208 6 8
-0.73199093 0.15545584 -0.17276241 1 1
-0.67783415 0.1443253 -0.13471116 4 2
-0.69160265 0.14763564 -0.11200709 3 3
-0.6735487 0.14427339 -0.084577329 8 4
-0.64672911 0.13888283 -0.057871412 7 5
-0.6404267 0.13788022 -0.034332391 20 6
-0.61720222 0.13310555 0.14576827 28 14
-0.6450206 0.13934064 -0.011518588 20 7
-0.63066632 0.1363548 0.17289113 25 15
-0.62653291 0.13717894 -0.17185585 12 0
-0.63286 0.13879591 0.011309159 30 8
-0.62813079 0.13787362 -0.14846769 14 1
-0.49156827 0.10807825 0.026377324 81 9
-0.64613312 0.14229797 -0.12860526 22 2
-0.64040303 0.14138763 -0.1038725 43 3
-0.6725511 0.14885458 -0.084577329 64 4
-0.53806615 0.11928641 0.087290443 52 12
-0.63020808 0.13982902 -0.056476917 75 5
-0.60369587 0.13416784 0.12020968 24 13
-0.62970084 0.14017795 -0.033809032 83 6
-0.56112087 0.12501413 0.13272113 3 14
-0.62649202 0.13980794 -0.011204445 100 7
-0.62215775 0.13906869 0.17082058 13 15
-0.6048336 0.13685988 -0.16616184 18 0
-0.63385093 0.14354213 0.011344064 56 8
-0.59864599 0.13578929 -0.14171916 20 1
-0.64132077 0.1458222 -0.12784202 18 2
-0.64327782 0.14662144 -0.10449824 29 3
-0.64440346 0.14735129 -0.081164986 34 4
-0.63504267 0.14556074 -0.056999855 45 5
-0.51855159 0.11904988 0.10341848 7 13
-0.65014404 0.14938067 -0.034960423 29 6
-0.68367594 0.15733624 0.16196476 5 14
-0.62939787 0.14507657 -0.011274255 12 7
-0.6739043 0.15545903 0.18531445 11 15
-0.62270069 0.14536539 -0.17133822 24 0
-0.6250447 0.1461425 0.011204445 48 8
-0.59581035 0.13941699 -0.14126927 24 1
-0.63646454 0.14939846 -0.12707879 18 2
-0.64031565 0.15065619 -0.10418537 29 3
-0.62792891 0.1480888 -0.07921508 45 4
-0.63013327 0.14907326 -0.056651231 100 5
-0.64190781 0.15197712 0.12822366 8 13
-0.61993474 0.14700334 -0.033390343 21 6
-0.6541208 0.15535112 0.15521623 16 14
-0.61672282 0.14658281 -0.011064826 12 7
-0.63709521 0.15166003 0.17547932 37 15
-0.61603618 0.14835207 -0.16978529 15 0
-0.63956088 0.15425342 0.011483684 33 8
-0.62513196 0.15088883 -0.14846769 14 1
-0.63158977 0.15291439 -0.12631556 20 2
-0.60661393 0.14720374 -0.098866597 4 3
-0.62880856 0.15293825 -0.079458818 36 4
-0.62133461 0.15157992 -0.055953983 100 5
-0.65799636 0.16064554 0.13165821 31 13
-0.64217472 0.15702032 -0.034646407 21 6
-0.62084252 0.15203398 0.14756788 39 14
-0.62151116 0.15231271 -0.011169541 13 7
-0.6360209 0.15610395 0.17547932 61 15
-0.60561073 0.15032224 -0.16719711 15 0
-0.62100267 0.1543729 0.011169541 49 8
-0.6202811 0.15430848 -0.14756788 8 1
-0.63812625 0.15922098 -0.12784202 13 2
-0.61515337 0.15383109 -0.10043094 7 3
-0.62965113 0.15780687 -0.079702556 17 4
-0.52688533 0.13224672 0.086038962 26 12
-0.62028849 0.15580556 -0.055953983 100 5
-0.63210756 0.15900904 0.12669718 52 13
-0.62750554 0.1580843 -0.033913702 93 6
-0.64813751 0.16340229 0.15431643 34 14
-0.60686076 0.15322129 -0.010925207 65 7
-0.62367815 0.15769897 0.17237349 63 15
-0.60443908 0.15463132 0.010890301 37 8
-0.64561749 0.16540611 -0.15386651 1 1
-0.62181509 0.15965496 -0.12478909 2 2
-0.60643977 0.15604573 -0.099179462 23 3
-0.62468976 0.16120692 -0.07921508 18 4
-0.57761395 0.14916596 0.09448643 48 12
-0.61918563 0.16013235 -0.055953983 90 5
-0.6252805 0.16194129 0.12555233 71 13
-0.62061477 0.16084868 -0.033599686 10 6
-0.63566345 0.16498573 0.15161701 34 14
-0.58835781 0.15292667 -0.010611064 45 7
-0.62632954 0.16291317 0.17340876 63 15
-0.62848413 0.16546611 0.011344064 49 8
-0.56985438 0.15120058 -0.0723904 10 4
-0.57846761 0.1537021 0.094799295 40 12
-0.61037934 0.16229525 -0.055256739 15 5
-0.61657512 0.16417311 0.12402585 80 13
-0.62719619 0.16723561 -0.034018375 10 6
-0.63264287 0.16880636 0.15116711 42 14
-0.61241812 0.16363867 -0.011064826 43 7
-0.64383906 0.17227517 0.17858516 59 15
-0.6273433 0.1697401 0.011344064 100 8
-0.66453999 0.181299 -0.084577329 8 4
-0.58121932 0.1586764 0.095425032 34 12
-0.60154402 0.16445096 -0.054559495 47 5
-0.61730742 0.16899197 0.12440747 25 13
-0.6144855 0.16833474 -0.033390343 10 6
-0.61077654 0.16754791 0.14621818 9 14
-0.58619338 0.16102429 -0.010611064 22 7
-0.64078867 0.17614159 0.17806751 12 15
-0.62999624 0.17518711 0.011413874 21 8
-0.61192018 0.17177242 -0.055605359 15 5
-5.4092054 1.5204593 1.0921907 5 13
-0.62483078 0.17586736 -0.034018375 10 6
-5.0739303 1.4290844 1.2169852 0 14
-0.57738525 0.16283946 -0.010471444 23 7
-5.376627 1.5183902 1.4970094 10 15
-2.1690342 0.61909318 0.039372627 1 8
-0.62219268 0.17935151 -0.056651231 14 5
-5.456933 1.5750617 1.104021 16 13
-2.1222241 0.61294991 -0.11576715 18 6
-5.0114131 1.449312 1.2043879 0 14
-2.0782852 0.60183096 -0.037767008 1 7
-5.4849195 1.5893636 1.5301383 1 15
-2.0974936 0.61454254 0.038150962 2 8
-5.3877349 1.5918287 0.88979936 3 12
-0.60376179 0.17849852 -0.055082429 46 5
-5.3707852 1.5898789 1.0887562 25 13
-2.0834248 0.61753386 -0.11388306 22 6
-4.9902225 1.4800655 1.2016885 0 14
-2.0856423 0.61937916 -0.037976436 12 7
-5.5959034 1.6639585 1.5643023 1 15
-2.108583 0.63340783 0.038430199 2 8
-4.4239287 1.3398753 0.73211342 7 12
-2.1354461 0.64757693 -0.19522884 0 5
-4.4108777 1.3392861 0.89603907 25 13
-2.1040161 0.63924885 -0.11524379 27 6
-4.4185886 1.3441545 1.066268 14 14
-2.0774415 0.63275987 -0.037906628 29 7
-4.409164 1.34381 1.2350845 20 15
-2.132776 0.65694249 0.03895377 1 8
-4.3012757 1.3355819 0.7133413 3 12
-2.1500154 0.66800857 -0.19697197 7 5
-4.3060527 1.3395374 0.8765766 25 13
-2.1033158 0.65510994 -0.11545313 21 6
-4.3014288 1.3405695 1.0401736 15 14
-2.0788133 0.6486724 -0.038011342 49 7
-4.3166971 1.3486347 1.2117908 23 15
-1.6545109 0.52166533 -0.46483904 9 0
-1.9102702 0.60340571 -0.46249935 1 1
-0.63078642 0.19961263 -0.12860526 2 2
-2.1813111 0.69320965 -0.28103071 4 4
-4.1904302 1.3325027 0.6964463 3 12
-4.2013698 1.3375963 -0.38575131 6 5
-4.2199049 1.3451198 0.8609302 28 13
-2.1520867 0.68640476 -0.11838394 23 6
-4.2028594 1.3421108 1.0185784 14 14
-2.0837574 0.66621423 -0.038185868 40 7
-4.2006979 1.3438445 1.1817677 23 15
-1.6343757 0.52757412 -0.46018028 21 0
-1.9153898 0.61939257 -0.46474886 3 1
-2.0599508 0.66772848 -0.42092466 13 2
-2.0798335 0.67537695 -0.34634593 8 3
-2.1444509 0.69760144 -0.27688718 10 4
-4.0871119 1.3311383 0.68080288 3 12
-3.9496922 1.2871453 -0.36343944 8 5
-4.1023984 1.338493 0.83879644 7 13
-4.1084199 1.3428382 0.9978829 20 14
-4.1030931 1.3442692 1.1569211 27 15
-1.6288186 0.53836471 -0.45966265 31 0
-1.9054691 0.63091135 -0.4633992 7 1
-2.0385873 0.67617208 -0.41749012 52 2
-2.0358214 0.67643809 -0.33977571 38 3
-2.133878 0.71067423 -0.27615595 24 4
-4.0329795 1.3439384 0.67329407 4 12
-3.9236009 1.3090122 -0.36187065 6 5
-4.0147448 1.3409777 0.82276845 22 13
-3.9817536 1.3307306 -0.22002037 6 6
-4.0231752 1.3461353 0.97943687 20 14
-4.0059266 1.3426965 1.1320745 27 15
-1.6324365 0.55191422 -0.46173319 28 0
-1.9048221 0.64511716 -0.46429899 7 1
-2.0263805 0.68786329 -0.41596362 54 2
-2.0216982 0.68745458 -0.33821136 56 3
-2.1195962 0.72198182 -0.27493724 17 4
-3.9334562 1.342123 -0.36361378 0 5
-3.9163473 1.3378116 0.80445075 7 13
-3.9438558 1.3495146 0.96234065 20 14
-3.9270155 1.3468153 1.1124043 31 15
-1.6376723 0.56645483 -0.46432137 13 0
-1.8818583 0.65201974 -0.45979998 1 1
-2.012378 0.69842201 -0.41405553 23 2
-2.0244353 0.70379454 -0.33946282 16 3
-2.0995076 0.73153657 -0.27298734 2 4
-3.8449845 1.3419752 -0.35629267 0 5
-3.8346307 1.3398632 0.78956765 2 13
-3.8442113 1.3454696 0.94029546 16 14
-3.846658 1.3485872 1.0922165 12 15
-1.6319574 0.57694513 -0.46380374 3 0
-2.0325017 0.72254181 -0.3416529 1 3
-3.7810478 1.3500893 0.7804088 0 13
-3.7634022 1.3460106 0.92274922 3 14
-3.7498581 1.3441209 1.0673697 1 15
-2.021014 0.73279357 -0.41787171 1 2
-3.6971743 1.3515103 0.90880221 2 14
-3.6166875 1.3500661 0.89125609 1 14
-3.5780406 1.3641738 0.88405764 1 14
-0.54025662 0.20868437 -0.11257731 2 2
-0.51304716 0.20665987 -0.087603308 4 3
-0.48919621 0.23082428 0.14493866 16 15
-0.49589437 0.24497847 -0.087603308 4 3
-0.45020205 0.22260153 0.061665896 13 11
-2.7143004 1.3604056 -0.70094746 1 1
-2.7861676 1.4043443 -0.27297178 0 5
-2.1931217 1.1169688 -0.65947098 7 0
-2.4009316 1.224391 -0.62221462 2 1
-2.6087534 1.3320943 -0.56937408 6 2
-2.6699243 1.3692102 -0.2625131 0 5
-2.1974759 1.13809 -0.6630944 11 0
-2.337183 1.2119977 -0.60781777 12 1
-2.5662878 1.3330799 -0.5621233 9 2
-2.5779262 1.3408399 -0.46023026 8 3
-2.5511653 1.3286185 -0.3531774 2 4
-2.5669112 1.3385277 -0.25327459 6 5
-2.5651662 1.339897 -0.15166962 8 6
-2.189477 1.1534035 -0.6630944 14 0
-2.3045332 1.2155564 -0.60151911 19 1
-2.5293782 1.335847 -0.5560174 15 2
-2.5250835 1.33527 -0.45240852 12 3
-2.5313027 1.3408209 -0.35171497 8 4
-2.4941382 1.3228085 -0.24699937 10 5
-2.5171793 1.3367176 -0.14936683 12 6
-2.5639853 1.3627203 0.67035419 2 14
-2.609273 1.3885432 0.79198635 1 15
-2.1969028 1.1764884 -0.66775316 17 0
-2.2687273 1.2164807 -0.59432071 29 1
-2.485399 1.3348938 -0.54838508 27 2
-2.4704659 1.3285404 -0.44427395 21 3
-2.4871607 1.3391976 -0.3468402 12 4
-2.4638 1.3288386 -0.24490763 22 5
-2.4866972 1.34287 -0.14811078 24 6
-2.4995492 1.3509374 0.65595728 8 14
-2.4520867 1.3258383 -0.048657309 0 7
-2.4839814 1.3442044 0.75678688 3 15
-2.1920292 1.1936442 -0.66878843 28 0
-2.2516248 1.227625 -0.59207118 24 1
-2.4450042 1.3352747 -0.54151595 27 2
-2.4333997 1.3305917 -0.43926802 30 3
-2.4324791 1.3317431 -0.34050298 25 4
-2.4352462 1.3354685 -0.24299021 23 5
-2.4544847 1.3465768 0.54418731 2 13
-2.4422479 1.3409717 -0.14601734 35 6
-2.4422371 1.3420757 0.64336002 12 14
-2.4392667 1.3409976 -0.048587501 6 7
-2.4288378 1.3363684 0.74281067 9 15
-2.1971633 1.2164043 -0.67292953 37 0
-2.3282194 1.2905533 -0.61456627 7 1
-2.4064436 1.3361099 -0.53502846 30 2
-2.4016066 1.3350698 -0.43520072 28 3
-2.400574 1.3361416 -0.33733436 30 4
-2.4086959 1.3423145 -0.24124709 33 5
-2.4141617 1.3464657 0.53731817 9 13
-2.3962033 1.3375463 -0.14381923 32 6
-2.397315 1.3387158 0.63391209 17 14
-2.3896968 1.335556 -0.04778469 10 7
-2.4076464 1.3466916 0.73918724 18 15
-2.1785166 1.2260284 -0.66982371 39 0
-2.3907168 1.3460002 0.047889404 1 8
-2.3785751 1.3402579 -0.63031286 59 1
-2.364805 1.3341305 -0.52777767 32 2
-2.3769836 1.3426424 -0.43238491 34 3
-2.3652711 1.3382062 -0.33367831 37 4
-2.3645945 1.3394581 -0.23776087 34 5
-2.3859162 1.3526356 0.53312039 15 13
-2.3714075 1.3449579 -0.14287716 38 6
-2.3692684 1.344838 0.62896317 25 14
-2.3507566 1.3354154 -0.047191311 23 7
-2.3648329 1.3439578 0.72883451 27 15
-2.2942235 1.3117881 -0.70812893 57 0
-2.3448138 1.3418007 0.047156405 6 8
-2.3474112 1.3438309 -0.62446409 35 1
-2.336699 1.3398652 -0.5235799 37 2
-2.326437 1.3356 -0.42487606 36 3
-2.3354552 1.3424041 -0.33075345 37 4
-2.3441057 1.3484646 0.42831761 2 12
-2.3189259 1.335057 -0.23410031 33 5
-2.3290184 1.3414096 0.52243507 22 13
-2.3446567 1.351506 -0.14183044 41 6
-2.3378782 1.3486867 0.62311447 26 14
-2.3242927 1.3413895 -0.046842258 34 7
-2.3118982 1.335313 0.7153759 30 15
-2.3017132 1.3374782 -0.71330529 54 0
-2.3025453 1.3390368 0.04649321 12 8
-2.3093374 1.343527 -0.61681581 10 1
-2.2984512 1.3393421 -0.51709241 37 2
-2.2829318 1.3319002 -0.41861868 36 3
-2.2951729 1.3406532 -0.32636613 35 4
-2.3124652 1.3518366 0.42425033 7 12
-2.2768745 1.3320981 -0.23078841 35 5
-2.2924871 1.3417687 0.51632917 30 13
-2.283463 1.3375579 -0.13869029 41 6
-2.3048694 1.351177 0.61681581 26 14
-2.3027966 1.3505027 -0.046597924 39 7
-2.2858591 1.3416412 0.71019953 30 15
-2.2690308 1.3397634 -0.70605838 55 0
-2.2690384 1.3408371 0.046004545 16 8
-2.2445431 1.3268899 -0.601969 7 1
-2.2687731 1.343352 -0.51251298 37 2
-2.249789 1.3337027 -0.41423854 34 3
-2.2447879 1.3323275 -0.32051641 35 4
-2.2571156 1.3407099 0.41580287 12 12
-2.247201 1.3353512 -0.22869666 35 5
-2.2645025 1.3467021 0.51213133 32 13
-2.2431767 1.3350797 -0.1368062 41 6
-2.2554333 1.3429075 0.60601819 26 14
-2.2589557 1.3460733 -0.045899831 38 7
-2.2484643 1.3403534 0.70139962 32 15
-2.2383204 1.3422612 -0.69932908 58 0
-2.2427135 1.3459603 0.045655496 25 8
-2.2187517 1.3321064 -0.59746999 7 1
-2.2259271 1.3385292 -0.50488061 38 2
-2.2135808 1.3326836 -0.40923262 34 3
-2.2152658 1.3352793 -0.31759155 35 4
-2.2141085 1.3356349 0.40954545 22 12
-2.2175894 1.3382633 -0.22660492 36 5
-2.2401588 1.3529496 0.50869679 36 13
-2.215235 1.3389531 -0.13565481 39 6
-2.2162237 1.3400781 0.59791994 27 14
-2.2172351 1.3417474 -0.045236636 36 7
-2.22772 1.3486245 0.69777614 34 15
-2.1961324 1.3373703 -0.68897635 52 0
-2.2164242 1.350788 0.045306448 32 8
-2.1896665 1.3350048 -0.59207118 7 1
-2.1815779 1.3321626 -0.49686664 41 2
-0.43186179 0.26381648 0.044275116 11 10
-2.1876044 1.3374169 -0.40610394 33 3
-2.1824217 1.3358188 -0.31417918 37 4
-2.1813834 1.3362293 0.40516531 30 12
-2.1846457 1.3387527 -0.22416456 37 5
-2.2041202 1.3517444 0.50259089 36 13
-2.1873457 1.3425081 -0.13450342 38 6
-2.1887832 1.3439162 0.59297097 29 14
-2.1790874 1.3390106 -0.044643257 38 7
-2.183928 1.3425108 0.68690574 35 15
-2.1491871 1.3289196 -0.67707068 49 0
-2.171469 1.3437458 0.044573449 35 8
-2.1606457 1.3375691 -0.58667231 8 1
-2.1557741 1.3366359 -0.49305046 43 2
-0.43005604 0.26674995 0.044275116 11 10
-2.1566324 1.3387324 -0.40203664 37 3
-2.3423884 1.4546072 0.33855307 1 11
-2.1564186 1.3401642 -0.3117418 40 4
-2.1537859 1.3395705 0.40172374 35 12
-2.1450324 1.3346455 -0.22102696 37 5
-2.1565368 1.3428478 0.49381369 30 13
-2.1645966 1.3489152 -0.13366605 41 6
-2.15974 1.3464129 0.58757216 35 14
-2.1427774 1.3368763 -0.044084776 39 7
-2.1436014 1.3379109 0.67707068 36 15
-2.1267691 1.3356717 -0.67292953 50 0
-2.1315601 1.3397183 0.04394516 40 8
-2.126509 1.3370613 -0.57992381 18 1
-2.129777 1.3411922 -0.4892343 45 2
-2.1154847 1.3337393 -0.39609212 39 3
-2.1405308 1.3505745 0.31076685 2 11
-2.1302235 1.3445907 -0.30930442 40 4
-2.1210005 1.3398048 0.39734361 37 12
-2.1152184 1.3371848 -0.21893522 37 5
-2.1238797 1.3431797 0.48847106 31 13
-2.1213734 1.3426317 -0.1315726 45 6
-2.1302948 1.3493195 0.58217329 35 14
-2.1232569 1.3453817 -0.043875352 41 7
-2.1046064 1.3345932 0.66775316 36 15
-2.0945897 1.335943 -0.66568261 55 0
-2.1052995 1.3438072 0.043596111 40 8
-2.0875585 1.3329965 -0.57182556 40 1
-2.1457882 1.3712341 0.13345671 1 9
-2.1005147 1.3433348 -0.4846549 46 2
-2.1096303 1.3496841 0.21910954 2 10
-2.0911498 1.3388889 -0.3932763 39 3
-2.1043079 1.3483493 0.30686703 7 11
-2.0923741 1.3412178 -0.30516088 42 4
-2.0966313 1.3449795 0.39452776 39 12
-2.0790052 1.3346977 -0.21614623 36 5
-2.0962801 1.3463038 0.48427325 33 13
-2.0817058 1.337971 -0.12968852 45 6
-2.0913215 1.345183 0.5740751 36 14
-2.0953147 1.3482686 -0.043491397 42 7
-2.0854926 1.3429778 0.66464734 37 15
-2.0754838 1.344232 -0.66257679 55 0
-2.0857983 1.3519467 0.043386683 45 8
-2.0553102 1.332695 -0.56552696 39 1
-2.0641201 1.3394309 0.12895581 3 9
-2.0581546 1.3365811 -0.4770225 42 2
-2.076766 1.3491827 0.21666917 10 10
-2.0569098 1.3373041 -0.38858327 41 3
-2.0665572 1.3446029 0.3027235 8 11
-2.0580039 1.3395489 -0.30150479 38 4
-2.059052 1.3412554 0.389209 37 12
-2.0565186 1.3401157 -0.21475175 35 5
-2.0720296 1.3512546 0.48083872 34 13
-2.0522439 1.339372 -0.12843245 45 6
-2.0592721 1.3444721 0.5677765 31 14
-2.059067 1.3453628 -0.04293292 42 7
-2.0647478 1.3501039 0.66102386 36 15
-2.041837 1.3427672 -0.65481222 59 0
-2.0531592 1.3507264 0.042898018 45 8
-2.0264244 1.3341519 -0.56012809 42 1
-2.0316031 1.3380697 0.1274904 11 9
-2.0260603 1.3354332 -0.47167987 41 2
-2.0456755 1.3493861 0.21440312 25 10
-2.0345695 1.3425703 -0.38608032 42 3
-2.0457613 1.3509809 0.30101728 48 11
-2.0254164 1.3385612 -0.29809242 40 4
-2.0251579 1.3388981 0.38451597 40 12
-2.02385 1.3390489 -0.21231139 36 5
-2.0461762 1.3548478 0.4770225 40 13
-2.0297587 1.3444867 -0.12759508 47 6
-2.0303447 1.3458946 0.56237763 32 14
-2.0196295 1.3398073 -0.042304631 40 7
-2.0233176 1.3427619 0.65067112 42 15
-1.998906 1.3341132 -0.64394182 56 0
-2.0220623 1.350588 0.042444255 47 8
-2.0010929 1.3370879 -0.55562907 42 1
-2.0205522 1.3511097 0.12738572 26 9
-1.9971087 1.3364426 -0.46710047 38 2
-2.0066416 1.343329 0.2112655 37 10
-1.998889 1.3391497 -0.3810744 41 3
-2.0082502 1.3464376 0.29687375 11 11
-2.001421 1.3423647 -0.2958988 43 4
-1.9993596 1.3419948 0.38138729 41 12
-1.9846822 1.3331481 -0.20917378 40 5
-2.0075753 1.3490344 0.47015342 39 13
-2.0054064 1.3485932 -0.12665303 46 6
-2.0111985 1.3535087 0.55967826 37 14
-1.9888986 1.339005 -0.041850869 41 7
-1.9866573 1.3385046 0.64187121 43 15
-1.97515 1.3382825 -0.63928306 59 0
-1.9844475 1.3455931 0.041850869 46 8
-1.95623 1.3269582 -0.54573125 42 1
-1.9945456 1.3539654 0.126339 46 9
-1.9714899 1.3393205 -0.46328428 41 2
-1.9823838 1.3472263 0.20969671 43 10
-1.9600896 1.3330761 -0.37544277 42 3
-1.9938782 1.3570737 0.29614252 8 11
-1.9788735 1.3473672 -0.29394889 45 4
-1.9785153 1.3481334 0.37919718 44 12
-1.9638038 1.339114 -0.2079536 41 5
-1.9721591 1.3453151 0.46404752 40 13
-1.9662509 1.3422912 -0.12476893 48 6
-1.9840006 1.3554238 0.55472928 37 14
-1.9712476 1.347216 -0.041676346 42 7
-1.9629135 1.3425256 0.63721251 45 15
-1.9482504 1.3399962 -0.63358909 55 0
-1.9519442 1.3435414 0.041362204 33 8
-1.9437088 1.3383721 -0.54483145 15 1
-1.9554417 1.347458 0.12445491 45 9
-1.9523947 1.3463638 -0.46099457 12 2
-1.9516101 1.3463253 0.20743066 27 10
-1.9393563 1.3388715 -0.37325269 31 3
-1.9549575 1.3506504 0.29175523 37 11
-1.9465569 1.3453479 -0.29053652 44 4
-1.9365622 1.3394399 0.3729398 32 12
-1.9382594 1.3411132 -0.20621049 43 5
-1.9385077 1.3422865 0.45832324 33 13
-1.9322076 1.3389221 -0.12319885 50 6
-1.9410956 1.3455826 0.54528135 36 14
-1.9404346 1.3461274 -0.041222587 51 7
-1.9249289 1.3363655 0.62789506 29 15
-1.9325114 1.3491418 -0.63151848 30 0
-1.92472 1.3442014 0.040978249 8 8
-1.9135528 1.337397 -0.53898275 46 1
-1.9331301 1.3515813 0.12361754 9 9
-1.9254903 1.3472414 -0.45679674 40 2
-1.9225785 1.3462038 0.20533893 9 10
-1.9188725 1.3441081 -0.37106261 34 3
-1.9278384 1.3513917 0.28907412 9 11
-1.9111159 1.3406639 -0.28663671 24 4
-1.9176989 1.3457819 0.37106261 9 12
-1.9190662 1.3477422 -0.20516461 21 5
-1.9146335 1.3456265 0.45488867 8 13
-1.9148797 1.3462995 -0.12267549 26 6
-1.9252797 1.3546153 0.54348177 7 14
-1.9064641 1.3423718 -0.040699009 16 7
-1.9047325 1.3416498 0.62427157 8 15
-1.8964839 1.343282 -0.62271863 73 0
-1.9136572 1.35645 0.040943347 32 8
-1.8916881 1.3413731 -0.53538352 53 1
-1.9122448 1.3569535 0.12288483 45 9
-1.8984308 1.3481468 -0.45259899 63 2
-1.9052495 1.35349 0.20446737 34 10
-1.9013925 1.3517481 -0.36949828 68 3
-1.9199746 1.3659683 0.28931785 40 11
-1.9019457 1.3536417 -0.28663671 67 4
-1.8953849 1.3499693 0.36855966 27 12
-1.8952446 1.3503679 -0.20359582 59 5
-1.921415 1.3700259 0.45870483 28 13
-1.8973055 1.3538343 -0.12215213 60 6
-1.8906368 1.3495739 0.53628331 24 14
-1.8907741 1.3506683 -0.040559392 55 7
-1.8953195 1.3549147 0.62427157 30 15
-1.8588245 1.3361928 -0.61340117 59 0
-1.8800275 1.3519319 0.040419776 64 8
-1.872787 1.3477172 -0.53268409 55 1
-1.8851343 1.3571022 0.12173345 66 9
-1.8748738 1.3507094 -0.44916439 65 2
-1.8715117 1.3492799 0.20185271 65 10
-1.880932 1.3565705 -0.36730817 66 3
-1.8961459 1.3685495 0.28712422 63 11
-1.8731384 1.352939 -0.28371185 66 4
-1.8653375 1.3477992 0.36449236 56 12
-1.8599386 1.3448875 -0.20080683 57 5
-1.8831742 1.3626899 0.45183572 54 13
-1.8783391 1.3596905 -0.1215241 66 6
-1.8732781 1.3570238 0.53403378 50 14
-1.8715844 1.3567932 -0.040349964 58 7
-1.8641584 1.3519063 0.6170246 57 15
-1.8371991 1.339708 -0.60926002 61 0
-1.8511595 1.3508787 0.040000916 65 8
-1.8399608 1.3431979 -0.52593553 57 1
-1.8627121 1.3608044 0.12089607 73 9
-1.8511347 1.3533376 -0.44572985 61 2
-1.8526349 1.3549306 0.20080683 64 10
-1.8411287 1.3475021 -0.36136368 66 3
-1.8577183 1.3606408 0.2827369 61 11
-1.851076 1.3562713 -0.28176194 66 4
-1.8447311 1.3526131 0.36230227 57 12
-1.8298563 1.3421968 -0.19854078 54 5
-1.8453673 1.3545656 0.44496658 58 13
-1.8462663 1.3562168 -0.1200587 72 6
-1.8514349 1.3605118 0.53043455 57 14
-1.8429739 1.3552852 -0.039931107 59 7
-1.8313361 1.3477114 0.60926002 55 15
-1.8184835 1.3456072 -0.6061542 61 0
-1.830671 1.3551191 0.039756581 67 8
-1.8133136 1.3432515 -0.52098668 60 1
-1.8341503 1.3591818 0.11964 71 9
-1.8308409 1.3577204 -0.44305849 62 2
-1.830331 1.3583326 0.19941233 66 10
-1.8160532 1.3482282 -0.35823497 64 3
-1.8229188 1.3543124 0.27883708 60 11
-1.8160738 1.350211 -0.27786213 61 4
-1.8212161 1.354528 0.35948643 59 12
-1.8012621 1.3406639 -0.19644904 54 5
-1.8216956 1.3568606 0.44153205 55 13
-1.8113664 1.3496596 -0.11838394 68 6
-1.8231452 1.3594251 0.52503574 53 14
-1.8238513 1.3609426 -0.039721675 63 7
-1.8159279 1.3555235 0.60718954 56 15
-1.8015569 1.3521552 -0.60356599 65 0
-1.8067753 1.357058 0.039442439 63 8
-1.7838751 1.3403448 -0.51513791 64 1
-1.7974787 1.3515487 0.11786059 65 9
-1.7977868 1.3527622 -0.43733424 63 2
-1.8035327 1.3575796 0.19749491 62 10
-1.7908188 1.3489882 -0.35510629 61 3
-1.7943975 1.3526666 0.27591223 58 11
-1.7814821 1.3434176 -0.27396232 61 4
-1.7880638 1.3493607 0.3547934 55 12
-1.7857344 1.3480915 -0.19575179 50 5
-1.7936199 1.3550282 0.43695265 60 13
-1.782782 1.3478181 -0.11712788 68 6
-1.7905353 1.3541709 0.51828724 52 14
-1.787439 1.3528101 -0.039128296 61 7
-1.7910199 1.3565046 0.60201317 59 15
-1.7628715 1.3424618 -0.59373093 73 0
-1.7863618 1.3608421 0.039198104 67 8
-1.7651756 1.3456771 -0.51243848 64 1
-1.7739441 1.3528521 0.11691854 58 9
-1.769809 1.3506752 -0.43275481 61 2
-1.7734269 1.354416 0.19522884 64 10
-1.7658979 1.3491541 -0.35197759 63 3
-1.7725329 1.3552033 0.27396232 60 11
-1.7594469 1.3461723 -0.27201241 60 4
-1.7506021 1.3398889 0.34916177 57 12
-1.754135 1.3435647 -0.19331144 54 5
-1.7763252 1.3615451 0.43504456 63 13
-1.7703965 1.3574914 -0.11691854 68 6
-1.7702155 1.3583339 0.51513791 54 14
-1.7557468 1.348205 -0.038639627 57 7
-1.7587647 1.3510112 0.59424853 62 15
-1.735346 1.3402598 -0.58751929 57 0
-1.7515022 1.3537147 0.038639627 67 8
-1.7374752 1.3433571 -0.50703967 65 1
-1.7565584 1.3590922 0.11639518 65 9
-1.7354991 1.3437669 -0.42664891 60 2
-1.7389643 1.3469354 0.19243988 57 10
-1.7377007 1.3469274 -0.34822315 60 3
-1.7473434 1.355378 0.27152494 61 11
-1.7408334 1.3508152 -0.27054995 61 4
-1.7334042 1.3460206 0.34759742 61 12
-1.7242608 1.3398849 -0.19104539 57 5
-1.745316 1.3567358 0.42970186 65 13
-1.748265 1.3600068 -0.11608116 66 6
-1.7499253 1.3622797 0.51198858 59 14
-1.7354852 1.3515242 -0.038395293 63 7
-1.7264335 1.3454442 0.58648396 65 15
-1.7031366 1.3344702 -0.57975465 65 0
-1.7231256 1.3511025 0.038220771 69 8
-1.7127209 1.3434275 -0.50254071 59 1
-1.7376012 1.3639226 0.11576715 65 9
-1.7260756 1.3558501 -0.42664891 64 2
-1.7169863 1.3491943 0.19104539 57 10
-1.7034105 1.3394892 -0.34321725 61 3
-1.7159985 1.3503574 0.26811257 60 11
-1.7188823 1.3531126 -0.26860005 64 4
-1.7177582 1.3531991 0.34634593 65 12
-1.7054765 1.3444889 -0.18999951 60 5
-1.7111371 1.3494357 0.42359596 65 13
-1.7167778 1.3548568 -0.11461575 68 6
-1.7281377 1.3648005 0.50838935 59 14
-1.7134542 1.3536904 -0.038116053 59 7
-1.7109367 1.3526717 0.58441341 64 15
-1.6952914 1.3475294 -0.58027232 58 0
-1.7011309 1.3531408 0.03794153 67 8
-1.681952 1.338364 -0.49624202 64 1
-1.7014754 1.35487 0.11398773 69 9
-1.6981437 1.3531852 -0.42206952 66 2
-1.699735 1.354939 0.19017383 60 10
-1.6878408 1.3464211 -0.34196579 64 3
-1.6910157 1.3499196 0.26567519 63 11
-1.6907798 1.350215 -0.26567519 66 4
-1.692838 1.3528259 0.34321725 61 12
-1.6853919 1.347358 -0.18877934 60 5
-1.6970756 1.357669 0.42245111 67 13
-1.6870085 1.3505819 -0.11325502 64 6
-1.6883862 1.3521689 0.49939132 60 14
-1.6930395 1.3568654 -0.037871722 57 7
-1.6893957 1.3549136 0.58027232 65 15
-1.6677961 1.3447807 -0.57406068 73 0
-1.6825426 1.3571557 0.037732106 67 8
-1.6634691 1.3427294 -0.49354258 64 1
-1.6797826 1.3563818 0.11315035 69 9
-1.6705688 1.3499061 -0.41749012 65 2
-1.6762912 1.3554969 0.18860501 64 10
-1.6663502 1.3479401 -0.33946282 66 3
-1.6740733 1.3551537 0.26445648 66 11
-1.6658877 1.3494903 -0.2632378 66 4
-1.6651738 1.3493932 0.33946282 68 12
-1.6635647 1.3490516 -0.18738484 60 5
-1.6753602 1.3595873 0.41939822 67 13
-1.6622702 1.3494456 -0.1122083 70 6
-1.6698303 1.3565503 0.49669194 62 14
-1.6633544 1.3522534 -0.037417959 59 7
-1.6666448 1.3554115 0.57561362 67 15
-1.6361703 1.3377591 -0.5662961 65 0
-1.6575502 1.3562061 0.037383057 69 8
-1.6452433 1.3466152 -0.49084321 62 1
-1.6579114 1.3579513 0.11231297 69 9
-1.6398469 1.3441119 -0.41214746 66 2
-1.6485378 1.3517164 0.18651329 66 10
-1.649264 1.3532749 -0.33789849 69 3
-1.6584352 1.361769 0.26348156 66 11
-1.645926 1.3519784 -0.26153165 68 4
-1.6374003 1.3459334 0.33570841 66 12
-1.6356413 1.3454446 -0.18529311 61 5
-1.655455 1.3622273 0.41672686 65 13
-1.643558 1.3534 -0.11158027 70 6
-1.6422724 1.353303 0.49129307 62 14
-1.6402241 1.3520964 -0.037103817 61 7
-1.6347883 1.3485736 0.56784898 67 15
-1.6178688 1.3417504 -0.56319028 67 0
-1.6264986 1.3498658 0.036894388 69 8
-1.6223073 1.3468657 -0.48679405 69 1
-1.631492 1.3554531 0.11116158 67 9
-1.6198561 1.3467412 -0.40947613 75 2
-1.6237425 1.3504523 0.18477017 80 10
-1.6245935 1.3521191 -0.33476979 73 3
-1.6351599 1.3618802 0.2612879 67 11
-1.6242466 1.3532704 -0.25958171 67 4
-1.6127923 1.3446816 0.33257973 65 12
-1.6109104 1.344066 -0.18355 57 5
-1.6232963 1.3548808 0.41100258 62 13
-1.6310039 1.36228 -0.11137092 74 6
-1.623813 1.3572371 0.4885937 60 14
-1.6215404 1.3558179 -0.036894388 66 7
-1.6090357 1.3463174 0.56215501 65 15
-1.5936788 1.3405764 -0.55801392 65 0
-1.601737 1.3483096 0.03654534 69 8
-1.5964683 1.3443508 -0.48184517 67 1
-1.6158806 1.3616617 0.1107429 75 9
-1.60291 1.3516893 -0.40756804 69 2
-1.5990462 1.3489082 0.18302706 67 10
-1.5924722 1.3443147 -0.33007675 69 3
-1.6074151 1.3578902 0.25836304 66 11
-1.6086943 1.359452 -0.25860679 71 4
-1.6003488 1.3533573 0.331954 63 12
-1.5925977 1.3472793 -0.18250412 57 5
-1.6003122 1.3547641 0.40756804 63 13
-1.6031666 1.3581413 -0.11011487 76 6
-1.6085905 1.3632185 0.48679405 62 14
-1.6044101 1.3606383 -0.036719862 69 7
-1.5863414 1.3462672 0.55749625 62 15
-1.5754631 1.3441464 -0.55490804 64 0
-1.5833961 1.3513921 0.036335908 69 8
-1.5737076 1.3440729 -0.47779605 73 1
-1.5913897 1.3596553 0.10969618 79 9
-1.5862117 1.3561894 -0.40565994 73 2
-1.5865624 1.3574481 0.18267845 67 10
-1.5742804 1.3474164 -0.32819954 69 3
-1.5830582 1.3558868 0.25592566 68 11
-1.5840924 1.3577307 -0.25616938 67 4
-1.5791026 1.3539329 0.32945102 66 12
-1.5680326 1.3453907 -0.18076101 58 5
-1.5774093 1.3543929 0.40413347 62 13
-1.5726739 1.3508031 -0.10864946 74 6
-1.5813 1.3591725 0.48139524 62 14
-1.5827435 1.361374 -0.036440626 63 7
-1.5771409 1.3570338 0.55749625 67 15
-1.5575109 1.3472561 -0.55180228 68 0
-1.5693876 1.358487 0.036231197 72 8
-1.5527368 1.3445483 -0.47419682 75 1
-1.5667651 1.3576523 0.10864946 75 9
-1.5618722 1.3543681 -0.40184379 73 2
-1.5652449 1.357772 0.18128395 68 10
-1.5558853 1.3506043 -0.32632235 72 3
-1.5615649 1.3564907 0.25397575 65 11
-1.5478426 1.3450445 -0.25178206 74 4
-1.5636497 1.3597387 0.32819954 65 12
-1.5558321 1.3534175 -0.1804124 60 5
-1.5622309 1.3599422 0.40260699 67 13
-1.5586869 1.3578142 -0.10833544 80 6
-1.5485053 1.3494195 0.47419682 63 14
-1.5613834 1.3616017 -0.036161385 71 7
-1.555984 1.3578496 0.5533551 67 15
-1.5306408 1.3428081 -0.54559058 68 0
-1.5525892 1.3625426 0.036056671 74 8
-1.5374556 1.3502119 -0.47239724 75 1
-1.543983 1.3564217 0.10770741 69 9
-1.5363982 1.3507086 -0.39764598 69 2
-1.5347856 1.3502417 0.17884357 64 10
-1.5407243 1.3559433 -0.32507086 69 3
-1.5463367 1.3618406 0.2530008 67 11
-1.5384148 1.3558177 -0.25178206 69 4
-1.5336134 1.352062 0.3238194 68 12
-1.5254288 1.3457927 -0.17797202 64 5
-1.5468111 1.3656181 0.40108052 67 13
-1.5254564 1.3472381 -0.10666069 75 6
-1.5405068 1.3614882 0.47464675 62 14
-1.5248774 1.3486227 -0.035533097 61 7
-1.53079 1.3543286 0.54766113 65 15
-1.5070299 1.3403571 -0.54041415 68 0
-1.526608 1.3587245 0.035672721 71 8
-1.5224075 1.3554622 -0.47059759 69 1
-1.5314934 1.3645103 0.10749806 71 9
-1.5152076 1.35095 -0.39459303 66 2
-1.5136639 1.3500478 0.17744908 65 10
-1.5194305 1.3561436 -0.32256791 71 3
-1.5338308 1.3699579 0.25251329 63 11
-1.5202687 1.3583224 -0.25031966 69 4
-1.5123565 1.3522021 0.32131645 66 12
-1.5013825 1.3428622 -0.17622891 61 5
-1.5126114 1.3538562 0.39459303 65 13
-1.5115507 1.3538573 -0.10634667 71 6
-1.5210445 1.3628393 0.47149745 59 14
-1.517151 1.3603058 -0.035568006 66 7
-1.4997294 1.3456299 0.53989661 69 15
-1.4847256 1.3392 -0.53575546 72 0
-1.4935694 1.3476505 0.035114244 60 8
-1.4897652 1.3451622 -0.4633992 71 1
-1.5132769 1.3668706 0.10687003 73 9
-1.4986947 1.3546501 -0.39268494 71 2
-1.4953369 1.352563 0.17640322 64 10
-1.4955168 1.353201 -0.3194392 71 3
-1.5009263 1.3590484 0.24861349 66 11
-1.5019227 1.3609048 -0.24885722 73 4
-1.4987261 1.3584853 0.32037783 69 12
-1.4860684 1.3479567 -0.17553167 64 5
-1.4973081 1.3591053 0.39306656 71 13
-1.4919499 1.3547159 -0.10561397 80 6
-1.4999549 1.3629408 0.46789822 60 14
-1.4972608 1.3614473 -0.035323672 69 7
-1.4833899 1.3493074 0.53730839 71 15
-1.4684469 1.3427573 -0.5331673 68 0
-1.4796991 1.3539945 0.035009526 78 8
-1.4590131 1.3355343 -0.45665067 67 1
-1.4830792 1.3585148 0.10540463 73 9
-1.4761764 1.3531402 -0.3892504 69 2
-1.4772846 1.3546307 0.17535736 62 10
-1.4743897 1.3529238 -0.31693625 72 3
-1.4797045 1.3587524 0.24666359 68 11
-1.4809293 1.3603535 -0.24690731 73 4
-1.4775715 1.3582203 0.31787488 71 12
-1.4651258 1.3472518 -0.17413718 77 5
-1.4764652 1.3586303 0.39001361 74 13
-1.4692323 1.3529228 -0.10467192 76 6
-1.47631 1.3599155 0.4633992 63 14
-1.4820777 1.3661859 -0.035184052 69 7
-1.462574 1.3491518 0.5331673 73 15
-1.4547875 1.3490351 -0.53161436 72 0
-1.4645844 1.3585954 0.034869909 76 8
-1.4453689 1.3417102 -0.45530096 71 1
-1.4533079 1.3495514 0.10393922 69 9
-1.4568642 1.3538017 -0.38657904 73 2
-1.4619554 1.3594841 0.17466012 65 10
-1.4535756 1.3521647 -0.31443331 74 3
-1.4573445 1.3566198 0.24446991 75 11
-1.4510609 1.3517163 -0.24349497 78 4
-1.4509501 1.3520861 0.31412044 72 12
-1.4498559 1.3520122 -0.17343993 79 5
-1.4511551 1.354171 0.3858158 70 13
-1.4512293 1.3547149 -0.10404389 74 6
-1.4525394 1.3568863 0.45890018 67 14
-1.4564353 1.3614779 -0.034800097 74 7
-1.4491235 1.3551174 0.53161436 72 15
-1.4244577 1.3390588 -0.52384979 67 0
-1.450694 1.3646768 0.034765195 78 8
-1.4305263 1.3461751 -0.45350131 69 1
-1.4423965 1.3582957 0.10383455 67 9
-1.4330897 1.3504748 -0.38276285 73 2
-1.4396199 1.3571037 0.17309129 72 10
-1.4412265 1.3595686 -0.31380758 72 3
-1.4391774 1.3585846 0.2430075 72 11
-1.4358168 1.3563609 -0.24252002 74 4
-1.4328612 1.3540417 0.31224322 66 12
-1.4259056 1.3484118 -0.17169681 77 5
-1.4331099 1.3561724 0.38352609 68 13
-1.4373853 1.3606939 -0.10372987 80 6
-1.4345428 1.3589528 0.45620075 70 14
-1.4280282 1.3537282 -0.034346335 68 7
-1.4200032 1.3465905 0.52436739 71 15
-1.4050525 1.339885 -0.5202263 72 0
-1.4223217 1.3568271 0.034311432 74 8
-1.4180375 1.353686 -0.45260152 73 1
-1.4283072 1.3644435 0.10352053 69 9
-1.4179492 1.3550215 -0.3812364 70 2
-1.4097124 1.3480926 0.17065094 72 10
-1.414335 1.3534578 -0.31005314 69 3
-1.4325253 1.3713447 0.24349497 75 11
-1.414845 1.3553656 -0.2405701 74 4
-1.4117275 1.3533245 0.30974028 69 12
-1.4020771 1.344543 -0.16995369 82 5
-1.4066088 1.3498322 0.37894669 63 13
-1.4232899 1.3667945 -0.10341586 76 6
-1.419399 1.3635343 0.45440111 73 14
-1.4084518 1.3539635 -0.034102004 74 7
-1.3964084 1.3433243 0.51919103 71 15
-1.3845545 1.338918 -0.51608521 75 0
-1.398206 1.3530643 0.033962384 76 8
-1.3903505 1.3459324 -0.44675279 72 1
-1.4072709 1.3632641 0.10268316 73 9
-1.3997589 1.3569343 -0.37894669 70 2
-1.3974063 1.3551269 0.17030232 72 10
-1.3906755 1.349542 -0.30692446 69 3
-1.4027385 1.3621989 0.24008264 77 11
-1.3996527 1.3596773 -0.23959514 74 4
-1.3909135 1.3521322 0.30723733 64 12
-1.3869425 1.3487428 -0.16925645 87 5
-1.385895 1.3486658 0.37589374 65 13
-1.3879576 1.3516158 -0.10153177 76 6
-1.3958863 1.3598123 0.44990209 73 14
-1.3932377 1.3581796 -0.033962384 74 7
-1.3759335 1.3422484 0.51504993 72 15
-1.3696561 1.3431408 -0.51401466 78 0
-1.3789711 1.3527477 0.03371805 71 8
-1.3684043 1.3433195 -0.44270366 68 1
-1.3837086 1.3588175 0.10163644 73 9
-1.3848889 1.3609265 -0.37742022 72 2
-1.3822298 1.3592614 0.16960508 78 10
-1.373008 1.3506649 -0.30504724 73 3
-1.3792874 1.3577892 0.23764524 75 11
-1.3759847 1.3554846 -0.23715776 81 4
-1.3816776 1.3615685 0.30723733 69 12
-1.377493 1.3583924 -0.16925645 79 5
-1.379241 1.3610659 0.37665698 63 13
-1.3744612 1.3568227 -0.10121775 80 6
-1.3738822 1.3571984 0.44585299 69 14
-1.378033 1.3622501 -0.033822764 76 7
-1.3598974 1.3447909 0.51246172 69 15
-1.3577417 1.3497088 -0.51297939 75 0
-1.3680761 1.3609312 0.033683144 76 8
-1.3523222 1.3457298 -0.44045416 75 1
-1.3642823 1.358579 0.10090373 77 9
-1.3586667 1.3539317 -0.37284079 74 2
-1.3644793 1.3601987 0.16855921 78 10
-1.3579514 1.3546368 -0.30379578 69 3
-1.3613449 1.358971 0.23618281 72 11
-1.3554895 1.3535974 -0.23520786 78 4
-1.3553712 1.3544252 0.30348289 72 12
-1.3569422 1.3564686 -0.16786195 82 5
-1.3616165 1.3620918 0.37436727 66 13
-1.3593092 1.3607332 -0.10079906 80 6
-1.3522192 1.3541082 0.44180387 65 14
-1.3574288 1.3602743 -0.033543523 76 7
-1.357296 1.361092 0.51504993 78 15
-1.3292387 1.3399534 -0.50573242 81 0
-1.3503324 1.3616924 0.033473715 76 8
-1.3387797 1.3509853 -0.43910447 70 1
-1.3465694 1.3593204 0.1002757 88 9
-1.3411322 1.3547771 -0.37055111 75 2
-1.3409381 1.355527 0.16681609 75 10
-1.3431432 1.3582304 -0.3025443 75 3
