# .PCD v0.7 - Point Cloud Data file format
VERSION 0.7
FIELDS x y z intensity ring
SIZE 4 4 4 4 2
TYPE F F F F U
COUNT 1 1 1 1 1
WIDTH 535
HEIGHT 1
VIEWPOINT 0 0 0 1 0 0 0
POINTS 535
DATA ascii
1.9179469 0.41958231 0.1028925 49 9
1.9032427 0.40246433 0.10195045 83 9
1.9022498 0.38943803 0.033892576 26 8
1.8962216 0.38716963 0.10142709 77 9
1.8970747 0.3745997 0.033752955 77 8
1.8950242 0.37281957 0.10121775 79 9
1.8839905 0.35802734 0.033473715 84 8
1.8975809 0.3595807 0.10121775 79 9
1.8726742 0.34234953 0.033229381 81 8
1.8981403 0.34563494 0.10111307 89 9
1.8936597 0.33867657 -0.033578429 52 7
1.8809273 0.33030504 0.033334095 72 8
1.8886451 0.33064017 0.10048504 82 9
1.8881382 0.32953268 0.16768765 19 10
1.8841525 0.32341912 -0.033369001 18 7
1.8791441 0.31513578 0.099857017 92 9
1.8924129 0.31634241 0.16786195 66 10
1.8745257 0.30830929 -0.033159573 9 7
1.8913318 0.30463484 0.033438813 10 8
1.8773544 0.30137515 0.099647671 85 9
1.8886733 0.30217797 0.16733903 71 10
1.8860283 0.29770517 -0.10006636 67 6
1.8529782 0.29116267 -0.032740716 10 7
1.8756245 0.28868651 0.033124667 11 8
1.8612437 0.28414497 0.16472435 10 10
1.8742852 0.28212047 -0.099333659 75 6
1.8569435 0.27851596 -0.032775622 10 7
1.8657711 0.27351716 0.032915238 12 8
1.893285 0.27653816 0.1002757 10 9
1.8710685 0.27229267 0.16542161 10 10
1.876209 0.2690295 -0.099333659 96 6
1.8588427 0.26554528 -0.032775622 10 7
1.8696156 0.2607612 0.032950144 27 8
1.8753868 0.26056522 0.099228986 10 9
1.8689766 0.25867721 0.16507298 10 10
1.8733286 0.25628141 -0.16542161 78 5
1.848357 0.25187936 -0.097763576 89 6
1.8725402 0.25417635 -0.03298505 23 7
1.8674257 0.24717766 0.032880332 90 8
1.8632994 0.24563892 0.098496281 12 9
1.8667861 0.24510427 0.16472435 10 10
1.8671688 0.24217179 -0.16472435 24 5
1.8599744 0.24024856 -0.098286942 93 6
1.8671216 0.2338869 0.03284543 81 8
1.8689324 0.23311995 0.09870562 24 9
1.8803147 0.23354 0.16577022 23 10
1.8952616 0.23405217 0.23447664 11 11
1.8569484 0.22767669 -0.16367848 10 5
1.8596236 0.22701649 -0.098182261 100 6
1.8481154 0.22462785 -0.032496382 87 7
1.864737 0.22037685 0.032775622 96 8
1.8566294 0.2184331 0.097972922 76 9
1.8383645 0.21530755 0.16193536 66 10
1.8850186 0.21943869 0.2330142 75 11
1.8693204 0.21694906 -0.2310643 67 4
1.8268251 0.21104784 -0.16088949 9 5
1.859179 0.21379928 -0.098077588 97 6
1.8476887 0.21117112 -0.032461476 38 7
1.8503305 0.20558569 0.032496382 96 8
1.8760117 0.20711428 0.098914966 100 9
1.8557018 0.20388867 0.16332985 100 10
1.8707181 0.20454732 0.2310643 92 11
1.8668426 0.20346329 -0.23057681 55 4
1.8262732 0.19807424 -0.16071519 10 5
1.8487469 0.19920601 -0.097449563 93 6
1.8451413 0.19784029 -0.032391667 11 7
1.8537433 0.19254637 0.032531288 100 8
1.865492 0.1927795 0.098286942 100 9
1.863026 0.19153887 0.1638528 97 10
1.9277526 0.19751444 -0.30692446 0 3
1.8543605 0.18934076 0.22887065 96 11
1.8326701 0.18680198 -0.22618952 94 4
1.8375551 0.18600391 -0.16158675 9 5
1.8381692 0.18509385 -0.096821532 93 6
1.8444879 0.18475465 -0.032356761 12 7
1.8470806 0.17883016 0.032391667 100 8
1.8583678 0.17795806 0.16332985 95 10
1.8425608 0.17579626 -0.29315823 69 3
1.8556371 0.17638938 0.22887065 87 11
1.8359056 0.17419137 -0.22643325 89 4
1.8388088 0.17317082 -0.16158675 9 5
1.837428 0.17207028 -0.096716851 46 6
1.8357772 0.17094615 -0.032182239 11 7
1.8522676 0.16628838 0.032461476 100 8
1.864023 0.16635996 0.098077588 11 9
1.843688 0.16357216 0.16193536 90 10
1.8437432 0.16292848 -0.29315823 100 3
1.8607782 0.16377838 0.22935812 90 11
1.8371052 0.16104949 -0.22643325 89 4
1.8300487 0.15946539 -0.16071519 10 5
1.854503 0.16061799 -0.097554229 94 6
1.8349612 0.15763411 -0.032147333 11 7
1.8493975 0.15302324 0.032391667 50 8
1.849241 0.15171061 0.097240217 13 9
1.8490897 0.15137421 -0.36062902 0 2
1.8408396 0.15005112 0.16158675 92 10
1.8350174 0.1489318 -0.29159388 89 3
1.8381847 0.14822014 -0.22643325 91 4
1.8192012 0.14573079 -0.15966932 10 5
1.8456498 0.14655289 -0.097030871 100 6
1.8360169 0.14482071 -0.032147333 11 7
1.842469 0.13918282 0.032252047 90 8
1.8622053 0.1396932 0.097868249 13 9
1.8442521 0.13770002 -0.35948417 78 2
1.8398554 0.13704798 0.16141243 81 10
1.8241925 0.13524103 -0.28971666 89 3
1.853009 0.13672709 0.22813943 12 11
1.8431342 0.13567504 -0.22692074 89 4
1.8440109 0.13509247 0.29284537 46 12
1.8341072 0.13372332 -0.16088949 48 5
1.8386598 0.1330875 -0.096612185 100 6
1.8429668 0.13242932 -0.032252047 11 7
1.8433958 0.12631746 0.032252047 100 8
1.8511791 0.12587617 0.097240217 11 9
1.8412511 0.12455547 -0.35872093 38 2
1.8427553 0.12433415 0.16158675 15 10
1.8250923 0.12250248 -0.28971666 68 3
1.8558991 0.12391955 0.22838317 11 11
1.8281907 0.12174898 -0.22497083 89 4
1.8409669 0.1219544 0.29221961 62 12
1.8489126 0.12183259 -0.16210969 100 5
1.8275861 0.11946631 -0.095984153 100 6
1.83786 0.11917158 -0.032147333 12 7
1.836249 0.11295394 0.032112427 100 8
1.832077 0.11173449 0.096193492 12 9
1.8401161 0.11157925 -0.35833931 10 2
1.8356234 0.11098617 0.16088949 66 10
1.8180157 0.10928382 -0.2884652 15 3
1.8468112 0.11036783 0.22716448 10 11
1.8171068 0.10827439 -0.2235084 91 4
1.853605 0.10979991 0.29409683 17 12
1.815906 0.10693073 -0.15914638 87 5
1.836351 0.1071699 -0.096402846 100 6
1.8446361 0.10668436 -0.032252047 24 7
1.8409864 0.10034855 0.032182239 100 8
1.8213344 0.098959431 -0.42110837 64 1
1.8447787 0.099586554 0.096821532 13 9
1.8271272 0.097994089 -0.35566798 9 2
1.8363535 0.098167516 0.16088949 100 10
1.8325424 0.09732233 -0.29065526 10 3
1.8515012 0.097682007 0.22765194 9 11
1.8178184 0.095585957 -0.2235084 86 4
1.8345995 0.095827125 0.29096815 10 12
1.8205878 0.094457172 -0.159495 50 5
1.8390491 0.094449572 -0.096507512 100 6
1.8336524 0.087114029 0.032042619 100 8
1.8180878 0.086057425 -0.42020854 100 1
1.8454289 0.086705148 0.096821532 13 9
1.8316889 0.085419722 -0.35643122 9 2
1.8330137 0.085160032 0.16054088 100 10
1.8252842 0.084163338 -0.2894038 10 3
1.8442061 0.084389873 0.226677 11 11
1.8251836 0.081923455 -0.15984364 12 5
1.8336778 0.081342757 -0.096193492 100 6
1.8239704 0.079955302 -0.031868093 100 7
1.8262236 0.07398767 0.031902999 100 8
1.80112 0.07265491 -0.41615945 91 1
1.8579633 0.074299231 0.097449563 30 9
1.8361641 0.072785571 -0.35719445 10 2
1.8295817 0.072204843 0.16019225 95 10
1.8159579 0.071032345 -0.28783944 11 3
1.8328487 0.071051449 0.22521456 13 11
1.8288938 0.07057935 -0.22472709 11 4
1.8357587 0.070201688 0.29096815 75 12
1.8077923 0.068501167 -0.15827483 12 5
1.8202299 0.068018094 -0.095460795 100 6
1.8129691 0.061409794 -0.4860622 48 0
1.8266956 0.061236426 0.031902999 100 8
1.7957402 0.059884962 -0.41480973 84 1
1.8344826 0.060535926 0.096193492 88 9
1.832703 0.059835948 -0.35643122 10 2
1.8260586 0.059300862 0.15984364 92 10
1.8085123 0.058098271 -0.28658798 19 3
1.8273478 0.058065753 0.22448336 18 11
1.8293419 0.057808671 -0.22472709 11 4
1.8362041 0.057384841 0.29096815 81 12
1.8122094 0.056001808 -0.15862344 13 5
1.8289064 0.054600913 -0.031937905 11 7
1.805629 0.048543718 -0.48399165 99 0
1.8310766 0.048588283 0.031972811 100 8
1.8000107 0.047449574 -0.41570953 82 1
1.8428468 0.047935087 0.096612185 12 9
1.8232629 0.04678886 -0.35452312 26 2
1.8343951 0.046754185 0.16054088 88 10
1.8266466 0.045918703 -0.2894038 100 3
1.8356466 0.045503821 0.22545831 37 11
1.8058871 0.044450756 -0.22180222 11 4
1.8326102 0.044468485 0.29034239 88 12
1.8205234 0.043538515 -0.1593207 12 5
1.8527902 0.043987531 0.3602474 47 13
1.815012 0.042455897 -0.095146775 13 6
1.8212465 0.041647673 -0.031798285 13 7
1.8273726 0.035725597 0.031902999 100 8
1.8041949 0.03495748 -0.41660935 84 1
1.8291583 0.034802467 0.09587948 17 9
1.8274711 0.034132268 -0.35528636 100 2
1.8326846 0.03390969 0.16036656 100 10
1.8130972 0.032914203 -0.28721371 100 3
1.8498129 0.032934848 0.22716448 21 11
1.8160772 0.03201716 -0.22302091 13 4
1.8249757 0.031536847 0.28909093 93 12
1.8088304 0.030626295 -0.15827483 16 5
1.8432372 0.030887077 0.35833931 58 13
1.8292432 0.030013917 -0.09587948 16 6
1.8134952 0.028805794 -0.031658668 14 7
1.8003358 0.023254273 -0.48243871 10 0
1.8102406 0.022434277 -0.41795903 90 1
1.8233652 0.02195953 0.095565468 15 9
1.8021443 0.021074839 -0.35032535 91 2
1.818931 0.020953661 0.15914638 95 10
1.799456 0.020101143 -0.28502363 86 3
1.8341179 0.019848071 0.22521456 13 11
1.8222115 0.019401172 -0.22375213 56 4
1.8291019 0.018836027 0.28971666 90 12
1.8090001 0.017997531 -0.15827483 100 5
1.8335921 0.017922159 0.35643122 81 13
1.8353995 0.017299131 -0.096193492 17 6
1.8076531 0.016091106 -0.03155395 13 7
1.8023543 -0.015099722 -0.48295635 9 0
1.7996573 -0.015705371 0.03141433 52 8
1.786924 -0.015906151 -0.41256022 90 1
1.8234195 -0.016867556 0.095565468 23 9
1.8021845 -0.017300261 -0.35032535 11 2
1.8129879 -0.017720426 0.15862344 11 10
1.7876244 -0.018096577 -0.28314641 91 3
1.82023 -0.019062098 0.2235084 11 11
1.8043467 -0.019210719 -0.22155848 72 4
1.8211874 -0.020025807 0.2884652 90 12
1.806981 -0.020500429 -0.15810052 100 5
1.8257055 -0.021031545 0.35490477 11 13
1.8153806 -0.021546384 -0.095146775 100 6
1.7886838 -0.027474372 -0.47933289 11 0
1.8095012 -0.028425913 0.031588856 93 8
1.8062544 -0.028690241 -0.41705924 35 1
1.8172663 -0.029499661 0.095251448 22 9
1.798094 -0.029816259 -0.34956211 10 2
1.81282 -0.030376932 0.15862344 54 10
1.7953548 -0.030711148 -0.2843979 89 3
1.816083 -0.031699844 0.22302091 14 11
1.8091528 -0.032526448 0.28658798 30 12
1.7908574 -0.032822847 -0.15670602 100 5
1.8372917 -0.033994671 0.35719445 11 13
1.813189 -0.034181856 -0.095042109 100 6
1.8093848 -0.035057876 -0.031588856 100 7
1.771066 -0.039572578 -0.47467417 9 0
1.8152562 -0.041193925 0.03169357 100 8
1.7962689 -0.041076716 -0.41480973 86 1
1.8349866 -0.042602971 0.096193492 41 9
1.8096181 -0.042646017 -0.35185182 10 2
1.8105719 -0.042984676 0.15844914 100 10
1.7852226 -0.043006375 -0.28283355 95 3
1.8316933 -0.044765621 0.22497083 12 11
1.8058871 -0.044450302 -0.22180222 15 4
1.8009826 -0.044958636 0.28533649 45 12
1.7826253 -0.0448117 -0.15600878 100 5
1.8232712 -0.046470299 0.35452312 14 13
1.8149028 -0.046890952 -0.095146775 100 6
1.803099 -0.047530726 -0.031484142 100 7
1.7765396 -0.052105792 -0.47622705 11 0
1.7949455 -0.052959185 0.031344522 100 8
1.7784075 -0.053092565 -0.41076064 100 1
1.8186831 -0.054612663 0.095356122 100 9
1.8033988 -0.054783773 -0.35070693 11 2
1.8042532 -0.05544012 0.1579262 100 10
1.7829142 -0.055095896 -0.28252068 78 3
1.8095208 -0.056550354 0.22228971 15 11
1.8154533 -0.057370089 -0.22302091 13 4
1.7927372 -0.056965448 0.28408504 88 12
1.7862519 -0.057383519 -0.15635739 100 5
1.8091668 -0.058751848 0.35185182 15 13
1.8067204 -0.060250767 -0.03155395 100 7
1.8012415 -0.065104149 -0.48295635 48 0
1.7985287 -0.065634727 0.03141433 100 8
1.7721626 -0.06498225 -0.40941092 87 1
1.8202536 -0.067381911 0.095460795 100 9
1.8049344 -0.06744574 -0.35108855 9 2
1.8117981 -0.068018883 0.15862344 100 10
1.7824862 -0.06754154 -0.28252068 81 3
1.7971801 -0.068726569 0.22082727 20 11
1.7951844 -0.068964027 -0.22058353 14 4
1.812035 -0.070244819 0.28721371 91 12
1.7858077 -0.069852419 -0.15635739 100 5
1.8263807 -0.071758695 0.35528636 19 13
1.7901354 -0.070960462 -0.093890712 15 6
1.8102645 -0.072707735 -0.031623758 100 7
1.7814425 -0.076844946 -0.47777998 100 0
1.7980266 -0.078189127 0.03141433 100 8
1.7677721 -0.077182591 -0.40851113 84 1
1.8037761 -0.079385415 0.094623417 100 9
1.8004969 -0.079870805 -0.35032535 10 2
1.8132696 -0.080754511 0.15879777 97 10
1.7780243 -0.079806745 -0.28189492 89 3
1.7787948 -0.080774598 -0.21863361 17 4
1.8036071 -0.082532205 0.28596222 96 12
1.7912475 -0.08259321 -0.15688033 42 5
1.8121071 -0.083871983 0.35261503 13 13
1.7935867 -0.083642215 -0.094100058 18 6
1.7977279 -0.084778704 -0.03141433 100 7
1.7750744 -0.088989593 -0.47622705 100 0
1.7730289 -0.08981777 -0.40986085 96 1
1.803178 -0.091976106 0.094623417 100 9
1.7900921 -0.091935113 -0.34841725 22 2
1.8007231 -0.092796229 0.15775189 97 10
1.7853148 -0.092627048 -0.28314641 81 3
1.8099221 -0.094537243 0.22253343 87 11
1.7920641 -0.093918107 -0.22033979 17 4
1.802987 -0.095121637 0.28596222 99 12
1.7727209 -0.094145402 -0.15531152 77 5
1.8291217 -0.097460873 0.3560496 15 13
1.8049253 -0.096803464 -0.09472809 18 6
1.7831149 -0.096570052 -0.031169999 65 7
1.766695 -0.1009389 -0.47415653 89 0
1.7947634 -0.10317112 0.031379428 20 8
1.778195 -0.10253008 -0.41121054 87 1
1.8064797 -0.10479365 0.094832763 97 9
1.7920754 -0.10489957 0.15705465 97 10
1.7727928 -0.10439182 -0.28126919 83 3
1.8012915 -0.10670093 0.22155848 87 11
1.7913648 -0.10642668 -0.22033979 15 4
1.8062228 -0.10794213 0.28658798 91 12
1.7740091 -0.10663848 -0.15548584 100 5
1.802212 -0.10928088 -0.094623417 14 6
1.7684256 -0.10816155 -0.030925665 13 7
1.7620914 -0.11302288 -0.47312123 91 0
1.7979904 -0.1159557 0.031449236 21 8
1.7657679 -0.11418708 -0.40851113 82 1
1.8216485 -0.11843928 0.095670134 23 9
1.786675 -0.1167917 -0.34803563 91 2
1.7912993 -0.11740797 0.15705465 34 10
1.7680786 -0.11650584 -0.28064346 86 3
1.8044643 -0.11953606 0.22204597 82 11
1.7985011 -0.11945632 -0.22131474 17 4
1.8093672 -0.12081241 0.28721371 88 12
1.7712336 -0.11888727 -0.15531152 100 5
1.7834709 -0.1206467 -0.093681373 12 6
1.8015436 -0.12281692 -0.031519048 31 7
1.7708943 -0.1260073 -0.47570941 80 0
1.7971371 -0.12850511 0.031449236 21 8
1.7610401 -0.12623292 -0.40761131 87 1
1.8088248 -0.13029283 0.095042109 18 9
1.7936486 -0.12982903 -0.34956211 91 2
1.8023591 -0.13077573 0.15810052 17 10
1.7632818 -0.12855913 -0.28001773 89 3
1.7917069 -0.13126034 0.22058353 22 11
1.7936637 -0.13171843 -0.22082727 63 4
1.8084795 -0.13344114 0.28721371 86 12
1.7783083 -0.13183902 -0.15600878 100 5
1.7945354 -0.13398689 -0.094309397 18 6
1.7796013 -0.13912013 -0.47829759 40 0
1.8041705 -0.14167446 0.031588856 23 8
1.7659441 -0.13898283 -0.40896103 32 1
1.7879605 -0.14134355 0.093995392 22 9
1.7809558 -0.14141536 -0.3472724 54 2
1.7954439 -0.14288113 0.15757757 15 10
1.7702179 -0.14149548 -0.28126919 86 3
1.8006406 -0.1445598 0.22180222 18 11
1.7689562 -0.14232685 -0.21790241 100 4
1.7956902 -0.14510868 0.28533649 88 12
1.7773445 -0.14425065 -0.15600878 100 5
1.7875844 -0.14602393 -0.093995392 18 6
1.7876952 -0.14697531 -0.031309616 100 7
1.7991526 -0.15392546 0.031519048 20 8
1.7726973 -0.15197377 -0.41076064 13 1
1.79091 -0.1541649 0.094204731 38 9
1.7838372 -0.15418339 -0.34803563 14 2
1.7805079 -0.15420869 0.15635739 14 10
1.7731228 -0.15419267 -0.28189492 86 3
1.7995875 -0.15712699 0.22180222 13 11
1.7817621 -0.15588397 -0.21960858 86 4
1.7847944 -0.15677707 0.28377217 64 12
1.7683554 -0.15595512 -0.15531152 100 5
1.7984581 -0.15955898 -0.094623417 24 6
1.7746749 -0.1583855 -0.031100187 100 7
1.7900695 -0.1657446 0.031379428 20 8
1.7657719 -0.16380571 -0.40941092 11 1
1.776853 -0.1660849 -0.34689078 12 2
1.7754205 -0.16626358 0.15600878 17 10
1.7680697 -0.16619779 -0.28126919 78 3
1.8023993 -0.17005952 0.22228971 13 11
1.7865298 -0.16919139 -0.22033979 23 4
1.7553231 -0.16716337 -0.15426566 100 5
1.7794069 -0.17039709 -0.093681373 74 6
1.7754866 -0.17127267 -0.031135093 100 7
1.7908585 -0.17843577 0.03141433 27 8
1.749042 -0.17488593 -0.40581173 11 1
1.8024626 -0.18086292 0.094937436 100 9
1.7756503 -0.17848551 -0.34689078 12 2
1.7801324 -0.17956375 0.15653172 19 10
1.7873434 -0.18123655 0.22058353 18 11
1.785305 -0.18165949 -0.22033979 18 4
1.7620414 -0.18022454 -0.15496291 100 5
1.7801287 -0.1833304 -0.093786038 22 6
1.7802148 -0.18428133 -0.031239808 100 7
1.7676637 -0.18890876 0.031030379 77 8
1.7516538 -0.187507 -0.40671152 11 1
1.7872552 -0.19194901 0.094204731 100 9
1.7782316 -0.19160782 -0.34765401 12 2
1.7887398 -0.19305591 0.15740328 28 10
1.7675073 -0.1913885 -0.28158206 15 3
1.7998152 -0.19552249 0.22228971 100 11
1.7682059 -0.19240089 -0.21838988 16 4
1.7646677 -0.19326256 -0.15531152 100 5
1.7708642 -0.19487958 -0.093367353 19 6
1.7888228 -0.19780388 -0.03141433 100 7
1.7782229 -0.20260289 0.031239808 17 8
1.7503022 -0.19973119 -0.40671152 11 1
1.7858716 -0.20442162 0.094204731 100 9
1.7709993 -0.20334558 -0.34650916 14 2
1.7853693 -0.20531125 0.15722896 100 10
1.7661282 -0.20372327 -0.28158206 12 3
1.7865745 -0.20671374 0.22082727 42 11
1.7628759 -0.20428348 -0.21790241 17 4
1.7652545 -0.20580816 -0.15548584 47 5
1.7694607 -0.20723769 -0.093367353 21 6
1.7754824 -0.20888542 -0.031204903 100 7
1.7847059 -0.21597314 0.031379428 18 8
1.7566034 -0.21288346 -0.40851113 40 1
1.7863836 -0.21712528 0.094309397 100 9
1.7740037 -0.21656321 0.15635739 100 10
1.7646629 -0.21604811 -0.28158206 17 3
1.7594365 -0.21634336 -0.21765867 18 4
1.7519108 -0.21665962 -0.15443997 17 5
1.781845 -0.22130893 -0.094100058 18 6
1.7640593 -0.22003786 -0.031030379 100 7
1.7811712 -0.22817329 0.031344522 18 8
1.7608732 -0.22588544 -0.40986085 100 1
1.7828434 -0.22933638 0.094204731 100 9
1.7563047 -0.22654581 -0.34421945 87 2
1.7665207 -0.22817701 0.15583447 93 10
1.7591938 -0.22785495 -0.28095633 20 3
1.7657572 -0.22964521 -0.21863361 18 4
1.7444288 -0.22810988 -0.15391703 19 5
1.7782763 -0.23348306 -0.093995392 19 6
1.766445 -0.23287053 -0.031100187 100 7
1.7775531 -0.24033462 0.031309616 23 8
1.7457354 -0.23634297 -0.40671152 46 1
1.7910943 -0.24312049 0.09472809 100 9
1.7663523 -0.24038999 -0.34650916 93 2
1.7767295 -0.24211811 0.15688033 62 10
1.7614743 -0.24066557 -0.28158206 91 3
1.7700109 -0.24277607 -0.21936484 42 4
1.7645047 -0.24327597 -0.15583447 20 5
1.7726461 -0.2453443 -0.093786038 13 6
1.7560346 -0.24992068 0.030960569 23 8
1.7755132 -0.25364152 0.093995392 100 9
1.7685179 -0.25327212 -0.3472724 91 2
1.7480197 -0.25127065 -0.27970487 100 3
1.768273 -0.25512707 -0.21936484 100 4
1.7607915 -0.25530264 -0.15566015 66 5
1.7669373 -0.2571384 -0.093576699 18 6
1.766979 -0.2580893 -0.031169999 21 7
1.7680912 -0.26424298 0.031204903 22 8
1.7717239 -0.26573437 0.093890712 100 9
1.7628237 -0.26502869 -0.34650916 96 2
1.7442696 -0.26317319 -0.279392 83 3
1.7468216 -0.26449379 -0.21692745 94 4
1.7471479 -0.26579103 -0.15461428 88 5
1.7631247 -0.26916614 -0.093472026 22 6
1.7631575 -0.27011594 -0.031135093 84 7
1.778057 -0.27843627 0.03141433 25 8
1.7678525 -0.27778673 0.093786038 100 9
1.7531732 -0.27610725 -0.34498268 96 2
1.7462921 -0.27596065 -0.28001773 83 3
1.752775 -0.27792591 -0.21790241 100 4
1.7472174 -0.27829525 -0.1547886 100 5
1.7434585 -0.27956891 -0.030820949 100 7
1.764179 -0.28921154 0.031204903 21 8
1.7511525 -0.28864551 -0.34498268 99 2
1.7657106 -0.29199487 -0.28345928 18 3
1.754658 -0.29111105 -0.21838988 100 4
1.7314242 -0.28849855 -0.15356842 100 5
1.7630832 -0.29472262 -0.093681373 100 6
1.749302 -0.2933605 -0.030960569 100 7
1.7502906 -0.29949707 0.030995475 18 8
1.7490947 -0.30086377 -0.34498268 96 2
1.7480563 -0.30162758 -0.28095633 16 3
1.7564949 -0.30403081 -0.21887736 100 4
1.7372198 -0.30194378 -0.15426566 100 5
1.7570475 -0.30633789 -0.093472026 100 6
1.7550905 -0.30694368 -0.031100187 97 7
1.7422512 -0.31065595 0.030890759 77 8
1.7508165 -0.31375989 -0.34574592 93 2
1.7459081 -0.31382385 -0.28095633 16 3
1.742553 -0.31447679 -0.21741492 100 4
1.7389904 -0.31477416 -0.15461428 75 5
1.7470056 -0.31716979 -0.093053341 100 6
1.7567837 -0.32021204 -0.031169999 100 7
1.7636336 -0.32718858 0.031309616 35 8
1.7447236 -0.32525557 -0.34498268 83 2
1.7436178 -0.32630914 -0.28095633 16 3
1.7442173 -0.32736674 -0.21790241 86 4
1.7406666 -0.32764393 -0.15496291 22 5
1.7446913 -0.32966286 -0.093053341 100 6
1.7525407 -0.33209646 -0.031135093 100 7
1.746206 -0.33847928 -0.34574592 50 2
1.7412971 -0.33847389 -0.28095633 16 3
1.7457862 -0.3402952 -0.21838988 25 4
1.7304564 -0.33856118 -0.15426566 22 5
1.7501869 -0.34337297 -0.093472026 83 6
1.7403692 -0.34239325 -0.030960569 100 7
1.7350188 -0.34984115 -0.2803306 16 3
1.7492052 -0.35365483 -0.2191211 25 4
1.7241454 -0.34984127 -0.15391703 22 5
1.7457898 -0.35518494 -0.093367353 20 6
1.7477331 -0.35653338 -0.031135093 100 7
1.7228661 -0.35992548 -0.27876624 18 3
1.760294 -0.36870661 -0.22082727 100 4
1.7275103 -0.36309892 -0.15443997 25 5
1.7471764 -0.36818779 -0.093576699 27 6
1.7432449 -0.36831269 -0.031100187 49 7
1.7183806 -0.37152705 -0.27845338 20 3
1.7266364 -0.37425843 -0.21692745 94 4
1.7268802 -0.37557366 -0.15461428 20 5
1.7406605 -0.37952536 -0.093367353 35 6
1.7273117 -0.3860999 -0.2803306 19 3
1.7278557 -0.38717151 -0.21741492 100 4
1.7319916 -0.38936839 -0.15531152 23 5
1.7282265 -0.38947266 -0.092843994 78 6
1.7495959 -0.40392601 -0.2843979 100 3
1.7289786 -0.40011981 -0.21790241 100 4
1.7253495 -0.40054923 -0.15496291 22 5
1.7468636 -0.40650788 -0.093995392 84 6
1.7179095 -0.40926376 -0.27970487 100 3
1.7337942 -0.41432735 -0.21887736 100 4
1.7147609 -0.41072819 -0.15426566 27 5
1.7091819 -0.42013165 -0.27876624 78 3
1.7347142 -0.427371 -0.21936484 100 4
1.7099174 -0.4222118 -0.15409136 74 5
1.7272716 -0.4373877 -0.28220782 23 3
1.7162955 -0.43556467 -0.21741492 100 4
1.7165065 -0.43689397 -0.15496291 87 5
1.7132128 -0.44753596 -0.21741492 100 4
1.7138007 -0.46081477 -0.21790241 100 4
1.7181953 -0.47488341 -0.21887736 100 4
1.7377535 -0.49337292 -0.22180222 41 4
