# .PCD v0.7 - Point Cloud Data file format
VERSION 0.7
FIELDS x y z intensity ring
SIZE 4 4 4 4 2
TYPE F F F F U
COUNT 1 1 1 1 1
WIDTH 1298
HEIGHT 1
VIEWPOINT 0 0 0 1 0 0 0
POINTS 1298
DATA ascii
4.6234274 -9.7986336 -1.3303258 11 4
6.5515814 -13.897628 2.4334948 6 12
4.6607213 -9.8955688 -0.95697004 11 5
5.7005329 -12.108764 2.60149 33 13
4.7051721 -10.00353 -0.57935911 14 6
5.8605137 -12.471173 3.1812577 13 14
4.7575274 -10.128607 -0.19532733 10 7
6.2160683 -13.245806 3.9205911 3 15
1.9938062 -4.2776804 -1.2645899 11 0
4.7669644 -10.236779 0.19710748 21 8
2.3634055 -5.0775905 -1.2930186 12 1
4.6867437 -10.078295 0.58249921 16 9
2.8878314 -6.2156191 -1.3322284 9 2
4.8026438 -10.341681 0.99758458 8 10
3.598263 -7.7553382 -1.3540969 5 3
5.2203302 -11.261675 1.5240982 29 11
4.5457273 -9.8108587 -1.3276447 14 4
5.6619143 -12.231071 2.1347051 10 12
4.5739603 -9.8898916 -0.95330954 11 5
5.6323366 -12.183906 2.6091223 35 13
4.6234951 -10.01075 -0.57789367 13 6
5.853323 -12.685188 3.2253482 9 14
4.6707873 -10.127071 -0.19466414 10 7
4.8573608 -10.541272 3.1099699 20 15
1.9646981 -4.2932515 -1.2651075 9 0
4.4933324 -9.8278818 0.18862562 8 8
2.32547 -5.0886488 -1.2916689 11 1
4.5416136 -9.9472523 0.57307881 16 9
2.8476279 -6.2427731 -1.3337549 7 2
5.2122054 -11.431851 1.0992082 12 10
3.5415761 -7.7748766 -1.3531584 3 3
5.120204 -11.250868 1.5177609 19 11
4.4697261 -9.8260937 -1.3254511 12 4
5.1832709 -11.405283 1.984215 1 12
4.489233 -9.8827028 -0.94964898 10 5
5.4903455 -12.097786 2.5824091 41 13
4.545248 -10.024593 -0.57684696 14 6
5.6284828 -12.419442 3.147965 22 14
4.5900769 -10.137572 -0.19424528 12 7
4.8202791 -10.65589 3.1337812 20 15
1.9354694 -4.3086257 -1.2656252 10 0
4.522985 -10.073501 0.19274437 20 8
2.2859001 -5.09587 -1.2894194 12 1
4.531817 -10.10733 0.5805105 34 9
2.8066747 -6.265595 -1.3345182 7 2
5.0256515 -11.229727 1.0763733 9 10
3.4861531 -7.7933936 -1.3522196 5 3
5.0499825 -11.299958 1.5197108 30 11
4.3848343 -9.8208046 -1.3205763 19 4
5.4444366 -12.199739 2.1159329 0 12
4.4136381 -9.8992434 -0.94825441 9 5
5.3570256 -12.026425 2.5591304 30 13
4.4598475 -10.016983 -0.57464886 16 6
5.5701551 -12.522532 3.1641617 8 14
4.4972649 -10.12003 -0.19330285 11 7
4.7405767 -10.672565 3.1291223 26 15
1.9099948 -4.3305373 -1.2682134 9 0
4.4993157 -10.210967 0.19476886 12 8
2.2511611 -5.111311 -1.2894194 10 1
4.4917107 -10.208189 0.58448797 34 9
2.7628641 -6.2850366 -1.3345182 7 2
4.0714846 -9.2663107 0.88550234 2 10
3.4316611 -7.8175411 -1.3522196 7 3
5.086575 -11.598541 1.5550529 33 11
4.3035383 -9.8176985 -1.3161889 19 4
5.2347231 -11.953364 2.0668125 12 12
4.3380346 -9.9152117 -0.94685996 9 5
5.3474088 -12.228098 2.5942392 32 13
4.3826122 -10.031402 -0.57370681 14 6
5.5340466 -12.678993 3.193855 21 14
4.4370718 -10.17057 -0.19368681 11 7
4.5270171 -10.386627 3.0359476 6 15
1.88125 -4.3473125 -1.2692486 9 0
4.4072905 -10.194406 0.19386134 11 8
2.2161956 -5.1286912 -1.2898693 9 1
4.440125 -10.285141 0.5871048 19 9
2.7126994 -6.2897491 -1.3314652 7 2
4.0374546 -9.3658648 0.89230049 7 10
4.9874349 -11.59183 1.5494469 11 11
4.2254834 -9.8256207 -1.3132643 19 4
5.164403 -12.020472 2.0721312 15 12
4.2616353 -9.9287777 -0.94529116 11 5
5.1945701 -12.108164 2.5610385 38 13
4.3053927 -10.045231 -0.57276475 16 6
5.5067611 -12.860632 3.2298472 16 14
4.3486514 -10.160854 -0.19291891 14 7
4.4270535 -10.354033 3.0173128 16 15
1.8463252 -4.3496704 -1.2661428 9 0
4.3172755 -10.18074 0.19302362 16 8
2.181097 -5.1458321 -1.2903192 10 1
4.3627639 -10.303013 0.58637214 37 9
2.6656632 -6.301302 -1.3299388 7 2
4.2528553 -10.058125 0.95540124 8 10
3.1376967 -7.4279671 -1.2771312 1 3
4.8924956 -11.593446 1.5450597 46 11
4.1513853 -9.8420763 -1.3115579 14 4
5.1570663 -12.23827 2.1034181 5 12
4.1839008 -9.9336853 -0.94302511 10 5
5.3345327 -12.677961 2.6736159 12 13
4.2320633 -10.067679 -0.57234609 14 6
5.4560828 -12.985849 3.2518923 10 14
4.2629056 -10.155932 -0.19225572 12 7
5.0696049 -12.089636 3.5126922 7 15
1.8136872 -4.3571033 -1.2645899 10 0
4.2601681 -10.239433 0.1935821 16 8
2.1511035 -5.1753297 -1.2939185 10 1
4.2626486 -10.260538 0.58228987 29 9
2.6309888 -6.3392463 -1.3341365 6 2
4.2710547 -10.301064 0.97562134 10 10
3.0757198 -7.4217806 -1.2724382 10 3
4.790688 -11.571455 1.5377475 28 11
4.0734692 -9.8488064 -1.3086332 19 4
5.0230818 -12.150777 2.0824559 27 12
4.1045623 -9.9387121 -0.94075906 11 5
5.2481399 -12.720339 2.6747606 2 13
4.1504931 -10.064863 -0.57056665 14 6
5.4283862 -13.17678 3.290134 12 14
4.18505 -10.168802 -0.19194156 11 7
5.6118827 -13.642472 3.9526844 2 15
1.786908 -4.376502 -1.2666605 10 0
4.1810284 -10.250408 0.19323304 18 8
2.1077337 -5.170002 -1.2889696 9 1
4.0884576 -10.038483 0.5680545 12 9
2.5844488 -6.3520041 -1.3329917 7 2
4.0822511 -10.03829 0.94808012 10 10
3.0141661 -7.4192801 -1.2683709 8 3
4.7060561 -11.595422 1.5365288 27 11
3.9966366 -9.8523922 -1.3054645 15 4
4.876554 -12.033595 2.0564878 16 12
4.027092 -9.9424133 -0.93849301 6 5
4.9876447 -12.326267 2.5846987 19 13
4.0666528 -10.060263 -0.56868255 14 6
5.3889413 -13.338097 3.3211775 6 14
4.1090016 -10.180364 -0.19162743 10 7
5.2593169 -13.043478 3.7684054 1 15
1.7541586 -4.3834891 -1.2651075 9 0
4.0220442 -10.055827 0.18904448 18 8
2.0672503 -5.1737332 -1.2862701 11 1
4.1363301 -10.357285 0.58448797 13 9
2.5389695 -6.3639784 -1.3318468 6 2
3.9862549 -10.001766 0.94197923 11 10
2.9592085 -7.4286141 -1.2664937 5 3
3.9138234 -9.8450041 -1.3008335 13 4
4.7587876 -11.976558 2.041157 15 12
3.9517038 -9.955471 -0.93709856 5 5
4.8638396 -12.265886 2.5648546 35 13
3.9907231 -10.069143 -0.56763583 14 6
5.1156306 -12.920609 3.208252 6 14
4.0312099 -10.192067 -0.19131328 10 7
6.0141559 -15.21329 4.3833594 11 15
1.728513 -4.4061184 -1.2682134 9 0
4.0363827 -10.299632 0.19309342 12 8
2.0355403 -5.1967568 -1.2885196 7 1
4.116322 -10.519827 0.59202439 11 9
2.4916203 -6.3742342 -1.3303204 6 2
3.9586842 -10.132591 0.95174068 10 10
2.9051211 -7.4435706 -1.2655549 28 3
3.8334694 -9.8424921 -1.2969337 14 4
4.8162313 -12.372128 2.1027923 5 12
3.8806608 -9.9791021 -0.93674988 11 5
4.8271427 -12.425815 2.5911863 28 13
3.9131005 -10.078139 -0.56658912 16 6
6.1507306 -15.857528 3.9267457 4 14
3.9462304 -10.184533 -0.19065009 11 7
5.6294332 -14.536117 4.1768217 12 15
1.6900135 -4.4003401 -1.263037 9 0
3.9013164 -10.163276 0.1900218 18 8
1.9983016 -5.2111893 -1.2885196 10 1
3.8337474 -10.008133 0.56166953 31 9
2.4414442 -6.3768058 -1.3272674 6 2
3.9245098 -10.26115 0.96115357 10 10
2.8433225 -7.4420252 -1.2618005 17 3
4.6575541 -12.196929 1.6030694 6 11
3.7646637 -9.8690138 -1.2969337 13 4
4.6656761 -12.243836 2.0752599 14 12
3.8009713 -9.9798851 -0.93430954 11 5
4.7933354 -12.598665 2.6201892 11 13
3.8430133 -10.111485 -0.56690317 26 6
5.1797037 -13.635666 3.3675172 6 14
3.8679392 -10.193138 -0.19030103 18 7
3.9236352 -10.350804 2.9660666 5 15
1.6578922 -4.4084153 -1.2620018 10 0
3.8587313 -10.271427 0.19152272 18 8
1.963927 -5.2304864 -1.2898693 11 1
3.7581749 -10.019692 0.56083214 39 9
2.4005723 -6.4069824 -1.3299388 7 2
3.8653543 -10.321884 0.9642911 9 10
2.7829928 -7.4394932 -1.2580462 35 3
3.6577928 -9.7884197 1.2830406 15 11
3.6963687 -9.8969145 -1.2971773 11 4
4.6201334 -12.383456 2.0934062 17 12
3.7151973 -9.9632397 -0.93030041 13 5
4.7175989 -12.664938 2.6270583 25 13
3.7542186 -10.089397 -0.56418169 17 6
4.5613418 -12.265076 3.0210927 9 14
3.6929235 -9.940589 -0.18510023 12 7
4.9219732 -13.263122 3.790664 8 15
1.6310802 -4.430759 -1.2651075 9 0
3.6810091 -10.004689 0.18607756 11 8
1.9199694 -5.2239494 -1.2849205 10 1
3.6733565 -10.000048 0.55832005 24 9
2.3596108 -6.4305458 -1.3314652 7 2
3.8117163 -10.399125 0.9689976 10 10
2.7282121 -7.4471345 -1.256169 33 3
4.6553073 -12.721225 1.663273 7 11
3.6203697 -9.9038353 -1.29474 11 4
4.529635 -12.397918 2.0905905 9 12
3.6394024 -9.9720879 -0.92873156 12 5
5.3633685 -14.711763 3.0437853 16 13
3.6820378 -10.105335 -0.5636583 16 6
4.4422789 -12.20506 2.9985976 3 14
3.7122612 -10.210442 -0.18963784 11 7
3.7310655 -10.267741 2.9272435 9 15
1.6035032 -4.4490285 -1.2671782 9 0
3.7160676 -10.321772 0.1914878 13 8
1.8837066 -5.2350631 -1.2844704 11 1
3.5798118 -9.9596643 0.55465651 21 9
2.3146601 -6.4468622 -1.3314652 7 2
3.5739541 -9.9597549 0.92576832 11 10
2.6721566 -7.4548416 -1.2542918 28 3
4.665421 -13.030012 1.6993462 25 11
3.5388284 -9.8889999 -1.2896215 14 4
4.3392439 -12.139062 2.0417829 7 12
3.5754621 -10.007888 -0.92977744 12 5
3.7579474 -10.530272 2.1733146 16 13
3.6013398 -10.102575 -0.56208825 14 6
3.3028438 -9.2703409 2.2720056 4 14
3.6373122 -10.220402 -0.18935861 14 7
3.6677043 -10.317202 2.9339728 16 15
1.5711199 -4.4564705 -1.2661428 10 0
3.6330972 -10.310992 0.19082463 11 8
1.850348 -5.2572775 -1.28672 10 1
3.6643689 -10.417142 0.57873106 53 9
2.2713752 -6.4643207 -1.3318468 9 2
3.5234718 -10.03898 0.93082333 25 10
2.6167741 -7.4598103 -1.2521017 30 3
4.1295938 -11.785669 1.5333602 7 11
3.4572444 -9.8778648 -1.2849904 12 4
3.7249401 -10.648676 1.7867948 3 12
3.5002503 -10.017558 -0.92838293 12 5
4.2018952 -12.039132 2.4786091 9 13
3.5226238 -10.098566 -0.56051815 16 6
3.2329144 -9.278451 2.2684064 30 14
3.552726 -10.207775 -0.18866052 11 7
5.2152047 -14.992874 4.2534323 23 15
1.5426389 -4.4725404 -1.2676958 10 0
3.5571175 -10.324761 0.19061519 12 8
1.8145206 -5.2697506 -1.28672 10 1
3.4278586 -9.9665251 0.55235374 12 9
2.2274668 -6.4837337 -1.3326101 9 2
3.4498808 -10.047656 0.92942882 16 10
2.5665543 -7.4835014 -1.2530402 8 3
3.6888766 -10.768191 1.3975978 0 11
3.3867123 -9.891778 -1.2837718 10 4
4.3958249 -12.853788 2.1515999 6 12
3.4216719 -10.010987 -0.92559397 11 5
4.2543254 -12.461341 2.5595119 17 13
3.4443014 -10.100229 -0.5592621 16 6
3.1413937 -9.2172375 2.2481608 15 14
3.4805849 -10.224148 -0.18852089 12 7
1.5119953 -4.4850311 -1.2682134 10 0
3.478456 -10.324099 0.19016142 13 8
1.7807944 -5.2915249 -1.2889696 8 1
3.3548465 -9.9744816 0.55151635 40 9
2.1882834 -6.5136337 -1.3356631 9 2
3.3790183 -10.069607 0.92925453 12 10
2.5237215 -7.5251451 -1.2571075 1 3
3.6186485 -10.802463 1.3988165 6 11
3.314424 -9.9057674 -1.2825531 12 4
4.5500455 -13.606548 2.2723672 19 12
3.3390756 -9.9968348 -0.92210776 14 5
3.9814508 -11.933898 2.4454083 33 13
3.3697863 -10.106385 -0.55832005 14 6
3.1219201 -9.3739128 2.2810037 13 14
3.3983915 -10.215941 -0.18792751 11 7
1.488687 -4.5172367 -1.274425 12 0
3.4031692 -10.338634 0.1899869 15 8
1.7380365 -5.2831607 -1.2840205 7 1
3.3580773 -10.219662 0.56376296 25 9
2.1403084 -6.5212903 -1.3341365 10 2
3.3271646 -10.143489 0.93396091 8 10
2.6888394 -8.2071095 -1.3678632 6 3
4.2722707 -13.055591 1.6866719 47 11
3.2438354 -9.9186649 -1.2813344 10 4
4.2157297 -12.905663 2.1503484 5 12
3.2690966 -10.013649 -0.92158478 14 5
3.9500358 -12.113776 2.4767008 37 13
3.3034778 -10.142959 -0.55905271 22 6
3.0308993 -9.3115587 2.2607579 14 14
3.3238304 -10.223623 -0.18764828 12 7
5.041729 -15.526068 4.374042 15 15
1.4553394 -4.5220027 -1.2728721 10 0
3.3284326 -10.348234 0.18974257 15 8
1.7017075 -5.2970204 -1.2844704 9 1
3.2670684 -10.175725 0.56009948 45 9
2.0958695 -6.5357075 -1.3341365 10 2
3.248368 -10.141803 0.93169487 11 10
2.4149096 -7.5441761 -1.2546046 1 3
4.1573105 -13.003064 1.6761911 25 11
3.1660581 -9.9145947 -1.277922 10 4
4.0761361 -12.77222 2.1234417 3 12
3.1942692 -10.021042 -0.92019033 12 5
4.0946712 -12.86129 2.6236238 11 13
3.2216434 -10.125242 -0.55685461 15 6
2.9209647 -9.1913433 2.2265656 29 14
3.2511649 -10.242766 -0.18757845 11 7
4.7963228 -15.119925 4.2503266 33 15
1.4202609 -4.5209942 -1.2697662 10 0
3.22616 -10.282111 0.18810204 17 8
1.6658527 -5.3124905 -1.2853703 11 1
3.14343 -10.036835 0.55120236 12 9
2.0478761 -6.5467906 -1.3333733 9 2
3.2113724 -10.272627 0.94163066 10 10
2.3879461 -7.6480012 -1.2689966 1 3
4.0848403 -13.098807 1.6847219 26 11
3.0944026 -9.9288759 -1.2769471 13 4
3.9206419 -12.595475 2.089339 15 12
3.1201124 -10.036032 -0.91949302 12 5
3.8032331 -12.240867 2.4915841 24 13
3.1443713 -10.132776 -0.55601728 13 6
3.1624196 -10.209819 -0.18656623 16 7
4.2826362 -13.843514 3.8828034 8 15
1.3858336 -4.5215645 -1.2671782 12 0
3.1455202 -10.275702 0.18757845 23 8
1.6327145 -5.3370357 -1.2885196 8 1
3.0557745 -10.001233 0.54806215 27 9
2.003267 -6.5646834 -1.3341365 9 2
3.1296973 -10.262398 0.93866736 11 10
2.5324895 -8.3145304 -1.3766234 5 3
3.9337876 -12.931394 1.6596169 36 11
3.0198138 -9.9331427 -1.2747533 12 4
3.9588754 -13.038376 2.1581702 10 12
3.0424564 -10.032784 -0.91722697 11 5
4.3895874 -14.484181 2.9418933 9 13
3.0718207 -10.148745 -0.55570322 18 6
4.6064916 -15.23821 3.6752505 14 14
3.0980067 -10.254619 -0.18698509 15 7
3.087657 -10.233266 2.8640919 8 15
1.35368 -4.5292778 -1.2666605 11 0
3.0931535 -10.36256 0.18876524 12 8
1.5926298 -5.3389668 -1.2862701 9 1
3.0936587 -10.38409 0.56784517 18 9
1.9607481 -6.5897985 -1.3364263 8 2
3.0403733 -10.224794 0.93326366 11 10
2.4552622 -8.2676239 -1.3659859 2 3
3.910023 -13.183112 1.6883781 19 11
2.9481375 -9.9463711 -1.2737786 13 4
3.8200951 -12.904696 2.1315763 18 12
2.9627907 -10.01505 -0.91374075 11 5
4.3250785 -14.638738 2.9670801 22 13
2.9941115 -10.146957 -0.55444717 13 6
4.5043149 -15.274819 3.6765997 6 14
3.0223858 -10.262568 -0.18674076 11 7
3.3900912 -11.525969 3.2191916 9 15
1.324728 -4.5478916 -1.2692486 11 0
3.0091324 -10.337294 0.18792751 20 8
1.552598 -5.3405991 -1.2840205 7 1
3.0195622 -10.393399 0.56721711 45 9
1.9169414 -6.6067638 -1.3371896 8 2
2.9971986 -10.343369 0.94215357 8 10
2.4016767 -8.2936325 -1.3675503 2 3
3.8113735 -13.178909 1.6844782 15 11
2.8775265 -9.9628954 -1.2732911 11 4
2.8883865 -10.020173 -0.9123463 11 5
4.1619473 -14.457273 2.9243388 29 13
2.9205573 -10.151746 -0.55360979 12 6
4.1333485 -14.386265 3.455698 9 14
2.9501145 -10.281498 -0.18670586 15 7
3.1896183 -11.12352 3.1006522 15 15
1.292686 -4.5530868 -1.2682134 12 0
2.9336181 -10.346506 0.18771808 20 8
1.5140852 -5.343544 -1.282221 7 1
2.901793 -10.254718 0.55852938 27 9
1.8777122 -6.644546 -1.3421506 7 2
2.9397194 -10.409548 0.94633704 18 10
2.3340657 -8.2759752 -1.3619186 7 3
3.7079744 -13.165071 1.6793597 17 11
2.7999632 -9.9478559 -1.2689037 11 4
3.8652449 -13.75104 2.2623556 14 12
2.8145931 -10.026667 -0.91112614 10 5
4.0607901 -14.475817 2.9224308 11 13
2.8479972 -10.166119 -0.55329579 13 6
4.0249391 -14.386621 3.4489496 25 14
2.8730636 -10.276304 -0.18625209 11 7
3.7540021 -13.445326 3.740453 7 15
1.2624124 -4.5675864 -1.2697662 10 0
2.8629115 -10.372517 0.18782279 5 8
1.4788159 -5.3614979 -1.2840205 5 1
2.7861097 -10.114904 0.54984158 18 9
1.8302382 -6.6537066 -1.3413873 7 2
2.8685596 -10.435579 0.94685996 6 10
2.273618 -8.2825432 -1.3603542 2 3
3.6117764 -13.175321 1.6774098 18 11
2.7320206 -9.9729052 -1.2696348 10 4
3.2390399 -11.839933 1.9441677 15 12
2.7471504 -10.055682 -0.91199768 9 5
2.7738032 -10.174191 -0.55266774 12 6
3.2112944 -11.795114 2.8222358 10 14
2.7981017 -10.284534 -0.18604267 10 7
3.1575878 -11.621851 3.2269559 6 15
1.2219669 -4.5445733 -1.2609664 9 0
2.7816126 -10.35942 0.18722942 10 8
1.4403409 -5.3679271 -1.2831209 5 1
2.8213971 -10.529596 0.57129937 39 9
1.7832346 -6.6644254 -1.3410057 6 2
2.7832854 -10.409158 0.94267654 4 10
2.2137024 -8.2905807 -1.3591028 1 3
3.1964793 -11.987989 1.5233669 21 11
2.6613078 -9.9878979 -1.2691474 10 4
3.6754117 -13.813212 2.2639198 11 12
2.6735213 -10.054893 -0.91025454 9 5
3.8970766 -14.677211 2.9518151 9 13
2.7037296 -10.197169 -0.55287707 12 6
3.0954974 -11.682953 2.7902927 13 14
2.7226534 -10.290285 -0.18579833 10 7
3.0709467 -11.623067 3.221262 17 15
1.1941186 -4.567946 -1.2651075 6 0
2.7150781 -10.393591 0.18750866 15 8
1.404798 -5.3853941 -1.2849205 4 1
2.7642689 -10.604606 0.57433486 15 9
1.7457435 -6.7068081 -1.3471116 6 2
2.7446301 -10.559461 0.9545297 4 10
2.1472878 -8.2672176 -1.3528454 1 3
3.4078476 -13.139319 1.6666852 18 11
2.5895245 -9.9985466 -1.2681725 9 4
3.4051099 -13.157105 2.1525385 6 12
2.6017656 -10.067526 -0.90973163 8 5
3.2254603 -12.498925 2.5091383 18 13
2.6307673 -10.201799 -0.55214435 12 6
2.9472845 -11.445735 2.7286563 22 14
2.6482575 -10.299359 -0.18562379 9 7
2.7533047 -10.715648 2.9645135 16 15
1.1563364 -4.5497551 -1.2578605 1 0
2.639009 -10.398725 0.18726432 10 8
1.365234 -5.3834977 -1.282221 4 1
2.5734818 -10.162841 0.54942292 24 9
1.6926221 -6.6940889 -1.3421506 6 2
2.7537117 -10.898556 0.98346537 9 10
2.084687 -8.2628527 -1.3497167 1 3
3.3058512 -13.122368 1.6615667 15 11
2.5184999 -10.004391 -1.26671 6 4
3.4470484 -13.713144 2.239516 12 12
2.5331776 -10.085002 -0.90973163 7 5
3.0758321 -12.263515 2.4576201 28 13
2.5478375 -10.173418 -0.54963231 4 6
2.8792439 -11.505231 2.7381043 15 14
2.5732439 -10.297746 -0.18527475 5 7
2.6905882 -10.783341 2.977972 25 15
1.1356516 -4.6027317 -1.2702839 1 0
2.5638564 -10.398973 0.18695019 8 8
1.3308783 -5.4061432 -1.2853703 3 1
2.521898 -10.251882 0.55329579 10 9
1.6493597 -6.7149873 -1.3440586 2 2
2.5888128 -10.555663 0.95086914 9 10
2.718204 -11.108382 1.4041786 15 11
2.446239 -10.012089 -1.2654914 5 4
3.225723 -13.212399 2.1541028 10 12
2.4584634 -10.085019 -0.90816277 6 5
2.672555 -10.979918 2.1965933 32 13
2.8075898 -11.561032 2.7466524 13 14
2.6216764 -10.820181 2.9831486 28 15
2.4907327 -10.414673 0.18691526 3 8
1.293596 -5.4131818 -1.2849205 3 1
2.3881521 -10.008914 0.53926975 7 9
1.6024401 -6.7263384 -1.3440586 2 2
2.4993708 -10.499387 0.94424528 6 10
3.1250687 -13.168632 1.6618105 13 11
2.3707049 -9.9976015 -1.2615916 2 4
3.0924449 -13.061596 2.1259446 8 12
2.3915958 -10.109275 -0.90886009 5 5
3.1248896 -13.229524 2.642323 37 13
2.7274914 -11.574183 2.7453027 18 14
2.4895232 -10.597496 2.9168906 12 15
2.3393509 -10.084647 0.18070221 2 8
1.2535754 -5.4125881 -1.2826709 1 1
2.310962 -9.986021 0.53717631 10 9
1.5530833 -6.7217875 -1.3410057 1 2
2.4631834 -10.677716 0.95871317 2 10
2.4824255 -10.786917 1.359087 17 11
2.5380292 -11.055012 1.7964935 10 12
2.2172439 -9.673233 -0.86824554 3 5
2.5279207 -11.046342 2.2026992 27 13
2.5472977 -11.157875 2.6422751 26 14
2.4061782 -10.565223 2.9034321 16 15
2.323674 -10.344618 0.18506531 3 8
1.2158506 -5.4171925 -1.2817712 1 1
2.3206735 -10.356615 0.55622661 6 9
1.5121189 -6.7592883 -1.3463483 1 2
2.4395566 -10.913954 0.97841036 2 10
2.4264848 -10.891175 1.3700553 11 11
2.5169301 -11.325072 1.8374794 10 12
2.1414158 -9.6433659 -0.8642363 4 5
2.4263279 -10.944456 2.1790388 21 13
2.4098556 -10.897151 2.5765893 10 14
2.3452511 -10.640247 2.9194789 13 15
1.1858585 -5.4617319 -1.2903192 0 1
1.4743859 -6.8077998 -1.3539807 1 2
2.3242564 -10.777428 1.3537248 8 11
2.3945031 -11.131442 1.8033768 11 12
2.3716736 -11.06287 2.1992648 24 13
2.3659124 -11.064257 2.6121316 17 14
2.1164184 -9.9228945 2.7186353 4 15
1.1566644 -5.5078206 -1.2993174 0 1
2.2550342 -10.82254 1.3573809 8 11
2.2998543 -11.066656 1.7902362 15 12
2.2481036 -10.846147 2.1530888 21 13
2.9031389 -14.05579 3.313529 5 14
2.0353982 -9.8806629 2.7031062 6 15
1.1181843 -5.5157614 -1.2993174 0 1
2.1504641 -10.694007 1.3393443 5 11
2.2097206 -11.018528 1.7799115 9 12
2.187731 -10.938582 2.1683536 15 13
2.0470555 -10.272501 2.4182239 7 14
1.9523178 -9.8060188 -0.17452405 10 7
1.9708886 -9.9173698 2.7093179 4 15
2.0772641 -10.716554 1.3403192 2 11
2.1713562 -11.233452 1.812137 5 12
2.069695 -10.737678 2.1256123 12 13
1.9624289 -10.219559 2.4024773 6 14
1.9008789 -9.9270926 2.7082827 6 15
1.9794585 -10.607856 1.3249637 1 11
2.0715616 -11.133757 1.7936778 3 12
2.047682 -11.037554 2.182092 6 13
1.9037837 -10.301997 2.4186738 4 14
1.8973403 -10.297297 2.8055985 3 15
1.8941371 -10.558891 1.3171639 2 11
2.0028248 -11.198504 1.8018124 5 12
1.9467974 -10.918218 2.15576 8 13
1.9510745 -10.986588 2.5761395 4 14
1.8099129 -10.222787 2.7817872 3 15
1.8439574 -10.708799 1.3342258 0 11
2.3944674 -13.949559 2.2417061 3 12
1.9086058 -11.154082 2.1996462 6 13
1.8507581 -10.861626 2.5437465 5 14
1.8779297 -11.056045 3.0048892 1 15
1.7736756 -10.748832 1.337638 0 11
2.2893286 -13.919156 2.2341974 3 12
1.8256088 -11.136137 2.1935403 7 13
1.8157507 -11.112453 2.5995345 4 14
1.9117519 -11.751514 3.1902037 0 15
1.8017845 -11.440621 1.8343508 0 12
1.7721467 -11.303776 2.2240696 5 13
1.7306079 -11.076724 2.5882869 2 14
1.663494 -10.683845 2.8972204 0 15
1.7353793 -11.542779 1.8487427 0 12
1.7105788 -11.41848 2.2442954 2 13
1.6474041 -11.036207 2.5761395 0 14
1.5758103 -10.607296 2.873409 0 15
1.881076 -13.118626 2.0990379 0 12
1.5917214 -11.156101 2.1904874 0 13
1.5574272 -10.95676 2.5549941 1 14
1.5274084 -10.786101 2.9189613 0 15
-1.9724587 -13.824626 2.7144489 1 13
-0.67530417 -4.6065269 -1.2475078 1 0
-0.77838582 -5.2903872 -1.2345314 0 1
-1.9377428 -12.934861 2.5423391 0 13
-2.0050993 -13.289479 3.6012082 0 15
-0.70429802 -4.5865479 -1.2433668 1 0
-0.81793916 -5.3080783 -1.2399302 1 1
-2.0570581 -13.166164 2.1106141 1 12
-2.0482445 -13.0649 2.5705791 1 13
-2.1053035 -13.38306 3.1277194 0 14
-0.73752707 -4.5891485 -1.2454373 2 0
-0.85218459 -5.2849236 -1.2358811 1 1
-1.2622268 -7.7760248 -1.2477214 1 3
-2.1511548 -13.121965 2.5846987 1 13
-2.2328405 -13.57571 3.1763089 0 14
-2.2447541 -13.603665 3.6943834 0 15
-0.77034438 -4.5935483 -1.2480254 2 0
-0.88943088 -5.2866874 -1.2376807 1 1
-1.0852234 -6.4230447 -1.2662085 1 2
-1.7570342 -10.388213 0.92175907 5 10
-1.3178024 -7.7748137 -1.2489729 1 3
-1.9258277 -11.302186 1.8158915 1 12
-2.2430699 -13.1225 2.5877516 2 13
-2.2896471 -13.338917 3.1245701 2 14
-0.80306029 -4.5918646 -1.2490608 3 0
-0.93002117 -5.3014631 -1.2426296 1 1
-1.1307194 -6.4191794 -1.2669718 1 2
-1.8488897 -10.485573 0.93152058 3 10
-1.3727362 -7.7693148 -1.2495986 1 3
-1.8725973 -10.576845 1.3188702 4 11
-1.9856867 -11.181493 1.7986836 2 12
-2.339103 -13.131648 2.5927126 0 13
-2.3213027 -12.979231 3.0440376 5 14
-1.898595 -10.583743 2.8811738 1 15
-0.83855885 -4.6051521 -1.2542372 5 0
-0.96735984 -5.2967582 -1.2430795 1 1
-1.1443474 -6.2411952 -1.2333894 2 2
-1.9058627 -10.384226 0.92367655 6 10
-1.4251555 -7.7498279 -1.2480342 2 3
-1.9665347 -10.67284 1.3325195 4 11
-2.4262564 -13.129272 2.1146812 2 12
-1.9341412 -10.445868 -0.92942882 2 5
-2.4765158 -13.362087 2.6415598 3 13
-2.3605268 -12.686824 2.9792516 5 14
-1.9309753 -10.348039 2.82061 1 15
-0.86529779 -4.570714 -1.2464726 4 0
-1.0090399 -5.3147645 -1.2489282 1 1
-1.1827458 -6.2060547 -1.2280468 6 2
-2.0320697 -10.652489 0.94877744 2 10
-1.4803373 -7.7455101 -1.2489729 3 3
-2.0484638 -10.697845 1.3373944 5 11
-1.9800806 -10.33096 -1.2915714 1 4
-2.7864416 -14.510706 2.34026 1 12
-2.0077727 -10.436024 -0.92977744 3 5
-2.5418973 -13.199884 2.6129384 4 13
-2.480473 -12.832669 3.0174935 6 14
-2.0171411 -10.406375 2.8402805 3 15
-0.89527285 -4.559031 -1.2449197 7 0
-1.0451925 -5.3077731 -1.2489282 3 1
-1.208212 -6.1131167 -1.2112557 6 2
-2.1219311 -10.726363 0.95662141 4 10
-1.5391686 -7.7662582 -1.2539788 2 3
-2.1803977 -10.991673 1.375905 2 11
-2.0542247 -10.336712 -1.2940087 1 4
-2.6475463 -13.297993 2.1475327 4 12
-2.0816147 -10.445927 -0.93186915 5 5
-2.6509037 -13.278541 2.6320195 9 13
-2.1104631 -10.552254 -0.56397235 6 6
-2.5521419 -12.749057 3.0017469 5 14
-2.7134302 -13.517985 3.6943834 0 15
-0.92589873 -4.5509381 -1.2444019 6 0
-2.2112513 -10.849263 0.19326794 7 8
-1.080907 -5.2986264 -1.2484783 4 1
-1.2529448 -6.1201377 -1.2143085 6 2
-2.2472856 -10.967362 0.97945625 8 10
-1.6047066 -7.8175216 -1.2639905 8 3
-2.1732669 -10.577959 1.3259385 4 11
-2.738801 -13.283532 2.1481583 7 12
-2.1583059 -10.458834 -0.93430954 6 5
-2.6986992 -13.05447 2.5911863 17 13
-2.1871002 -10.561113 -0.56522834 6 6
-2.5929818 -12.51004 2.9495583 9 14
-2.1961129 -10.567472 2.8920441 3 15
-0.9596408 -4.5577631 -1.2480254 7 0
-2.2875235 -10.8457 0.19347738 7 8
-1.1201687 -5.3064003 -1.2520776 3 1
-1.3368853 -6.311214 -1.2539968 9 2
-2.329324 -10.986894 0.98259377 8 10
-1.6574706 -7.8044858 -1.2636777 7 3
-2.4085684 -11.321712 1.4212404 6 11
-2.0814767 -9.7758017 -1.2272245 6 4
-2.529592 -11.860075 1.9207026 2 12
-2.2319415 -10.455591 -0.93535542 6 5
-2.7723048 -12.964765 2.5770664 21 13
-2.2660484 -10.579182 -0.56700778 11 6
-2.6829755 -12.514967 2.954957 5 14
-2.2828348 -10.612319 2.9086087 3 15
-0.99020255 -4.5452905 -1.2464726 7 0
-2.3595908 -10.822062 0.19333775 7 8
-1.1571864 -5.2984509 -1.2520776 3 1
-2.4242172 -11.090565 0.59495521 9 9
-1.3819121 -6.3115568 -1.2559049 12 2
-2.4516385 -11.178601 1.0012451 8 10
-1.7109792 -7.7949519 -1.2639905 7 3
-2.4945273 -11.345768 1.4263589 12 11
-2.1505277 -9.7649078 -1.2277118 3 4
-2.5873008 -11.738412 1.9038078 7 12
-2.3117533 -10.470883 -0.93814445 5 5
-2.8771615 -13.01027 2.5900414 9 13
-2.343616 -10.588864 -0.56836855 11 6
-2.7656415 -12.475002 2.9500082 9 14
-2.3755512 -10.697747 -0.19127838 7 7
-2.3717813 -10.671968 2.9293141 5 15
-1.0177259 -4.5233669 -1.2423315 6 0
-2.2614324 -10.034771 0.17955035 1 8
-1.1953689 -5.2999563 -1.2543271 3 1
-2.483099 -10.991548 0.59055901 14 9
-1.420742 -6.2787771 -1.2513254 12 2
-2.5430727 -11.229667 1.007346 6 10
-1.759238 -7.7558475 -1.2596104 8 3
-2.5683975 -11.304848 1.423434 11 11
-2.2195852 -9.7616577 -1.2291743 1 4
-2.7012074 -11.860665 1.9266472 4 12
-2.1876154 -9.5900803 -0.8605758 1 5
-3.4546106 -15.132161 3.017072 8 13
-2.4228256 -10.595609 -0.5696246 13 6
-2.4608221 -10.735906 -0.19225572 5 7
-2.5015585 -10.896157 2.9955716 8 15
-1.0519023 -4.527442 -1.2454373 6 0
-2.5335753 -10.887394 0.19511791 6 8
-1.2332238 -5.2952781 -1.255227 3 1
-2.5960698 -11.129547 0.59893274 14 9
-1.4591812 -6.2457647 -1.2467461 13 2
-2.5080061 -10.726623 0.96376818 3 10
-1.7768582 -7.5875864 -1.2342681 7 3
-2.6567769 -11.327227 1.4285525 13 11
-2.3012893 -9.8039017 -1.2364866 1 4
-2.7554631 -11.720373 1.9069364 2 12
-2.2435536 -9.5280294 -0.85639226 1 5
-3.2125263 -13.632451 2.7224629 0 13
-2.502702 -10.603705 -0.57098538 13 6
-3.0749373 -13.007908 3.0858786 6 14
-2.5361731 -10.72041 -0.19229062 7 7
-3.3761778 -14.248918 3.923697 2 15
-1.0803319 -4.5068378 -1.2418139 6 0
-2.6127896 -10.883051 0.19536224 11 8
-1.2601455 -5.2448535 -1.245329 3 1
-2.5989428 -10.80046 0.58218521 11 9
-1.4940096 -6.1991615 -1.2394953 11 2
-2.7299809 -11.31896 1.0186763 4 10
-1.8288575 -7.571156 -1.2336423 2 3
-2.8151419 -11.636407 1.4699881 6 11
-2.4659033 -10.185043 -1.2866967 2 4
-3.3045812 -13.628275 2.2210569 5 12
-2.3097656 -9.5183468 -0.8569153 6 5
-3.260329 -13.415104 2.683538 3 13
-2.5804465 -10.601501 -0.5718227 13 6
-3.1670978 -13.001822 3.0894778 1 14
-2.6161673 -10.723813 -0.19267458 6 7
-3.3490202 -13.707045 3.7808287 9 15
-1.1154767 -4.5141892 -1.2459549 7 0
-2.6882467 -10.870838 0.19546695 8 8
-1.2986046 -5.2434945 -1.2471286 3 1
-2.7694538 -11.174118 0.603329 9 9
-1.5314411 -6.1697946 -1.2356791 9 2
-2.7219374 -10.949655 0.98712587 6 10
-1.9208858 -7.7214737 -1.2602363 2 3
-3.1313546 -12.568522 1.590395 13 11
-2.5508835 -10.223435 -1.2937651 2 4
-3.3465409 -13.402313 2.1878927 9 12
-2.3863103 -9.5425797 -0.8605758 1 5
-3.4650319 -13.83575 2.7724547 7 13
-2.6491501 -10.570128 -0.57109004 8 6
-3.4361696 -13.690078 3.258641 6 14
-2.6934059 -10.714984 -0.19284908 2 7
-3.5435696 -14.086731 3.8921211 5 15
-1.1490346 -4.5177255 -1.2490608 7 0
-2.7764139 -10.900252 0.19633958 8 8
-1.3342654 -5.2345338 -1.2471286 3 1
-2.8533242 -11.177734 0.60458505 11 9
-1.5671833 -6.1304212 -1.2299548 12 2
-2.8289962 -11.058268 0.99863046 6 10
-1.9801368 -7.7289243 -1.2636777 2 3
-3.299437 -12.859775 1.6301244 6 11
-2.6248553 -10.22314 -1.2959588 2 4
-3.4144454 -13.27914 2.1716235 5 12
-2.4551802 -9.5415516 -0.86197025 1 5
-3.5713763 -13.859372 2.7819953 0 13
-2.5861359 -10.021486 -0.5424099 1 6
-3.5302486 -13.670145 3.2595408 2 14
-2.7757912 -10.733186 -0.19351228 6 7
-3.7091501 -14.321599 3.9640727 1 15
-1.1771215 -4.4965115 -1.2454373 6 0
-2.8591588 -10.913986 0.19693296 6 8
-1.3717659 -5.2288613 -1.2480285 3 1
-2.8948543 -11.02669 0.5974673 11 9
-1.6058798 -6.1082196 -1.2276652 7 2
-2.8848233 -10.957326 0.9913094 6 10
-2.0352156 -7.7248178 -1.2652421 7 3
-3.3828416 -12.821663 1.6281745 6 11
-2.6890631 -10.177697 -1.2925464 2 4
-3.4870801 -13.188749 2.1606731 9 12
-2.7058258 -10.219474 -0.92489672 1 5
-3.6906881 -13.919497 2.7991681 2 13
-2.8253684 -10.648425 -0.57737035 6 6
-3.5935705 -13.524629 3.230747 12 14
-2.8635073 -10.761858 -0.1943849 7 7
-3.6584218 -13.739711 3.8098164 12 15
-1.2021793 -4.467875 -1.2397434 7 0
-2.9342415 -10.889899 0.19686314 6 8
-1.4073253 -5.2194033 -1.2480285 3 1
-3.0071681 -11.137331 0.60458505 11 9
-1.6541207 -6.1177068 -1.2318629 6 2
-3.0920336 -11.427861 1.0357589 2 10
-2.0684319 -7.6341558 -1.2527274 5 3
-2.9145248 -10.74205 1.366643 5 11
-2.7608776 -10.168736 -1.2937651 2 4
-3.7438755 -13.77025 2.2601655 2 12
-2.6341002 -9.6817417 -0.87783265 1 5
-4.1450467 -15.214319 3.065156 9 13
-2.898587 -10.624588 -0.57716101 11 6
-3.6706614 -13.445337 3.2177 6 14
-2.942497 -10.763335 -0.19476886 6 7
-3.6915116 -13.484652 3.7461472 6 15
-1.2348864 -4.4649587 -1.2412962 9 0
-3.0109658 -10.87931 0.19703768 7 8
-1.4411269 -5.2000608 -1.2457789 3 1
-3.0450106 -10.979956 0.59715331 13 9
-1.7130592 -6.1687312 -1.2444563 7 2
-3.1503887 -11.329214 1.0287864 4 10
-2.1251132 -7.6370273 -1.2555431 3 3
-3.5577025 -12.768066 1.6274434 6 11
-2.7048292 -9.6941433 -1.2357552 3 4
-4.0314126 -14.4389 2.3743625 8 12
-2.6243756 -9.3868084 -0.85273176 2 5
-3.7224128 -13.296338 2.6839194 4 13
-2.9746094 -10.618074 -0.57789367 13 6
-3.794966 -13.528209 3.2437942 5 14
-3.017565 -10.742532 -0.19476886 6 7
-3.892993 -13.849766 3.854851 5 15
-1.2615559 -4.4434409 -1.2376727 7 0
-3.1032479 -10.915729 0.19808482 5 8
-1.4743558 -5.1826339 -1.2439793 3 1
-3.0756276 -10.797079 0.58836091 19 9
-1.7587758 -6.1660614 -1.2463645 10 2
-3.1858704 -11.161901 1.0155387 4 10
-2.1897774 -7.6618915 -1.2621135 8 3
-3.6473 -12.744826 1.6276871 15 11
-2.8822374 -10.064817 -1.2854779 4 4
-3.5075896 -12.232418 2.015502 6 12
-3.0289044 -10.556096 -0.96080488 6 5
-3.9082458 -13.60279 2.7510841 14 13
-3.0624702 -10.645035 -0.5805105 11 6
-3.9899299 -13.859748 3.3297255 9 14
-3.1028023 -10.764015 -0.19553676 5 7
-3.9601226 -13.720164 3.8263807 8 15
-1.2903838 -4.4271069 -1.2356021 9 0
-3.1825149 -10.911632 0.19839896 7 8
-1.5143255 -5.1853089 -1.2471286 4 1
-3.2286036 -11.048119 0.60322434 16 9
-1.7621109 -6.0220494 -1.2196511 9 2
-3.2457893 -11.078202 1.0099607 4 10
-2.2602184 -7.7093639 -1.2724382 7 3
-3.6506526 -12.435902 1.59137 5 11
-2.9328396 -9.9777927 -1.2769471 1 4
-3.7011356 -12.583489 2.07745 6 12
-3.1115322 -10.565273 -0.9635939 4 5
-3.1450305 -10.658422 -0.58239454 13 6
-4.0120492 -13.579256 3.2689886 6 14
-3.1875174 -10.774689 -0.19613016 8 7
-4.0260019 -13.600272 3.8004992 2 15
-1.3166155 -4.4052644 -1.2319787 9 0
-3.2700806 -10.927462 0.19909707 7 8
-1.5456727 -5.1618128 -1.2439793 4 1
-3.332612 -11.115227 0.60814387 14 9
-1.8430598 -6.1393452 -1.2459828 11 2
-3.3062184 -11.006241 1.0054286 7 10
-2.3412948 -7.7841954 -1.2874558 2 3
-4.0784745 -13.551284 1.7376132 10 11
-2.9703312 -9.856863 -1.2640289 3 4
-3.7763412 -12.515739 2.0705669 4 12
-3.008312 -9.964015 -0.91060323 9 5
-4.0562263 -13.417941 2.7247527 1 13
-3.1904337 -10.540627 -0.57716101 8 6
-4.1258516 -13.622506 3.2860851 1 14
-3.2741306 -10.796757 -0.19693296 5 7
-3.4184179 -11.265477 3.1544867 10 15
-1.3420446 -4.3814235 -1.2278377 9 0
-3.3514216 -10.927891 0.19951591 10 8
-1.5802001 -5.1493096 -1.2435294 5 1
-3.4469101 -11.21829 0.61505222 14 9
-1.8917329 -6.1491752 -1.2505622 21 2
-3.3957136 -11.031086 1.0097864 6 10
-2.3965526 -7.7756295 -1.2887073 3 3
-4.1998706 -13.618057 1.7498002 8 11
-3.0478985 -9.8705587 -1.2684163 4 4
-3.8947024 -12.597317 2.0884004 0 12
-3.0648775 -9.9071426 -0.90729129 19 5
-4.5784755 -14.781534 3.0079131 20 13
-3.1029649 -10.005514 -0.54900426 30 6
-4.156683 -13.39496 3.2379456 6 14
-3.3570383 -10.804775 -0.19749144 6 7
-3.4967411 -11.247482 3.1560395 8 15
-1.3712579 -4.3703437 -1.22732 7 0
-3.4281242 -10.912457 0.19965553 10 8
-1.6082006 -5.1161256 -1.2381306 5 1
-3.427856 -10.891652 0.59840941 16 9
-1.9258749 -6.111814 -1.2456012 9 2
-3.4797068 -11.03622 1.0124011 5 10
-2.4422884 -7.7365322 -1.2849529 3 3
-4.2463818 -13.435088 1.7300574 6 11
-3.1269138 -9.8812132 -1.2725598 4 4
-3.1508255 -9.9386816 -0.91217202 10 5
-4.229558 -13.325186 2.7175019 9 13
-3.3825984 -10.650407 -0.58563942 9 6
-3.8615212 -12.143638 2.94191 9 14
-3.4402745 -10.805847 -0.19794521 7 7
-5.2909331 -16.608709 4.6706491 7 15
-1.4019043 -4.3585806 -1.2268023 9 0
-3.5158639 -10.924425 0.20031872 7 8
-1.6411835 -5.0933576 -1.2354312 6 1
-3.5713189 -11.070229 0.60960931 11 9
-1.9600524 -6.0720639 -1.2402586 9 2
-3.4201183 -10.582578 0.97300667 1 10
-2.4963706 -7.7150979 -1.284327 3 3
-3.5170584 -10.863091 1.401985 6 11
-3.2074516 -9.8950214 -1.2771908 3 4
-4.2086263 -12.968224 2.1594217 6 12
-3.4262767 -10.551263 -0.97056633 7 5
-4.4821229 -13.786371 2.8178673 6 13
-3.4723256 -10.66771 -0.58794218 9 6
-3.9787936 -12.216441 2.9662046 15 14
-3.5311277 -10.829095 -0.1988178 7 7
-4.4186063 -13.534746 3.8149929 8 15
-1.4304856 -4.3431821 -1.2252494 7 0
-3.6196229 -10.976851 0.20174982 8 8
-1.6809754 -5.0947304 -1.2385805 6 1
-3.6171935 -10.950203 0.60437566 14 9
-1.9837266 -5.9982352 -1.2280468 10 2
-3.5558817 -10.745704 0.99026352 6 10
-2.5532768 -7.7068582 -1.2858914 3 3
-3.6471987 -10.995915 1.4224591 7 11
-3.2758286 -9.8705044 -1.2769471 3 4
-4.555059 -13.708987 2.2880106 8 12
-3.5073507 -10.543489 -0.97213513 6 5
-4.3091698 -12.946299 2.652245 5 13
-3.5631313 -10.692474 -0.59066367 9 6
-4.0938621 -12.270844 2.9864502 6 14
-3.6079082 -10.807973 -0.19888763 7 7
-4.1014924 -12.272307 3.4671402 1 15
-1.4583035 -4.325767 -1.2231789 7 0
-3.704478 -10.975945 0.20220359 7 8
-1.7165024 -5.0828705 -1.2385805 6 1
-3.7280951 -11.026855 0.61002797 16 9
-2.0148525 -5.9526272 -1.2215593 11 2
-3.6512661 -10.781004 0.9958415 8 10
-2.6013091 -7.6720095 -1.2830757 3 3
-4.4359808 -13.067978 1.6944715 4 11
-3.3714685 -9.9263391 -1.2871841 4 4
-4.3415847 -12.767931 2.1359563 3 12
-3.5789466 -10.513089 -0.97161222 5 5
-4.3709598 -12.832273 2.6350722 1 13
-3.6512282 -10.707037 -0.59286177 14 6
-5.2208238 -15.292313 3.7305884 9 14
-3.69297 -10.810906 -0.1994112 7 7
-3.7694876 -11.022327 3.1213577 7 15
-1.4790182 -4.2880874 -1.2154143 9 0
-3.7849305 -10.961156 0.20241301 8 8
-1.7525823 -5.0726056 -1.2390305 5 1
-3.5934508 -10.388998 0.57611424 14 9
-2.049294 -5.9180088 -1.2173615 6 2
-3.7747095 -10.894563 1.0087405 6 10
-2.6412117 -7.61447 -1.2765055 3 3
-4.7767148 -13.763245 1.7887983 5 11
-3.4458973 -9.9175606 -1.289134 4 4
-4.7564063 -13.673904 2.2930167 8 12
-3.6779287 -10.567515 -0.97893327 5 5
-4.5573354 -13.079535 2.6923151 2 13
-3.7370715 -10.713345 -0.59464121 10 6
-4.7744613 -13.67963 3.3450222 4 14
-3.7848437 -10.832056 -0.20028383 9 7
-5.3541446 -15.314742 4.3471251 6 15
-1.5107414 -4.2852077 -1.2174848 9 0
-3.880085 -10.993596 0.20349507 10 8
-1.7896649 -5.0679088 -1.2408301 5 1
-3.7073557 -10.486695 0.58291793 13 9
-2.1255548 -6.0057144 -1.2383504 7 2
-3.9152863 -11.056427 1.0261717 6 10
-2.6909995 -7.5907292 -1.2755668 2 3
-3.9226408 -11.05879 1.4407395 13 11
-3.511996 -9.8901339 -1.2886466 4 4
-4.8811297 -13.730553 2.3080344 2 12
-3.7657988 -10.587287 -0.98311675 6 5
-4.6607466 -13.088901 2.7007105 4 13
-3.8152723 -10.702709 -0.59547853 10 6
-5.654377 -15.853063 3.8858044 7 14
-3.8752971 -10.853124 -0.20115645 8 7
-4.2877078 -12.001497 3.4148586 12 15
-1.538565 -4.2711906 -1.2164496 9 0
-3.9609299 -10.983861 0.2038092 7 8
-1.8194891 -5.042778 -1.2376807 6 1
-3.9102814 -10.825641 0.60322434 13 9
-2.1096387 -5.8341751 -1.2059129 2 2
-3.7579539 -10.386897 0.96638286 7 10
-2.7385695 -7.5610924 -1.2736895 3 3
-4.010674 -11.067295 1.4453706 8 11
-3.5717866 -9.8454723 -1.2859653 5 4
-4.8962569 -13.481631 2.2717416 3 12
-3.8486648 -10.591371 -0.98590571 7 5
-5.0913482 -13.995964 2.8949542 8 13
-3.9003367 -10.710272 -0.59736264 10 6
-5.3652005 -14.724773 3.618113 0 14
-3.9621031 -10.862186 -0.20181963 6 7
-3.9871423 -10.924912 3.1161816 8 15
-1.5702708 -4.2678709 -1.21852 9 0
-3.9651065 -10.765246 0.20024893 7 8
-1.8544461 -5.032105 -1.2381306 5 1
-3.9506958 -10.708831 0.59820002 16 9
-2.1703863 -5.8767724 -1.2177432 3 2
-3.8023264 -10.29006 0.959759 2 10
-2.7824335 -7.5218978 -1.2702481 3 3
-3.9860053 -10.769795 1.4100285 4 11
-3.5897524 -9.6887712 -1.2686601 9 4
-5.4041972 -14.570355 2.4613402 8 12
-3.933145 -10.598552 -0.98904335 7 5
-5.291101 -14.242559 2.9533417 4 13
-3.9884639 -10.724659 -0.5996654 10 6
-5.4585071 -14.66965 3.6136138 0 14
-4.0289674 -10.816228 -0.20147058 7 7
-4.048594 -10.863127 3.1063464 5 15
-1.5966907 -4.245676 -1.2154143 9 0
-4.092061 -10.869472 0.20272715 8 8
-1.8917814 -5.0223536 -1.2390305 5 1
-4.0476599 -10.734483 0.60123557 14 9
-2.1652379 -5.7361917 -1.1917931 3 2
-4.2116385 -11.151665 1.0429056 7 10
-2.8292022 -7.4833179 -1.2671193 3 3
-4.0718694 -10.758853 1.4124658 4 11
-3.6168129 -9.5514488 -1.2540357 6 4
-5.2324491 -13.803545 2.3380699 3 12
-4.0194836 -10.598078 -0.99165797 6 5
-5.4075165 -14.242877 2.9613557 1 13
-4.066525 -10.699578 -0.59987479 10 6
-5.7829089 -15.207625 3.7562325 1 14
-4.1354294 -10.863745 -0.20290168 8 7
-4.7472315 -12.457859 3.5722208 12 15
-1.6221353 -4.2236052 -1.2123084 6 0
-4.2434187 -11.042962 0.20649688 10 8
-1.9226002 -4.9981112 -1.236331 6 1
-4.1773062 -10.853937 0.60950464 13 9
-2.2141142 -5.7469683 -1.1971357 3 2
-4.2291656 -10.96584 1.0282634 3 10
-2.8679848 -7.4325557 -1.2618005 3 3
-4.9990439 -12.941877 1.7034898 6 11
-3.660497 -9.4667177 -1.2462361 1 4
-5.2706904 -13.623909 2.3136661 6 12
-4.1128001 -10.619924 -0.99636441 6 5
-6.3044543 -16.262276 3.3902946 10 13
-4.1688724 -10.747997 -0.60416633 10 6
-5.8910542 -15.172334 3.7575824 1 14
-4.2278342 -10.877479 -0.20370449 6 7
-4.5070362 -11.589826 3.3320365 2 15
-1.6522567 -4.216063 -1.2133437 9 0
-4.2904668 -10.936744 0.20506579 8 8
-1.9523041 -4.9740248 -1.2336316 6 1
-4.0959482 -10.42484 0.58700013 4 9
-2.2577741 -5.7405062 -1.1990438 6 2
-4.3022509 -10.933091 1.0279148 7 10
-2.9219749 -7.4178667 -1.2627392 3 3
-5.1074777 -12.95283 1.7095833 19 11
-3.7146511 -9.4157305 -1.2428237 1 4
-5.4295263 -13.748463 2.3411984 0 12
-4.2091537 -10.652831 -1.0021167 6 5
-5.8886003 -14.888095 3.1120949 6 13
-4.2621865 -10.765056 -0.60678315 10 6
-4.7999473 -12.117101 3.0089452 10 14
-4.3224149 -10.900496 -0.20468183 7 7
-4.9035759 -12.353515 3.5613501 3 15
-1.6830847 -4.2080135 -1.2143791 9 0
-4.413846 -11.029819 0.20736951 8 8
-1.9855319 -4.9566565 -1.2327318 6 1
-4.3228445 -10.786039 0.60898125 14 9
-2.3070302 -5.750514 -1.2043865 6 2
-4.3391199 -10.804799 1.0186763 9 10
-2.9731357 -7.3996382 -1.263052 3 3
-5.2644148 -13.089043 1.732251 5 11
-3.7758458 -9.3785191 -1.2413613 1 4
-5.4809132 -13.606744 2.323365 7 12
-4.2864013 -10.630578 -1.0028139 7 5
-6.5243998 -16.164703 3.3883865 9 13
-4.3458319 -10.761722 -0.60824853 10 6
-4.4141607 -10.908982 -0.20541482 8 7
-4.6446567 -11.472862 3.3165076 12 15
-1.7116889 -4.1964598 -1.2143791 9 0
-4.3637514 -10.687713 0.20150548 7 8
-2.0162768 -4.9358101 -1.2309321 6 1
-4.4139147 -10.79442 0.61117935 9 9
-2.3486061 -5.7379026 -1.2051498 6 2
-4.4133205 -10.776857 1.0188506 6 10
-3.0277195 -7.3860135 -1.2643036 3 3
-5.3518801 -13.049234 1.7317636 11 11
-3.8049166 -9.2681284 -1.2301493 5 4
-5.5750198 -13.566322 2.3230519 3 12
-4.3662386 -10.619583 -1.0045571 6 5
-6.5528331 -15.922029 3.3467901 13 13
-4.4360728 -10.768054 -0.61034197 10 6
-5.0259647 -12.193906 3.0449374 15 14
-4.4822111 -10.863895 -0.20513558 7 7
-4.7079 -11.405267 3.3061545 13 15
-1.7342788 -4.1704412 -1.2102379 9 0
-4.5309205 -10.884837 0.20579877 3 8
-2.0483284 -4.9183736 -1.2300324 6 1
-4.4404082 -10.651673 0.60479438 11 9
-2.3876085 -5.7217832 -1.2051498 3 2
-4.4220953 -10.592127 1.0042084 7 10
-3.0710683 -7.3488293 -1.2614876 2 3
-5.5707536 -13.323851 1.7731992 8 11
-3.8564174 -9.2145452 -1.2264931 2 4
-6.2915835 -15.018423 2.5789788 6 12
-4.4484334 -10.613504 -1.0068232 7 5
-4.5324655 -10.792853 -0.61348212 10 6
-4.5808635 -10.892121 -0.20625255 7 7
-4.414547 -10.49154 3.0499237 6 15
-1.7641343 -4.162097 -1.2112732 9 0
-4.5924087 -10.82429 0.20524029 5 8
-2.0802364 -4.9007297 -1.2291325 6 1
-4.6487074 -10.941051 0.6230073 19 9
-2.4049857 -5.6548123 -1.1944643 2 2
-4.5354347 -10.658947 1.0134469 2 10
-3.1132779 -7.3095818 -1.2583591 3 3
-5.6511793 -13.255417 1.7692993 4 11
-3.9634418 -9.292161 -1.2403862 3 4
-6.4246893 -15.04792 2.5914936 9 12
-4.5385742 -10.625121 -1.0108323 6 5
-5.9315362 -13.872738 2.9327345 9 13
-4.6105394 -10.77277 -0.61411017 10 6
-5.3372388 -12.464726 3.1304188 2 14
-4.6793165 -10.917665 -0.20733458 6 7
-5.041409 -11.751158 3.4262466 5 15
-1.7908483 -4.1443596 -1.2097203 7 0
-4.7794561 -11.055258 0.21023169 8 8
-2.102015 -4.8574724 -1.2219341 5 1
-4.8055997 -11.099771 0.63389313 14 9
-2.4629376 -5.6833453 -1.2040049 2 2
-4.7136035 -10.86647 1.0362817 7 10
-3.1558828 -7.2719111 -1.2555431 3 3
-5.7041011 -13.13107 1.7578436 19 11
-3.9965549 -9.1914473 -1.2306367 1 4
-6.0793862 -13.974965 2.413784 3 12
-4.6428661 -10.662592 -1.0174562 6 5
-6.0651088 -13.915578 2.9506705 9 13
-4.697331 -10.772261 -0.61588961 12 6
-5.4202299 -12.418234 3.1281695 6 14
-4.7754364 -10.930543 -0.2082072 8 7
-5.3495269 -12.238761 3.5789499 17 15
-1.8205733 -4.1356101 -1.2107556 7 0
-4.8758712 -11.065541 0.21106941 8 8
-2.1303144 -4.8323526 -1.2192347 5 1
-4.8628163 -11.02027 0.63127637 16 9
-2.5065193 -5.6749921 -1.2059129 2 2
-4.8140349 -10.894273 1.042034 4 10
-3.2073717 -7.2515097 -1.2558562 3 3
-3.9882798 -9.0043097 -1.2091877 19 4
-6.1511817 -13.874395 2.4037724 0 12
-4.7260814 -10.649951 -1.0193735 6 5
-6.4783468 -14.591715 3.1033175 5 13
-4.7829647 -10.762931 -0.61725032 10 6
-5.4941216 -12.351602 3.120971 8 14
-4.8708658 -10.945286 -0.20911473 9 7
-1.8486097 -4.121037 -1.2102379 6 0
-4.976757 -11.084133 0.21208164 6 8
-2.1655943 -4.8209181 -1.2201345 5 1
-4.9470038 -11.002448 0.63221842 9 9
-2.5493 -5.6645164 -1.2074393 1 2
-4.9153304 -10.916719 1.0474377 7 10
-3.2546711 -7.2217379 -1.2546046 3 3
-6.3211365 -14.012805 1.8875126 22 11
-4.0110321 -8.8875866 -1.1972445 14 4
-6.364182 -14.088546 2.4485126 4 12
-4.8265834 -10.674792 -1.0249515 8 5
-6.2919989 -13.909336 2.9674616 3 13
-4.8827019 -10.78386 -0.62039047 10 6
-6.8970413 -15.218566 3.8574607 6 14
-4.9554172 -10.929226 -0.20946379 7 7
-5.2372651 -11.540133 3.3957062 1 15
-1.8693053 -4.0904598 -1.2050616 6 0
-5.0456991 -11.030936 0.2117326 4 8
-2.1959546 -4.798594 -1.2183349 6 1
-4.8781404 -10.649872 0.61390084 9 9
-2.6084206 -5.6894126 -1.2165983 1 2
-5.0038834 -10.909302 1.0500524 5 10
-3.2992396 -7.1862731 -1.2524145 3 3
-6.5646906 -14.285797 1.9304106 8 11
-4.0290332 -8.7637777 -1.1843264 14 4
-5.5441394 -12.048286 2.1006021 4 12
-4.9116316 -10.668838 -1.0275662 6 5
-5.4802332 -11.893008 2.5453923 9 13
-4.9888158 -10.816617 -0.62426335 7 6
-5.3846626 -11.669526 2.9671044 12 14
-5.0500426 -10.934303 -0.21023169 7 7
-4.1998501 -9.0851421 2.6818831 4 15
-1.890479 -4.0615473 -1.2004027 7 0
-4.8589792 -10.434372 0.2009121 3 8
-2.2310472 -4.7866793 -1.2192347 5 1
-4.8391013 -10.377483 0.60008413 8 9
-2.6670146 -5.7142215 -1.225757 2 2
-5.0951018 -10.906594 1.05319 4 10
-3.3397145 -7.1457534 -1.2492858 2 3
-5.6608295 -12.101068 1.6403615 22 11
-4.1473579 -8.8576851 -1.2009006 23 4
-5.5883131 -11.929772 2.0865231 9 12
-5.0113659 -10.688408 -1.0327955 6 5
-5.5247622 -11.772704 2.5278378 18 13
-5.087791 -10.836645 -0.6274035 5 6
-5.4593697 -11.617539 2.9635053 21 14
-5.1466799 -10.942212 -0.21106941 7 7
-5.3498144 -11.368938 3.3667183 8 15
-1.9180813 -4.0485849 -1.2004027 7 0
-5.258142 -11.088604 0.21421084 8 8
-2.2518837 -4.7467327 -1.212936 5 1
-5.3363495 -11.238329 0.65200138 9 9
-2.7194819 -5.7220616 -1.2314813 7 2
-5.3617215 -11.276514 1.0924101 2 10
-3.3920653 -7.1276164 -1.2502245 2 3
-5.7405076 -12.056878 1.6396303 11 11
-4.2382951 -8.8937635 -1.2096752 26 4
-5.7862692 -12.131165 2.1287606 7 12
-5.1063132 -10.700801 -1.0373276 8 5
-6.8934255 -14.432913 3.1090419 4 13
-5.177104 -10.829694 -0.62907827 9 6
-7.4595399 -15.597198 3.9915316 7 14
-5.2296758 -10.924963 -0.21141845 7 7
-5.4829831 -11.448998 3.4013999 4 15
-1.9439169 -4.0319552 -1.1993675 7 0
-5.3682613 -11.124596 0.21560703 4 8
-2.2824473 -4.7277851 -1.2120364 6 1
-5.3188753 -11.007526 0.64069682 19 9
-2.7549489 -5.6963487 -1.2299548 7 2
-5.3038464 -10.961768 1.0653918 4 10
-3.4370584 -7.09725 -1.2489729 3 3
-5.8293653 -12.031816 1.6415801 15 11
-4.3143263 -8.8968592 -1.2140626 23 4
-5.1955657 -10.699849 -1.0406395 7 5
-6.8009939 -13.993658 3.0243227 2 13
-5.2699175 -10.833716 -0.63138103 7 6
-4.4402313 -9.1240225 2.3426404 1 14
-5.3336916 -10.950236 -0.21260521 7 7
-7.5215759 -15.435187 4.6007676 5 15
-1.9764208 -4.029037 -1.2024734 7 0
-5.4720588 -11.145238 0.21672398 9 8
-2.3111386 -4.705143 -1.2102367 6 1
-5.2782445 -10.736267 0.62698483 12 9
-2.7875912 -5.665133 -1.2272835 6 2
-5.8191996 -11.820967 1.1527219 6 10
-3.4783039 -7.0595145 -1.24647 2 3
-5.921123 -12.006851 1.6437739 14 11
-4.3914723 -8.9011097 -1.2186935 24 4
-6.7686396 -13.707348 2.421293 6 12
-5.2876911 -10.703534 -1.0444744 5 5
-6.7577281 -13.667222 2.9636455 12 13
-5.3701143 -10.851296 -0.63452119 7 6
-5.5164661 -11.142134 2.8703754 6 14
-5.4391804 -10.97639 -0.21382689 6 7
-5.8317332 -11.758253 3.5168333 4 15
-1.9958715 -3.9978564 -1.197297 7 0
-5.5647745 -11.141722 0.21738717 6 8
-2.3456721 -4.6923804 -1.2111365 5 1
-5.3110003 -10.619705 0.62227458 4 9
-2.8260868 -5.646028 -1.2272835 6 2
-5.7123904 -11.402407 1.1157678 3 10
-3.5271597 -7.0374417 -1.2467828 3 3
-6.0116148 -11.984013 1.6462111 13 11
-4.4864626 -8.9358749 -1.2277118 13 4
-6.8369598 -13.611532 2.4125326 9 12
-5.3792906 -10.700181 -1.0477864 5 5
-6.8397422 -13.593405 2.9579213 15 13
-5.4725895 -10.871579 -0.63787073 5 6
-4.5647302 -9.060195 2.3421905 9 14
-5.5300803 -10.966719 -0.21438536 6 7
-6.7730556 -13.425838 4.029295 8 15
-2.0230379 -3.9841785 -1.197297 7 0
-5.6641641 -11.145387 0.2182249 6 8
-2.3740251 -4.6693568 -1.2093369 6 1
-5.5226903 -10.852937 0.63818467 13 9
-2.8725626 -5.6401567 -1.2303365 6 2
-6.812891 -13.371048 1.3129141 2 10
-3.5582559 -6.9774504 -1.2405255 3 3
-6.9921651 -13.699243 1.8884875 8 11
-4.6807899 -9.1667862 -1.2637852 9 4
-6.9686766 -13.635587 2.4253602 6 12
-4.6928353 -9.1785078 -0.9018876 2 5
-5.7345757 -11.206344 2.4469347 9 13
-5.5729361 -10.881105 -0.64069682 5 6
-4.5649786 -8.9092455 2.311147 11 14
-5.6192007 -10.957293 -0.21494384 6 7
-4.6153855 -8.9921484 2.7082827 6 15
-2.0481434 -3.9648087 -1.195744 6 0
-5.7242899 -11.076374 0.2176315 8 8
-2.3958218 -4.6318979 -1.203938 6 1
-5.7680836 -11.146802 0.65775836 9 9
-2.9036641 -5.6065259 -1.2272835 6 2
-6.9519138 -13.411604 1.3216296 7 10
-3.60203 -6.9460545 -1.239274 2 3
-7.4400597 -14.334959 1.9830582 15 11
-4.7501626 -9.144455 -1.2652477 13 4
-7.9148431 -15.230227 2.7185183 8 12
-4.7393312 -9.1119385 -0.89857566 10 5
-5.7909141 -11.124242 2.4377759 6 13
-5.6588631 -10.865949 -0.6420576 9 6
-4.7549696 -9.1225462 2.3750331 18 14
-5.7418051 -11.006443 -0.21668908 5 7
-5.78304 -11.08077 3.3491185 8 15
-2.083168 -3.9661677 -1.2004027 7 0
-5.8051968 -11.043222 0.21777113 9 8
-2.4200385 -4.601685 -1.2003388 5 1
-5.8625045 -11.138076 0.65964246 11 9
-2.9555449 -5.6104355 -1.2326262 6 2
-6.9993839 -13.281132 1.313437 3 10
-3.6550429 -6.9294739 -1.2408383 3 3
-7.6113143 -14.417839 2.001826 9 11
-4.7807765 -9.052227 -1.2569605 6 4
-5.8978047 -11.157846 1.9989198 8 12
-4.7630582 -9.0072546 -0.89142895 11 5
-5.812315 -10.98219 2.4152606 19 13
-5.7542167 -10.863242 -0.6442557 5 6
-5.6993155 -10.755058 2.8100886 6 14
-5.8503184 -11.030704 -0.21794567 6 7
-5.8421421 -11.006 3.3387659 6 15
-2.1098952 -3.9498243 -1.1998851 6 0
-5.978251 -11.186872 0.22140123 9 8
-2.4502659 -4.5812411 -1.199439 6 1
-5.9070888 -11.0398 0.65618831 17 9
-2.9788363 -5.5624967 -1.2265203 6 2
-7.2302861 -13.490085 1.3390608 5 10
-3.6993256 -6.8992124 -1.2398998 3 3
-7.7327394 -14.409426 2.0079193 13 11
-4.790318 -8.9189482 -1.2430674 6 4
-5.9287372 -11.033917 1.9839021 9 12
-4.7909093 -8.9088564 -0.88497937 13 5
-5.9000082 -10.962089 2.4198396 12 13
-5.8649554 -10.892406 -0.6483379 5 6
-5.7456031 -10.661827 2.7961416 6 14
-5.9442711 -11.021273 -0.21857393 6 7
-5.9857211 -11.093492 3.3775885 4 15
-2.123827 -3.9116032 -1.1926383 6 0
-5.9922342 -11.027143 0.21906261 9 8
