# .PCD v0.7 - Point Cloud Data file format
VERSION 0.7
FIELDS x y z intensity ring
SIZE 4 4 4 4 2
TYPE F F F F U
COUNT 1 1 1 1 1
WIDTH 1340
HEIGHT 1
VIEWPOINT 0 0 0 1 0 0 0
POINTS 1340
DATA ascii
2.8342841 2.7959599 -0.91914994 6 1
11.545175 11.381118 0.84962201 6 9
3.4909298 3.4389215 -0.95251852 5 2
11.588271 11.411644 1.4229046 2 10
4.3520393 4.2827148 -0.96707797 2 3
11.550932 11.359002 1.9891516 6 11
5.9795995 5.87819 -1.0295522 3 4
11.566547 11.362451 2.5680285 7 12
10.235563 10.047935 -1.2548684 19 5
11.596762 11.380208 3.1582706 61 13
11.406661 11.185844 -0.83727074 12 6
11.649746 11.416249 3.7656808 46 14
11.432151 11.199104 -0.27934322 12 7
11.561608 11.318018 4.3352189 62 15
2.4261937 2.3626702 -0.90741962 61 0
11.666999 11.353587 0.28416011 5 8
2.8537333 2.7761064 -0.91914994 6 1
11.688794 11.362888 0.85433227 8 9
3.521894 3.4213066 -0.95442665 5 2
11.529012 11.195827 1.4059963 3 10
4.3634028 4.2343435 -0.96301067 2 3
11.560123 11.21037 1.9772084 6 11
6.0475721 5.8625531 -1.0341833 4 4
11.605865 11.242941 2.5592682 7 12
10.196667 9.8709126 -1.2416207 21 5
11.619495 11.244359 3.1430058 60 13
11.428481 11.05179 -0.83318853 13 6
11.656292 11.264221 3.742286 44 14
11.456843 11.067616 -0.27805173 11 7
11.586137 11.184701 4.3150315 56 15
2.4398434 2.3429973 -0.90638429 52 0
11.678165 11.206784 0.28251958 8 8
2.8688273 2.7520676 -0.91780037 5 1
11.678447 11.195315 0.84784257 4 9
3.5386031 3.3898468 -0.95251852 5 2
11.585309 11.094397 1.4033818 2 10
4.4057007 4.2160721 -0.96582651 2 3
11.583587 11.077256 1.9679463 6 11
6.0969596 5.828424 -1.0356457 3 4
11.688357 11.165735 2.5602069 8 12
10.239388 9.7747221 -1.2384831 17 5
11.63806 11.10604 3.1269779 68 13
11.067404 10.554091 -0.8014729 20 6
11.666936 11.118034 3.7206905 46 14
11.099465 10.573577 -0.2675803 40 7
11.631763 11.072901 4.3031259 36 15
2.4561412 2.3259068 -0.90638429 27 0
11.125751 10.528467 0.26737088 44 8
2.9007111 2.744025 -0.92184937 7 1
11.155436 10.545492 0.80450839 69 9
3.5621841 3.3650584 -0.95251852 3 2
11.169958 10.548152 1.3441159 33 10
4.435029 4.1852093 -0.96582651 2 3
6.1505041 5.7979693 -1.0378394 3 4
10.244994 9.6442804 -1.2309877 11 5
11.253504 10.589943 3.0037153 71 13
11.124804 10.461524 -0.80032152 50 6
11.27847 10.598601 3.5731225 51 14
11.132199 10.4575 -0.26660296 50 7
11.282003 10.590805 4.1462812 60 15
2.4666703 2.3034303 -0.9043138 11 0
11.232609 10.481916 0.26817369 66 8
2.9283462 2.7316844 -0.9245488 7 1
11.262387 10.498678 0.80691588 79 9
3.5798438 3.3347547 -0.95099211 3 2
11.266656 10.491639 1.3469048 48 10
4.4670315 4.1568365 -0.96645224 2 3
11.30537 10.512964 1.895556 57 11
6.1908317 5.754889 -1.0378394 4 4
11.313406 10.509397 2.4456968 45 12
10.271194 9.534564 -1.226107 14 5
11.342987 10.525817 3.0079131 66 13
11.155104 10.344214 -0.79728603 60 6
11.386494 10.551394 3.5839202 51 14
11.15066 10.329241 -0.26531148 56 7
11.37268 10.527532 4.152493 60 15
2.4855335 2.2887707 -0.90534908 7 0
11.167195 10.275955 0.26489261 64 8
2.9330029 2.6979811 -0.92004979 6 1
11.194253 10.290034 0.79686737 74 9
3.6131568 3.31898 -0.95366341 5 2
11.203151 10.287396 1.3306938 48 10
4.4930296 4.1228805 -0.96582651 2 3
11.245347 10.311693 1.8733757 51 11
6.2596622 5.7359228 -1.0424705 2 4
11.255403 10.310072 2.4175384 45 12
10.284598 9.4141951 -1.2198317 14 5
11.274605 10.313195 2.9701331 71 13
11.148928 10.194652 -0.79173839 48 6
11.318896 10.34282 3.53983 54 14
11.166698 10.196597 -0.2639502 55 7
11.311778 10.325454 4.1038351 68 15
2.498987 2.2683294 -0.9043138 7 0
11.274201 10.23 0.26573035 46 8
2.949347 2.6743057 -0.91914994 6 1
11.30016 10.23917 0.79917014 52 9
3.6333296 3.291039 -0.95290023 5 2
11.329656 10.255099 1.3369691 28 10
4.5180221 4.086648 -0.96488786 2 3
11.364185 10.275534 1.8811754 39 11
6.3128071 5.7040629 -1.0446641 4 4
11.403665 10.296782 2.4334948 34 12
10.398879 9.38622 -1.225584 15 5
11.422136 10.302609 2.9899771 45 13
11.303189 10.188158 -0.79749537 37 6
11.457417 10.323558 3.5605254 38 14
11.352038 10.22142 -0.26663786 46 7
11.481593 10.330818 4.1385169 49 15
2.5262778 2.2611351 -0.9084549 7 0
11.461884 10.251712 0.26841801 45 8
2.9708509 2.6562481 -0.92004979 6 1
11.477109 10.254517 0.80660182 48 9
3.6509283 3.2597246 -0.9513737 6 2
11.516911 10.27924 1.3505653 27 10
4.5508652 4.0589514 -0.96582651 2 3
11.55449 10.298299 1.9004307 39 11
6.3317256 5.6413651 -1.0412518 3 4
11.591829 10.320683 2.4582114 36 12
10.352651 9.2109165 -1.2123364 21 5
11.617014 10.332209 3.022033 46 13
11.502426 10.223104 -0.80649716 41 6
11.630076 10.329303 3.5911186 37 14
11.523311 10.230871 -0.26897648 43 7
11.683489 10.365805 4.1851039 55 15
2.5391049 2.2408864 -0.90741962 6 0
11.599165 10.229641 0.26995382 9 8
2.9922462 2.6380208 -0.92094964 6 1
11.641335 10.256 0.81309152 13 9
3.6691756 3.2302651 -0.95022881 5 2
11.649715 10.252555 1.3577121 7 10
4.5687079 4.0179501 -0.9636364 2 3
11.696192 10.278968 1.9118865 50 11
6.4067459 5.6284666 -1.0471015 3 4
11.757123 10.321609 2.4779222 13 12
10.362781 9.0911198 -1.2060611 16 5
11.740526 10.296162 3.0353897 67 13
11.544971 10.117547 -0.80450839 15 6
11.766411 10.304348 3.6109142 48 14
11.562854 10.12252 -0.26824349 18 7
11.784657 10.309421 4.195457 67 15
2.5474007 2.2167647 -0.90483141 7 0
11.747256 10.215335 0.27173397 9 8
3.0091193 2.6157877 -0.92049968 7 1
11.774471 10.22818 0.81738305 9 9
3.6946015 3.2071464 -0.95099211 5 2
11.803772 10.242794 1.3672993 5 10
4.6026182 3.9911306 -0.96488786 2 3
11.716655 10.152868 1.9035993 52 11
6.4563899 5.5926971 -1.0488076 2 4
11.879669 10.28324 2.4885597 5 12
10.362708 8.9638081 -1.19874 19 5
11.749744 10.160018 3.0193617 63 13
11.563943 9.9923038 -0.80094957 13 6
11.787918 10.178644 3.5956178 41 14
11.580259 9.9958172 -0.26702183 10 7
11.790514 10.170115 4.172163 54 15
2.565747 2.2014425 -0.90586674 7 0
11.728715 10.056286 0.2696746 4 8
3.0287876 2.5959849 -0.92094964 6 1
11.783393 10.092466 0.81309152 8 9
3.7124288 3.1774435 -0.94984722 6 2
11.765987 10.066884 1.3547488 4 10
4.624362 3.9537687 -0.9636364 2 3
11.726879 10.019243 1.8938497 55 11
6.5239549 5.5719852 -1.0534387 4 4
10.375009 8.8485785 -1.1929878 14 5
11.750171 10.017877 3.0014255 60 13
11.584776 9.869875 -0.79760003 13 6
11.808235 10.053155 3.5803208 45 14
11.593419 9.8667679 -0.26573035 11 7
11.817075 10.050014 4.1566343 55 15
2.5854771 2.1872208 -0.90741962 7 0
11.856666 10.023215 0.27100098 12 8
3.0408816 2.5697467 -0.91914994 7 1
11.896295 10.046032 0.81602234 14 9
3.7480249 3.1628439 -0.95328182 5 2
11.898424 10.037163 1.3618956 9 10
4.6427898 3.913749 -0.96175921 1 3
11.738849 9.8885317 1.8845876 58 11
6.571806 5.5339751 -1.0549011 4 4
11.855829 9.9764662 2.4541442 25 12
10.480754 8.813118 -1.1980428 21 5
11.770228 9.8939123 2.9888322 63 13
11.579986 9.7271013 -0.79257584 13 6
11.818428 9.9203568 3.5623248 46 14
11.622187 9.7521763 -0.26482281 11 7
11.830698 9.9201021 4.1369638 55 15
2.6066179 2.174067 -0.90949017 7 0
11.769673 9.8096008 0.26744068 4 8
3.0527592 2.5434649 -0.91735035 6 1
11.841811 9.8592234 0.80754387 8 9
3.7639775 3.1315782 -0.95175534 5 2
11.883956 9.8837814 1.3523085 5 10
4.6775961 3.8875539 -0.96332359 2 3
11.752618 9.7606859 1.8758131 52 11
6.6255546 5.5006413 -1.0573385 3 4
11.855255 9.8354349 2.4397521 5 12
10.408582 8.6291037 -1.1828777 14 5
11.790642 9.7714128 2.9766204 66 13
11.599926 9.6065292 -0.78933096 11 6
11.824343 9.7854252 3.5434291 51 14
11.634519 9.6249123 -0.26356626 11 7
11.84755 9.7941856 4.1188464 49 15
2.6097963 2.1459992 -0.90534908 7 0
11.823966 9.7157679 0.26712653 9 8
3.0824897 2.5319848 -0.92094964 6 1
11.890284 9.7598372 0.8061831 11 9
3.7705677 3.0927753 -0.94793916 5 2
11.901826 9.7588863 1.3465562 6 10
4.6954522 3.8472936 -0.96144634 2 3
11.771328 9.6381512 1.8680135 55 11
6.6730089 5.4617987 -1.0588009 3 4
11.851765 9.6936502 2.4250474 6 12
10.497881 8.580184 -1.1861897 16 5
11.811443 9.6503534 2.9647903 71 13
11.624938 9.4912081 -0.78650481 13 6
11.841027 9.660758 3.5281324 50 14
11.645642 9.4979553 -0.26230967 11 7
11.864723 9.6697388 4.1012468 49 15
2.61571 2.1204278 -0.9022432 7 0
11.907041 9.6455774 0.26747561 11 8
3.1031199 2.5128558 -0.92184937 6 1
11.941048 9.662776 0.80503178 13 9
3.7829075 3.0589697 -0.94564945 5 2
11.920078 9.6354837 1.3409783 6 10
4.7237353 3.8156583 -0.96175921 2 3
11.795078 9.5208254 1.8611888 58 11
6.7557812 5.4512262 -1.0658693 3 4
11.945292 9.6317511 2.4303663 3 12
10.419445 8.3954363 -1.170676 10 5
11.818897 9.5196295 2.9499073 65 13
11.638012 9.3672466 -0.78294599 13 6
11.865669 9.5436525 3.5155351 52 14
11.658675 9.3738251 -0.26112291 12 7
11.86116 9.5298033 4.0769176 51 15
2.6334672 2.1045284 -0.90327853 7 0
11.774078 9.4024925 0.26300776 6 8
3.1160173 2.4874847 -0.92049968 7 1
11.831785 9.4384346 0.79320383 8 9
3.8256648 3.0496161 -0.95099211 3 2
11.832796 9.4291077 1.3237214 5 10
4.7425327 3.7764351 -0.96019489 2 3
11.803781 9.3925209 1.8521705 56 11
6.8169756 5.4224653 -1.0695254 3 4
11.910177 9.4670038 2.4097166 5 12
10.535526 8.3683395 -1.1771255 19 5
11.822024 9.386838 2.9342608 73 13
11.653061 9.2460394 -0.77959651 15 6
11.873981 9.4145746 3.4984388 54 14
11.684658 9.2611456 -0.2602503 14 7
11.888028 9.4155788 4.0634594 60 15
2.6572003 2.0932648 -0.90638429 7 0
11.782863 9.2755413 0.2617512 5 8
3.1225872 2.4572346 -0.91735035 6 1
11.817325 9.2926331 0.78786558 6 9
3.8499479 3.0252619 -0.95175534 3 2
11.841935 9.3019571 1.3174462 4 10
4.7687798 3.7432365 -0.96019489 2 3
11.809711 9.2633305 1.8429084 56 11
6.876533 5.3918939 -1.0729378 3 4
11.895125 9.3202715 2.3934476 3 12
10.56389 8.2712421 -1.1738135 21 5
11.84089 9.2677746 2.9228125 73 13
11.671702 9.1287756 -0.77656096 13 6
11.894886 9.2966537 3.4853916 58 14
11.701755 9.1424103 -0.25920314 12 7
11.903215 9.293129 4.0463772 64 15
2.6778531 2.0794027 -0.9084549 7 0
11.855235 9.1991787 0.26192573 8 8
3.1412058 2.4365695 -0.91780037 7 1
11.885064 9.2123594 0.78807491 9 9
3.8709743 2.9983101 -0.95175534 5 2
11.90504 9.2145462 1.3170975 6 10
4.7994828 3.713479 -0.96113342 2 3
11.826981 9.1442299 1.8355962 59 11
6.9306488 5.3546848 -1.0753752 2 4
11.93333 9.2164688 2.3881288 1 12
10.673423 8.2374668 -1.1795658 19 5
11.86493 9.1504335 2.9125087 63 13
11.684522 9.0047894 -0.77310681 13 6
11.902381 9.1693821 3.4687452 54 14
11.714587 9.0181866 -0.25805128 15 7
11.926538 9.1747322 4.0318832 71 15
2.686527 2.0554914 -0.90638429 7 0
11.876278 9.080101 0.26094839 8 8
3.1693993 2.4223125 -0.92094964 6 1
11.884016 9.0761614 0.78367871 9 9
3.8876486 2.9669602 -0.95061046 6 2
11.902549 9.0771675 1.3096021 6 10
4.8290749 3.6814349 -0.96175921 2 3
11.84474 9.0232763 1.828284 59 11
6.976687 5.3109651 -1.0765939 3 4
11.943952 9.0889759 2.3771784 3 12
10.636938 8.0885191 -1.1691071 9 5
11.878521 9.0260992 2.8999152 73 13
11.705707 8.88834 -0.77028066 11 6
11.907154 9.0380259 3.4511991 57 14
11.721463 8.8906231 -0.25679472 16 7
11.931842 9.043644 4.0116954 63 15
2.6764846 2.0176084 -0.89810216 7 0
11.837126 8.9166832 0.25867957 6 8
3.172641 2.3890207 -0.91690052 5 1
11.895989 8.9512663 0.7802245 8 9
3.8946579 2.9284458 -0.94717592 5 2
11.839809 8.8992796 1.2958316 4 10
4.8616128 3.6515298 -0.96301067 2 3
11.858201 8.9001551 1.8204844 58 11
7.0374126 5.2799993 -1.0802499 3 4
11.896469 8.9191437 2.3549647 4 12
10.680196 8.0014448 -1.1675383 11 5
11.890961 8.9052916 2.8877034 73 13
11.737093 8.7836657 -0.76829189 13 6
11.926265 8.9187431 3.4381518 53 14
11.741599 8.7774515 -0.25588718 16 7
11.935874 8.9161892 3.9920251 68 15
2.7029097 2.0080917 -0.9022432 7 0
11.891063 8.8278627 0.25850505 9 8
3.1970654 2.3726213 -0.91914994 6 1
11.94857 8.8608541 0.77959651 9 9
3.9307806 2.9128735 -0.95099211 3 2
11.928866 8.8365669 1.2987949 7 10
4.8568206 3.5951703 -0.95706618 2 3
11.872165 8.7817421 1.8131722 61 11
7.1076202 5.2555246 -1.0853684 3 4
11.983861 8.854661 2.3599706 1 12
10.747015 7.9349718 -1.1687585 20 5
11.899134 8.7824211 2.8747284 71 13
11.740263 8.6588335 -0.76452374 13 6
11.947452 8.8052053 3.4264543 53 14
11.770391 8.6715441 -0.25518909 23 7
11.948047 8.7959938 3.9754608 71 15
2.735568 2.0028677 -0.9084549 7 0
11.881393 8.6926794 0.25696924 15 8
3.2135527 2.3502424 -0.91914994 6 1
11.919837 8.7112274 0.77373481 13 9
3.9462631 2.8818891 -0.94984722 6 2
11.930726 8.7096062 1.2923454 11 10
4.8817997 3.561178 -0.95706618 2 3
11.883459 8.6623907 1.8056164 64 11
7.1649919 5.2209773 -1.088537 3 4
11.965546 8.7126379 2.3443272 9 12
10.842427 7.8890562 -1.1731163 20 5
11.915702 8.6668005 2.8640432 71 13
11.745497 8.5367365 -0.76096487 15 6
11.959749 8.6860876 3.4125075 60 14
11.791806 8.5609636 -0.25435138 33 7
11.970066 8.6840115 3.9625196 67 15
2.7416518 1.9780681 -0.90586674 6 0
12.018024 8.6644897 0.25860977 11 8
3.2235582 2.3231928 -0.91735035 6 1
12.054911 8.6814957 0.77854973 11 9
3.9583187 2.8485351 -0.94793916 5 2
11.996087 8.6295977 1.2928683 6 10
4.9161658 3.5339277 -0.95894337 1 3
11.893664 8.5433168 1.7980604 56 11
7.2061067 5.1742992 -1.0892683 3 4
12.016451 8.6219807 2.3424499 12 12
10.558822 7.5705366 -1.1366851 18 5
11.936024 8.5548096 2.8545027 101 13
11.76421 8.4254608 -0.75834811 11 6
11.959883 8.5592785 3.3954113 55 14
11.786227 8.4318981 -0.25295517 21 7
11.99583 8.575511 3.9511318 68 15
2.7459462 1.9521648 -0.90276086 7 0
12.058659 8.5664797 0.2581909 12 8
3.2428756 2.3028898 -0.9182502 6 1
12.076134 8.5693836 0.77603763 13 9
3.9733057 2.8174229 -0.94679433 5 2
12.057667 8.5467911 1.2930425 9 10
4.9374952 3.4972343 -0.95831764 1 3
11.914126 8.4325571 1.7922107 61 11
7.2809463 5.1513815 -1.0951179 2 4
12.0457 8.5162191 2.3365054 10 12
10.831098 7.6518354 -1.1602172 14 5
11.944136 8.4350376 2.8422909 66 13
11.768892 8.3051243 -0.7548939 13 6
11.976346 8.4452524 3.3832638 54 14
11.797412 8.3159924 -0.25194293 30 7
11.996969 8.4503927 3.9319789 71 15
2.7563434 1.9307302 -0.90172559 7 0
12.054277 8.4373646 0.25682962 12 8
3.2556801 2.2779596 -0.91735035 6 1
12.057096 8.4299345 0.77101338 11 9
3.997705 2.7929902 -0.94793916 5 2
12.027204 8.3996553 1.2834555 7 10
4.958549 3.4604204 -0.95769191 2 3
11.933628 8.3219233 1.786361 61 11
7.3297582 5.1095104 -1.097068 3 4
12.069201 8.4070768 2.3296225 17 12
10.670039 7.4269209 -1.1373824 14 5
11.95922 8.3211708 2.8319874 69 13
11.792153 8.1988115 -0.7526958 11 6
12.001405 8.3380861 3.373816 57 14
11.823975 8.2117548 -0.25127974 33 7
12.000122 8.3278828 3.9138618 68 15
2.7761152 1.9158292 -0.90379614 7 0
12.071732 8.3246231 0.25595698 13 8
3.2715039 2.2551751 -0.91735035 6 1
12.099207 8.3342257 0.76996666 14 9
4.0203404 2.7672391 -0.94870234 5 2
12.082265 8.3132324 1.2831068 9 10
4.979331 3.4234807 -0.95706618 2 3
11.94235 8.2046862 1.7790488 61 11
7.3955936 5.0771489 -1.1014552 3 4
12.073852 8.2857275 2.3192978 12 12
10.619753 7.2823887 -1.1265751 14 5
11.971493 8.2031965 2.8209202 104 13
11.79967 8.0824261 -0.74955565 11 6
12.017508 8.2254848 3.3621185 60 14
11.827965 8.0896807 -0.25012788 24 7
12.019691 8.217741 3.9014385 67 15
2.8009381 1.9035158 -0.90741962 6 0
12.086547 8.210927 0.25504947 13 8
3.2811086 2.227329 -0.91555077 6 1
12.112254 8.2160387 0.76703584 14 9
4.0395613 2.7391043 -0.94870234 5 2
12.085363 8.1885624 1.2771802 10 10
5.0020652 3.3866541 -0.95675331 2 3
11.950024 8.0877285 1.7717367 59 11
7.440722 5.0320702 -1.1029177 3 4
12.078822 8.1626177 2.3089728 12 12
10.974113 7.4132881 -1.1586484 28 5
11.974771 8.0831728 2.808327 101 13
11.8274 7.9776788 -0.74767154 11 6
12.026167 8.1087027 3.3486214 60 14
11.849326 7.9834452 -0.24939489 22 7
12.039728 8.1056271 3.8890152 75 15
2.814158 1.8839166 -0.90741962 7 0
12.081835 8.0819778 0.25372308 12 8
3.298197 2.2054529 -0.91600066 5 1
12.04975 8.0513868 0.75949949 9 9
4.0394654 2.6970458 -0.94412297 3 2
12.114063 8.0851889 1.2742169 10 10
5.0173697 3.3461704 -0.95518899 2 3
11.967947 7.9755878 1.7658869 68 11
7.4921923 4.9910069 -1.105355 3 4
12.096053 8.0518169 2.3014641 20 12
11.128442 7.4049258 -1.1694556 19 5
11.998218 7.9776301 2.8006945 73 13
10.736611 7.1333914 -0.67555261 1 6
12.033787 7.9921975 3.3351245 58 14
11.858116 7.8695712 -0.24841754 22 7
12.054163 7.9936171 3.8755567 77 15
2.8224041 1.8610326 -0.90586674 7 0
12.123206 7.9907537 0.25344384 13 8
3.3249068 2.1898751 -0.91914994 6 1
12.140971 7.9933481 0.76180226 14 9
4.0560899 2.6684086 -0.94374132 6 2
11.978752 7.8745575 1.2541711 6 10
5.053237 3.3206191 -0.95769191 2 3
11.985449 7.8699756 1.7605247 65 11
7.5467682 4.9516521 -1.1082799 4 4
12.105978 7.9400496 2.2930167 17 12
10.664948 6.9895873 -1.1155934 7 5
12.014198 7.8678641 2.7915359 73 13
11.84269 7.752594 -0.7418099 13 6
12.046885 7.8802614 3.323427 60 14
11.869247 7.7581477 -0.24751003 22 7
12.05816 7.8786244 3.8595097 70 15
2.8220453 1.8333596 -0.90172559 6 0
11.982455 7.7785311 0.24936 13 8
3.3462739 2.1714373 -0.92094964 6 1
12.022196 7.7953849 0.75091636 11 9
4.0762677 2.6410944 -0.94412297 3 2
11.976891 7.7570958 1.2484188 6 10
5.0729795 3.2831135 -0.95706618 2 3
12.003424 7.7623997 1.7551624 63 11
7.6128335 4.919311 -1.1129109 3 4
12.104698 7.8188987 2.2823792 9 12
11.260879 7.2682734 -1.1725934 24 5
12.029236 7.7582593 2.782377 107 13
11.857915 7.6448355 -0.73940241 13 6
12.062287 7.770637 3.3126292 60 14
11.877721 7.6458716 -0.24656759 15 7
12.067381 7.7649803 3.845016 71 15
2.83672 1.8141593 -0.9022432 7 0
12.021308 7.684989 0.24904583 9 8
3.3436618 2.1358964 -0.91600066 5 1
12.054101 7.6941123 0.74945098 9 9
4.0946054 2.6125741 -0.94412297 3 2
12.055609 7.6861939 1.2508591 9 10
5.0863471 3.24036 -0.95518899 2 3
12.020487 7.6549525 1.7498002 66 11
7.6855111 4.8905544 -1.1185169 4 4
12.060322 7.6684842 2.263607 2 12
11.299575 7.1819992 -1.1713731 21 5
12.031731 7.6414623 2.7705467 108 13
11.87859 7.5383835 -0.73730898 13 6
12.083332 7.6653585 3.3036313 60 14
11.900409 7.5434933 -0.24593931 19 7
12.088365 7.6567216 3.8341455 79 15
2.8542202 1.7973994 -0.90379614 6 0
12.048913 7.5817299 0.24848737 11 8
3.3551927 2.1104264 -0.91510093 6 1
12.077088 7.5906353 0.74756688 11 9
4.1231723 2.5894697 -0.94641262 5 2
12.078605 7.5827684 1.2477216 7 10
5.118885 3.2110698 -0.95706618 1 3
12.026178 7.538166 1.7427318 68 11
7.721993 4.8364873 -1.1187607 3 4
13.186787 8.2560368 2.4641559 0 12
11.262846 7.0460095 -1.1623089 22 5
12.047814 7.5312343 2.7617695 101 13
11.880116 7.4235201 -0.73416889 13 6
12.094896 7.5518613 3.2919338 57 14
11.918451 7.4359188 -0.24520631 13 7
12.098906 7.5455627 3.8206871 79 15
2.8719351 1.7799823 -0.90534908 6 0
12.067553 7.4763646 0.24778928 11 8
3.3735223 2.0884144 -0.91600066 6 1
12.097121 7.4830103 0.74547344 11 9
4.12779 2.5523634 -0.94335973 3 2
12.125772 7.4919591 1.2470243 7 10
5.1282849 3.1660559 -0.9545632 2 3
12.034594 7.4269123 1.7363946 66 11
7.7673969 4.789753 -1.1204668 3 4
12.159113 7.4920487 2.2620428 0 12
11.248995 6.9285479 -1.1558595 21 5
12.075016 7.4315109 2.7560451 111 13
11.895503 7.3153005 -0.73186606 13 6
12.100837 7.4386697 3.2793365 62 14
11.932591 7.3294997 -0.24443841 27 7
12.113074 7.4345388 3.8082635 77 15
2.8793442 1.7568703 -0.90379614 7 0
12.09001 7.3710828 0.24716099 11 8
3.3880198 2.0648117 -0.91600066 5 1
12.058661 7.3433127 0.7399258 9 9
4.1308541 2.5135753 -0.93992513 7 2
12.077353 7.3460293 1.23674 6 10
5.1502619 3.1301789 -0.9545632 1 3
12.060281 7.3241234 1.7324947 65 11
7.7895942 4.72684 -1.1187607 3 4
12.228009 7.4172239 2.2651713 14 12
11.363032 6.8871174 -1.1624832 23 5
12.084225 7.3184719 2.7461233 114 13
11.920655 7.2165608 -0.73029602 15 6
12.117073 7.3296986 3.2694385 62 14
11.929971 7.2108245 -0.24332145 19 7
12.13657 7.3328142 3.7994637 70 15
2.8918424 1.7362211 -0.90379614 6 0
12.093162 7.2576914 0.24618365 11 8
3.4144075 2.0475304 -0.91914994 6 1
12.086915 7.2424631 0.73846042 9 9
4.1584072 2.4907284 -0.94221485 5 2
12.115934 7.2512326 1.2353455 6 10
5.1793103 3.0972998 -0.95581466 2 3
12.077044 7.2193718 1.72762 66 11
7.8633027 4.6967773 -1.1246104 3 4
12.238366 7.3042231 2.2573495 23 12
11.350948 6.7718987 -1.1563823 21 5
12.094548 7.2098031 2.7369645 118 13
11.929093 7.1055217 -0.72767919 13 6
12.127764 7.2209997 3.258641 62 14
11.942213 7.1048684 -0.24255355 19 7
12.133931 7.2132039 3.7823815 74 15
2.8952787 1.7115812 -0.90120792 9 0
12.102213 7.1486793 0.24534594 11 8
3.4148412 2.0163152 -0.91555077 6 1
12.120448 7.1508937 0.73751837 11 9
4.1706204 2.4586453 -0.94107002 5 2
12.146126 7.1574731 1.233428 7 10
5.1900597 3.0559599 -0.95393753 1 3
12.082663 7.108716 1.7212827 66 11
7.8968015 4.6441507 -1.1248541 3 4
12.269068 7.2097411 2.2539082 18 12
11.466673 6.732842 -1.1633549 23 5
12.101015 7.1024671 2.7274239 105 13
11.946169 7.0059776 -0.72579515 15 6
12.147619 7.1184154 3.2505426 62 14
11.974766 7.0143251 -0.24223942 14 7
12.144405 7.1079926 3.7704761 78 15
2.9071572 1.6913266 -0.90120792 6 0
12.077487 7.0208025 0.24384503 16 8
3.4288344 1.9924262 -0.91555077 6 1
12.094076 7.0219769 0.73291278 14 9
4.1978726 2.4353802 -0.94335973 3 2
12.113069 7.0245261 1.2250611 10 10
5.20785 3.0176713 -0.95331174 1 3
12.083895 6.9963398 1.7144581 104 11
7.9393401 4.5948739 -1.1263165 3 4
12.213079 7.0626006 2.2345102 13 12
11.465094 6.6247149 -1.1584741 23 5
12.121404 7.0011196 2.7209363 108 13
11.949812 6.8964505 -0.72307366 13 6
12.163253 7.0139718 3.2415447 60 14
11.983595 6.9075856 -0.24143659 16 7
12.161922 7.0047226 3.7606409 74 15
2.9323065 1.678668 -0.90534908 6 0
12.061979 6.8995833 0.24255355 8 8
3.4392772 1.9665051 -0.91465092 6 1
12.208701 6.9750285 0.73689038 13 9
4.2147727 2.4060142 -0.94335973 5 2
12.102974 6.9062223 1.2191346 5 10
5.2425184 2.9890673 -0.95581466 2 3
12.097947 6.8921556 1.7095833 65 11
7.9729495 4.5403166 -1.1265603 3 4
12.152206 6.9146423 2.2144866 6 12
11.474691 6.5238328 -1.1548136 19 5
12.142676 6.9008055 2.7148306 118 13
11.954247 6.7882009 -0.72045684 15 6
12.157685 6.8981113 3.2271478 66 14
11.998479 6.8050117 -0.24077339 14 7
12.176913 6.9005961 3.7502882 72 15
2.9254382 1.6477284 -0.89965498 7 0
12.233587 6.8848338 0.24503179 12 8
3.4580164 1.9453146 -0.91600066 5 1
12.128263 6.8172007 0.72914463 11 9
4.2075019 2.3630714 -0.93801707 5 2
12.234289 6.8683701 1.2275014 10 10
5.2598128 2.9504623 -0.95518899 2 3
12.124986 6.795887 1.7066585 66 11
8.0252352 4.4961877 -1.1294852 3 4
12.241549 6.8527989 2.2219954 5 12
11.638199 6.5097032 -1.1666667 20 5
12.156281 6.7967095 2.7071981 118 13
11.973449 6.6889935 -0.71878207 15 6
12.174918 6.7959704 3.2190495 63 14
12.00553 6.6986709 -0.23997059 16 7
12.201169 6.8022475 3.7430413 72 15
2.948699 1.633819 -0.90327853 7 0
12.139646 6.7208066 0.24220449 11 8
3.4766283 1.9239564 -0.91735035 6 1
12.234987 6.765223 0.73270345 14 9
4.2238955 2.333642 -0.93801707 5 2
12.203456 6.7394476 1.2196574 10 10
5.2699041 2.9079463 -0.95331174 2 3
12.140846 6.6938148 1.7022711 101 11
8.0738115 4.4496369 -1.1319225 2 4
12.207767 6.7223797 2.2072906 7 12
11.824756 6.5060906 -1.1807859 21 5
12.163872 6.6899104 2.6984208 101 13
11.998852 6.593698 -0.71752608 15 6
12.198148 6.6976824 3.2127509 63 14
12.009931 6.5916018 -0.23913288 12 7
12.197542 6.6890402 3.7275119 74 15
2.9464636 1.6057962 -0.89913744 7 0
12.254758 6.6731939 0.24356578 15 8
3.4916883 1.9005682 -0.91780037 5 1
12.187169 6.6281185 0.72705114 13 9
4.2521601 2.3106585 -0.94068843 5 2
12.251956 6.6550436 1.2198317 10 10
5.2727151 2.8616619 -0.95018309 2 3
12.152382 6.5899668 1.6973963 104 11
8.1587801 4.4224882 -1.1394784 2 4
12.216188 6.616293 2.2004075 6 12
11.869885 6.4233856 -1.1807859 70 5
12.184378 6.5908165 2.6926966 69 13
12.007689 6.4898324 -0.71532792 13 6
12.213748 6.5956869 3.2046525 63 14
12.031016 6.4943037 -0.23864421 12 7
12.21504 6.5881262 3.7187123 78 15
2.9678178 1.5906639 -0.9022432 7 0
12.200567 6.5336676 0.24157622 12 8
3.48769 1.8669502 -0.91330135 5 1
12.194401 6.5221519 0.72474837 11 9
4.2560682 2.2744372 -0.93801707 3 2
12.257085 6.5446787 1.2156483 10 10
5.3065076 2.8322201 -0.95268601 1 3
12.145542 6.4769502 1.6900842 104 11
8.2462797 4.3938632 -1.1472781 2 4
12.260334 6.5299244 2.2000947 9 12
11.812428 6.2860746 -1.170676 25 5
12.210427 6.4923978 2.6881173 54 13
12.0062 6.3784409 -0.71250176 15 6
12.225075 6.4919782 3.1956546 62 14
12.048918 6.3930492 -0.23808572 11 7
12.226027 6.4815469 3.7078416 77 15
2.9705782 1.5648838 -0.89965498 6 0
12.176227 6.4089389 0.24018003 9 8
3.5044091 1.8437597 -0.91420108 5 1
12.230152 6.4291472 0.72412038 14 9
4.2652817 2.2402737 -0.93649065 5 2
12.27714 6.4429131 1.2130336 9 10
5.3196416 2.7905045 -0.95143455 2 3
12.142347 6.3640699 1.6832595 59 11
8.2880611 4.3402672 -1.1487405 2 4
11.806217 6.1800189 2.1106141 35 12
11.609936 6.0721135 -1.1462723 16 5
11.791993 6.1620827 2.5862253 39 13
11.651413 6.0834441 -0.68884593 16 6
11.8134 6.1653976 3.0764306 52 14
11.681227 6.091229 -0.2299529 54 7
11.812939 6.1546745 3.5691149 74 15
2.9782691 1.5418105 -0.89861977 6 0
11.681822 6.0423551 0.22956894 49 8
3.5140514 1.8168457 -0.91330135 5 1
11.713335 6.0508842 0.69093937 73 9
4.2759695 2.2069936 -0.93534577 6 2
11.728661 6.0510235 1.1546392 43 10
5.3394728 2.7523692 -0.95143455 1 3
11.758736 6.05615 1.6240309 64 11
8.3516941 4.2995634 -1.1533716 2 4
11.778119 6.0583262 2.0977864 68 12
11.61056 5.9670219 -1.1420889 36 5
11.805037 6.0643582 2.5797377 113 13
11.665168 5.9873672 -0.68717122 63 6
11.827738 6.0655875 3.0687821 65 14
11.671858 5.9830823 -0.22894068 76 7
11.819513 6.053556 3.5582445 37 15
2.9786301 1.5157241 -0.89551395 7 0
3.5370727 1.7975658 -0.91600066 6 1
4.2930241 2.1779759 -0.93572736 3 2
11.681769 5.9239388 1.1459237 10 10
5.3515105 2.7114518 -0.95018309 1 3
8.4187059 4.2599707 -1.1584901 3 4
11.385179 5.751071 -1.1159421 7 5
11.622265 5.8555646 -0.22716053 19 7
2.9960504 1.4983487 -0.8975845 6 0
11.747158 5.869729 0.22921991 37 8
3.5547662 1.7754408 -0.91735035 6 1
11.798461 5.8876467 0.69104403 50 9
4.3116388 2.149704 -0.93649065 3 2
11.765636 5.8635745 1.1501071 36 10
5.3490887 2.6634617 -0.9464286 1 3
11.79416 5.8675075 1.61745 55 11
8.466012 4.2099357 -1.1609274 2 4
11.065386 5.4953151 -1.0809054 36 5
11.691537 5.7884731 -0.22771899 60 7
3.0272429 1.4876214 -0.90379614 6 0
11.725818 5.7596521 0.22803316 72 8
3.5460808 1.7402798 -0.9119516 6 1
11.757575 5.7676125 0.68633378 86 9
4.3226442 2.1185796 -0.93572736 5 2
11.777658 5.7672663 1.1473181 65 10
5.3670931 2.6269925 -0.9464286 1 3
11.805293 5.773138 1.6135503 108 11
8.5076828 4.1568298 -1.1626337 3 4
11.830397 5.777741 2.0852716 51 12
11.343421 5.5350084 -1.1042633 14 5
11.841213 5.77279 2.560657 64 13
11.704409 5.703567 -0.6823563 65 6
11.89684 5.792201 3.0548353 41 14
11.735258 5.7084656 -0.22778882 55 7
11.902724 5.7873521 3.5463388 43 15
3.0286014 1.4627786 -0.90120792 7 0
11.871997 5.7289314 0.23009254 24 8
3.5596004 1.716947 -0.9124015 6 1
11.894711 5.7322159 0.69198608 29 9
4.3373294 2.0883503 -0.93572736 5 2
11.977429 5.7617722 1.1628319 16 10
5.3924241 2.5928805 -0.94768006 1 3
12.02782 5.7782607 1.6384115 28 11
8.5132303 4.0861669 -1.1594651 3 4
12.085947 5.7983985 2.1231289 28 12
11.780643 5.6468673 -1.1429603 19 5
12.125581 5.8070035 2.6133201 36 13
11.919682 5.7032838 -0.69250941 20 6
12.197175 5.8334422 3.1214209 31 14
11.987731 5.7281327 -0.23190759 29 7
12.215796 5.8318739 3.6270902 38 15
3.0337546 1.4385859 -0.89965498 6 0
12.167495 5.7645493 0.23501411 26 8
3.5806015 1.6956011 -0.91465092 6 1
12.177347 5.7614126 0.70601213 17 9
4.330863 2.0471916 -0.93114793 3 2
12.19671 5.760149 1.1800888 9 10
5.4215569 2.559289 -0.9495573 1 3
12.235836 5.7707939 1.6610793 120 11
8.5440483 4.0259891 -1.1597089 2 4
12.270096 5.7791009 2.1481583 8 12
11.694556 5.5030403 -1.1307586 32 5
12.292969 5.7793922 2.640415 15 13
12.135542 5.7002082 -0.70266259 20 6
12.298581 5.7741704 3.1367173 51 14
12.131607 5.690609 -0.23389715 19 7
12.318439 5.7730026 3.6452076 70 15
3.0334623 1.4119502 -0.89654922 6 0
12.270082 5.7060018 0.23620087 34 8
3.5944107 1.6707572 -0.91510093 5 1
12.287101 5.7060866 0.70998967 26 9
4.3507438 2.0186267 -0.93229276 3 2
12.287234 5.6983299 1.1849694 12 10
5.4361482 2.5187669 -0.94893163 2 3
12.264206 5.6772509 1.659373 112 11
8.6187859 3.9879198 -1.166046 3 4
12.296792 5.6845193 2.1456554 14 12
12.39897 5.7238765 2.6545348 23 13
12.147837 5.6028004 -0.70109254 18 6
12.323654 5.6786819 3.1326683 66 14
12.154693 5.5982471 -0.23358302 21 7
12.325095 5.671525 3.6353724 72 15
3.0414894 1.3899338 -0.89603156 7 0
12.329628 5.6293378 0.23658483 9 8
3.6024413 1.6440045 -0.91420108 6 1
12.286654 5.6019449 0.70768684 4 9
4.3629436 1.9873899 -0.93191117 3 2
12.366606 5.630579 1.1888043 9 10
5.4392152 2.4742107 -0.9464286 1 3
12.274627 5.5783515 1.6554734 68 11
8.6391888 3.9243641 -1.165071 4 4
12.323586 5.5928183 2.1434653 23 12
12.349216 5.5966549 2.6354539 31 13
12.144804 5.4989138 -0.69868505 15 6
12.338143 5.5812578 3.1263697 66 14
12.175256 5.5050216 -0.23323396 21 7
12.332703 5.5710196 3.6260548 72 15
3.0528808 1.3694586 -0.89654922 6 0
12.281038 5.5038686 0.2349094 5 8
3.5924883 1.6092564 -0.90880221 5 1
12.371039 5.5364275 0.71030366 9 9
4.3767128 1.9568803 -0.93191117 5 2
12.378328 5.5319128 1.1861897 7 10
5.4473386 2.4321482 -0.94486433 2 3
12.277012 5.4763546 1.6505985 101 11
8.6688614 3.863255 -1.1653148 3 4
12.35511 5.503438 2.1422138 17 12
11.3276 5.0410085 -1.0847404 7 5
12.442769 5.5320711 2.6469026 36 13
12.148221 5.3985825 -0.69669628 16 6
12.34831 5.4823332 3.1191714 65 14
12.186918 5.4055948 -0.23271039 19 7
12.343039 5.4722586 3.6177728 74 15
3.069675 1.3506896 -0.89861977 6 0
12.350278 5.4316883 0.23550276 9 8
3.6146166 1.5882114 -0.91150165 5 1
12.355476 5.423677 0.70716351 8 9
4.3848739 1.9239132 -0.93076634 3 2
12.406649 5.4383945 1.1851437 7 10
5.4863162 2.4026146 -0.94861871 2 3
12.285849 5.3777757 1.6466987 104 11
8.6901665 3.8002508 -1.1645836 3 4
12.397797 5.4164677 2.1428397 23 12
11.260269 4.9171476 -1.0749789 24 5
12.463089 5.4372249 2.6430862 18 13
12.173725 5.3059273 -0.69596362 15 6
12.354123 5.381989 3.111073 60 14
12.196856 5.3084121 -0.23218682 16 7
12.365937 5.3768606 3.6131141 78 15
3.0772562 1.3284608 -0.89810216 6 0
12.337419 5.3209925 0.23452544 6 8
3.6256163 1.562938 -0.91150165 5 1
12.426059 5.3515077 0.70904762 9 9
4.3859048 1.887055 -0.92809504 5 2
12.314361 5.2957616 1.1727676 3 10
5.4684711 2.3494413 -0.94267422 2 3
12.30395 5.2811098 1.6440176 112 11
8.7256041 3.7434065 -1.1658022 3 4
12.444386 5.3336735 2.1444039 6 12
11.249378 4.8168387 -1.0706211 10 5
12.367182 5.2929211 2.6148465 9 13
12.192109 5.2129521 -0.6949169 15 6
12.36723 5.2827296 3.1047745 62 14
12.206034 5.2113485 -0.23166324 14 7
12.369409 5.2760048 3.6032789 77 15
3.07934 1.303932 -0.89603156 7 0
12.300598 5.203568 0.23312925 8 8
3.6507988 1.5436599 -0.91510093 6 1
12.426319 5.249083 0.70695418 11 9
4.4098248 1.8609697 -0.93038476 3 2
12.398762 5.229794 1.1772997 7 10
5.4810991 2.3096728 -0.94204849 1 3
12.316735 5.1850705 1.640849 104 11
8.7625036 3.6870184 -1.1672646 3 4
12.470393 5.2420726 2.1425269 7 12
11.36172 4.7713633 -1.0781165 6 5
12.490724 5.2429256 2.6331642 6 13
12.204259 5.1176729 -0.69355619 15 6
12.382239 5.1872258 3.0993757 65 14
12.212604 5.113656 -0.23110476 16 7
12.37386 5.1761017 3.5939615 72 15
3.0776625 1.2779588 -0.89292574 6 0
12.351402 5.1236963 0.23340848 8 8
3.6578853 1.5166438 -0.91420108 4 1
12.388853 5.1316309 0.70276725 4 9
4.415453 1.827135 -0.92885822 3 2
12.359485 5.1118865 1.170153 6 10
5.4824848 2.2653167 -0.93954557 1 3
12.326944 5.0883536 1.6374366 68 11
8.8033457 3.6302755 -1.1692146 3 4
12.3898 5.1067085 2.122503 7 12
11.239999 4.6282048 -1.0634743 34 5
12.502502 5.1429534 2.6278214 9 13
12.213828 5.0217137 -0.69209075 15 6
12.396521 5.0917702 3.0939767 66 14
12.235934 5.0208201 -0.23086044 14 7
12.388246 5.0807929 3.5877497 72 15
3.0956755 1.2595431 -0.89551395 7 0
12.388724 5.038096 0.23344338 9 8
3.6523955 1.4838283 -0.9101519 6 1
12.440062 5.0488553 0.70360464 11 9
4.4371972 1.799957 -0.93076634 2 2
12.438218 5.040524 1.1741621 9 10
5.5150332 2.2326982 -0.9423613 2 3
12.329044 4.9887686 1.6330494 68 11
8.81007 3.5612884 -1.1667771 3 4
12.369242 4.9949946 2.1128042 7 12
11.453097 4.6227026 -1.0805569 23 5
12.518071 5.0474744 2.6236238 8 13
12.216103 4.9207525 -0.69020665 16 6
12.406458 4.9949131 3.0876782 70 14
12.253991 4.9285593 -0.2305463 16 7
12.408154 4.9855328 3.583091 78 15
3.1205432 1.2443404 -0.90017265 7 0
12.383589 4.9330344 0.23267549 9 8
3.6626656 1.4582936 -0.9101519 6 1
12.41562 4.9382634 0.70025522 9 9
4.4298935 1.7601846 -0.92656857 2 2
12.389777 4.9204731 1.1663182 9 10
5.5139604 2.1875882 -0.93954557 1 3
12.345974 4.8931022 1.630612 68 11
8.8316374 3.4966924 -1.1662897 3 4
12.370752 4.8954301 2.1071725 7 12
11.413623 4.5120616 -1.0737587 33 5
12.442483 4.9137788 2.6003451 14 13
12.227865 4.8265486 -0.6889506 15 6
12.405622 4.8917155 3.0786803 66 14
12.259176 4.8290191 -0.22998782 15 7
12.422882 4.8910069 3.5773969 77 15
3.1203701 1.218465 -0.8975845 7 0
12.39537 4.8377419 0.23225662 16 8
3.6784539 1.4341705 -0.91150165 5 1
12.446917 4.8478432 0.70004582 14 9
4.4420743 1.7292151 -0.92656857 5 2
12.49152 4.8576841 1.1725934 9 10
5.5294733 2.1480751 -0.93954557 1 3
12.361328 4.7996063 1.6281745 104 11
8.8521299 3.4335194 -1.1658022 3 4
12.364944 4.7910805 2.1002893 7 12
11.822002 4.5783386 -1.109144 15 5
12.445359 4.8147464 2.5938578 6 13
12.237871 4.7295647 -0.68758982 16 6
12.424931 4.7993655 3.0750811 66 14
12.264606 4.7325177 -0.22946425 16 7
12.43413 4.792953 3.5706677 81 15
3.1123533 1.1909832 -0.89292574 7 0
12.447521 4.7582283 0.23260568 12 8
3.6935921 1.4111854 -0.91285133 6 1
12.498284 4.7701349 0.70109254 13 9
4.4613767 1.7009571 -0.92809504 5 2
12.498228 4.7626185 1.170153 10 10
5.5439672 2.1103847 -0.93954557 2 3
12.378867 4.7097135 1.6262246 104 11
8.8697319 3.3710651 -1.165071 3 4
12.376953 4.6990967 2.0968478 6 12
11.34249 4.3040767 -1.0613827 10 5
12.472334 4.7278399 2.5927126 9 13
12.266044 4.6447458 -0.68738055 15 6
12.439082 4.707788 3.0705819 63 14
12.277828 4.6418595 -0.22911519 19 7
12.429502 4.6967235 3.5603149 81 15
3.1330507 1.1745174 -0.89654922 6 0
12.399094 4.6432347 0.23110476 9 8
3.6866863 1.3798631 -0.90880221 5 1
12.530464 4.6849513 0.70109254 14 9
4.4673328 1.6684912 -0.92695016 2 2
12.532224 4.6781316 1.1703273 10 10
5.5507989 2.0698407 -0.93829399 1 3
12.377155 4.612865 1.6218374 104 11
8.9073534 3.3161576 -1.1670209 3 4
12.393842 4.6092257 2.0943449 7 12
11.255734 4.1837382 -1.0505754 18 5
12.436131 4.6175427 2.578593 13 13
12.276775 4.5535054 -0.68622911 15 6
12.448915 4.6148744 3.0651829 62 14
12.282887 4.5484514 -0.22862652 16 7
12.441256 4.6046276 3.5546207 77 15
3.1409726 1.1531641 -0.89654922 6 0
12.469839 4.5731878 0.23183776 13 8
3.6959934 1.3547367 -0.90880221 5 1
12.502048 4.5775757 0.69774306 9 9
4.484118 1.6400675 -0.92809504 3 2
12.54212 4.5823212 1.1682355 10 10
5.5647593 2.0320098 -0.93829399 1 3
12.38668 4.5181808 1.6189125 55 11
8.9209614 3.2504935 -1.1658022 3 4
12.411934 4.5200315 2.0921547 7 12
11.2622 4.0968828 -1.0484836 13 5
12.477291 4.5339622 2.5805008 10 13
12.265086 4.4520125 -0.68382168 15 6
12.46251 4.5212064 3.0606842 60 14
12.299301 4.4571457 -0.22834729 20 7
12.464805 4.5121942 3.5520327 78 15
3.1582353 1.1339223 -0.89913744 7 0
12.428834 4.4575109 0.23047648 9 8
3.7055929 1.3282541 -0.90880221 5 1
12.549526 4.493382 0.69858038 14 9
4.4957395 1.6079379 -0.92809504 5 2
12.559579 4.487092 1.166841 10 10
5.5735765 1.9901445 -0.9373554 2 3
12.403736 4.4240932 1.6169626 34 11
8.9327745 3.1825764 -1.1643399 3 4
12.416047 4.4211578 2.0874617 8 12
11.193616 3.9814672 -1.0394194 11 5
12.487216 4.4366736 2.5759215 11 13
12.298512 4.3648 -0.68392634 13 6
12.461485 4.4201841 3.0525858 66 14
12.306377 4.3603377 -0.22789353 16 7
12.480381 4.4170876 3.547374 77 15
3.1644454 1.1106536 -0.89861977 6 0
12.509478 4.3856592 0.23138401 13 8
3.72052 1.3036367 -0.9101519 7 1
12.562509 4.3968668 0.69753373 14 9
4.4848905 1.5679532 -0.92351556 5 2
12.568028 4.3914142 1.1647493 10 10
5.610055 1.958024 -0.94110984 1 3
12.4407 4.3371811 1.6176938 26 11
8.9791422 3.1286316 -1.1675085 3 4
12.426844 4.3250551 2.0840201 9 12
11.161598 3.8803298 -1.0338414 14 5
12.49563 4.3416619 2.5713422 10 13
12.311703 4.2729397 -0.68298429 15 6
12.478065 4.3257923 3.0489867 67 14
12.317623 4.2677698 -0.22754449 18 7
12.481707 4.3197355 3.5390918 74 15
3.1483676 1.0803832 -0.89189047 7 0
12.452772 4.2683997 0.22977838 11 8
3.724 1.2757362 -0.90880221 5 1
12.591005 4.3084159 0.697429 16 9
4.499444 1.5378723 -0.92427886 3 2
12.564442 4.2919793 1.1616118 10 10
5.6011539 1.911153 -0.9373554 1 3
12.466919 4.2489424 1.6172063 22 11
8.9913712 3.0626643 -1.1662897 3 4
12.449256 4.2356491 2.0827687 13 12
11.397808 3.8734791 -1.05319 10 5
12.510764 4.249269 2.5682893 10 13
12.331778 4.1836758 -0.68246096 15 6
12.489503 4.2323256 3.0444875 69 14
12.333858 4.1771822 -0.22730014 16 7
12.484108 4.2232118 3.5313272 81 15
3.1613281 1.0602214 -0.89344335 7 0
12.516399 4.1927924 0.23040667 13 8
3.7439024 1.2534205 -0.91150165 5 1
12.577212 4.2058411 0.69502157 14 9
4.517519 1.5089107 -0.92580527 5 2
12.575199 4.1978493 1.1598686 10 10
5.6218562 1.8745025 -0.93860692 1 3
12.468025 4.1524005 1.6135503 17 11
9.0238352 3.0035799 -1.1677521 3 4
12.491645 4.1529965 2.0849588 12 12
11.193889 3.7172031 -1.0319239 10 5
12.500995 4.1488371 2.5602751 15 13
12.324663 4.0855412 -0.6804722 15 6
12.507646 4.1413536 3.0417881 67 14
12.355127 4.0884614 -0.22716053 19 7
12.502282 4.1323156 3.5282214 83 15
3.1668169 1.0375239 -0.89292574 7 0
12.457942 4.0766945 0.22880106 12 8
3.7321877 1.2205894 -0.90655273 6 1
12.503749 4.0844378 0.68936932 14 9
4.5335417 1.4791646 -0.92695016 7 2
12.49623 4.0747423 1.1499329 11 10
5.6385617 1.8364321 -0.93923265 1 3
12.451405 4.050518 1.6077005 13 11
9.0596867 2.9454184 -1.1697021 3 4
12.552271 4.0760641 2.0902774 19 12
11.469734 3.720104 -1.0549332 16 5
12.572608 4.0753922 2.5690525 22 13
12.324383 3.9901712 -0.67890209 15 6
12.510295 4.0455389 3.0354896 66 14
12.371951 3.9984169 -0.22695109 20 7
12.519795 4.0413718 3.5251155 78 15
3.1776628 1.0165673 -0.89396101 7 0
12.548957 4.0097136 0.2299529 16 8
3.7480435 1.1968752 -0.90835232 6 1
12.573819 4.0104032 0.69167209 14 9
4.530664 1.4433074 -0.92427886 3 2
12.609805 4.0146022 1.1577768 10 10
5.6399493 1.7934339 -0.9373554 2 3
12.44911 3.953872 1.6038008 13 11
9.0616093 2.874511 -1.1672646 3 4
12.559711 3.9817612 2.0868361 25 12
11.516319 3.6465552 -1.0568506 19 5
12.608936 3.987689 2.5705791 9 13
12.346227 3.9022279 -0.67858809 15 6
12.515931 3.9510679 3.0300906 66 14
12.383082 3.904371 -0.22663696 23 7
12.525592 3.9469075 3.518904 78 15
3.1903884 0.99552882 -0.89551395 6 0
12.542282 3.9112916 0.22932462 8 8
3.7583725 1.1706036 -0.90880221 6 1
12.832956 3.9921041 0.70433736 9 9
4.5331302 1.4093107 -0.92275238 5 2
12.505017 3.8829081 1.145575 4 10
5.652638 1.7530295 -0.9373554 1 3
12.463138 3.8627508 1.6020945 8 11
9.0852489 2.8123574 -1.1677521 3 4
12.525602 3.872529 2.0765114 36 12
11.391109 3.5196071 -1.0430799 9 5
12.591446 3.8856645 2.5614202 13 13
12.360473 3.8096623 -0.67785537 16 6
12.524588 3.8578515 3.0255916 65 14
12.369901 3.8054776 -0.22590394 20 7
12.531356 3.8503666 3.5126922 83 15
3.1861722 0.96985453 -0.89240813 6 0
12.893286 3.91974 0.23522353 11 8
3.7608607 1.1426356 -0.90745258 6 1
12.963718 3.9337387 0.70998967 6 9
4.5280676 1.3722808 -0.91969937 3 2
12.54898 3.8007157 1.1471438 2 10
5.657176 1.7112361 -0.93610394 2 3
12.477158 3.7694492 1.6003884 12 11
9.1274652 2.7557468 -1.1706771 3 4
12.508834 3.771873 2.0693154 40 12
11.219505 3.3788273 -1.0251257 18 5
12.640826 3.8044548 2.5659995 9 13
12.373378 3.7192588 -0.67712265 15 6
12.544405 3.7658935 3.023792 65 14
12.396165 3.7190328 -0.22590394 36 7
12.543128 3.7583456 3.5085511 83 15
3.2021251 0.95033693 -0.89499629 7 0
12.763123 3.7830338 0.23236135 9 8
3.7743506 1.118014 -0.90880221 5 1
12.782107 3.7813816 0.69858038 4 9
4.5601311 1.3473132 -0.92427886 5 2
12.46629 3.680855 1.1372081 4 10
5.661407 1.6694622 -0.93485248 2 3
12.484124 3.6766477 1.5979509 13 11
9.1122046 2.681865 -1.1662897 3 4
12.502641 3.6749887 2.0639966 53 12
11.326937 3.3251109 -1.0327955 7 5
12.612444 3.7000911 2.5549326 9 13
12.385625 3.6288548 -0.67638999 16 6
12.562911 3.6760302 3.0219924 65 14
12.406472 3.6279106 -0.22562471 24 7
12.550516 3.6652708 3.5033746 81 15
3.1956913 0.92420191 -0.89137286 6 0
12.556759 3.6267035 0.22813785 4 8
3.7633407 1.0862327 -0.90430319 5 1
12.574062 3.6245632 0.68581045 3 9
4.5581064 1.3121837 -0.92198914 5 2
12.606566 3.626785 1.1476668 2 10
5.6805172 1.6320822 -0.93610394 2 3
12.484683 3.5822856 1.5947824 13 11
9.1345205 2.6192832 -1.1667771 3 4
12.539388 3.5908773 2.0658739 51 12
11.278997 3.225683 -1.0263461 10 5
12.670059 3.6211209 2.5614202 9 13
12.385692 3.535166 -0.67502922 15 6
12.565778 3.5818305 3.0165937 63 14
12.41996 3.5379157 -0.22541527 30 7
12.572081 3.5765111 3.5023394 83 15
3.2243795 0.90815395 -0.8975845 7 0
12.635672 3.5541131 0.22911519 16 8
3.7802126 1.0625699 -0.90655273 6 1
12.679823 3.5593622 0.69020665 19 9
4.5766082 1.2829798 -0.92389715 3 2
12.61815 3.534924 1.1464466 9 10
5.6765547 1.5881274 -0.93360102 1 3
12.507476 3.4945042 1.5945386 12 11
9.1239052 2.547441 -1.1631211 4 4
12.535608 3.49529 2.0611808 57 12
11.270533 3.1383109 -1.0235571 16 5
12.691248 3.5315263 2.560657 12 13
12.40622 3.4475479 -0.67481989 15 6
12.5717 3.4888065 3.0120945 66 14
12.423159 3.4452496 -0.22503133 27 7
12.578126 3.4834983 3.4971633 78 15
3.2138724 0.88102639 -0.89292574 7 0
12.662107 3.4663346 0.2291501 17 8
3.7894177 1.0366691 -0.90700263 5 1
12.669683 3.4612794 0.68832254 14 9
4.5646191 1.2453138 -0.91969937 5 2
12.682888 3.4577522 1.1501071 11 10
5.6932216 1.5500154 -0.93453962 2 3
12.516241 3.4029403 1.5925888 12 11
9.1625385 2.4894071 -1.1658022 3 4
12.54064 3.4025171 2.0580521 55 12
11.397934 3.0882084 -1.0331441 13 5
12.709908 3.4412992 2.5595119 9 13
12.418418 3.3577244 -0.67419189 15 6
12.580699 3.3968906 3.0084953 69 14
12.433393 3.354789 -0.22478701 27 7
12.589082 3.3920832 3.4935398 77 15
3.2068789 0.85508221 -0.88930225 6 0
12.658944 3.3706489 0.22866142 17 8
3.7946804 1.0096859 -0.90655273 6 1
12.70126 3.3747954 0.68874127 19 9
4.5769963 1.2144256 -0.92046267 3 2
12.643167 3.3522739 1.1443549 9 10
5.6981745 1.5087174 -0.93360102 2 3
12.539695 3.3154712 1.5925888 13 11
9.1854515 2.4269054 -1.1665335 3 4
12.548809 3.3108528 2.0555491 57 12
12.380612 3.2618542 -1.1201255 53 5
12.712738 3.3469853 2.5553141 12 13
12.429966 3.2678986 -0.67356384 15 6
12.604105 3.308984 3.0084953 73 14
12.439103 3.263339 -0.22447285 25 7
12.590031 3.2982371 3.4873281 77 15
3.2183805 0.83412713 -0.89085519 7 0
12.655062 3.2751822 0.22817276 20 8
3.8091834 0.98512107 -0.90835232 6 1
12.69937 3.2795558 0.68738055 17 9
4.5929675 1.1844034 -0.92198914 3 2
12.702916 3.2733784 1.1476668 11 10
5.7028298 1.4674205 -0.93266243 2 3
12.533697 3.220437 1.5889326 11 11
9.2079391 2.3641963 -1.1672646 3 4
12.56779 3.2221835 2.0549233 57 12
11.451521 2.9317362 -1.0341899 6 5
12.699658 3.2489073 2.5480635 27 13
12.440865 3.1780813 -0.67293578 16 6
12.619348 3.2189775 3.0066957 69 14
12.457706 3.1754363 -0.22440305 29 7
12.597772 3.2064497 3.4831867 74 15
3.2203784 0.81069672 -0.88981992 7 0
12.588408 3.1643286 0.22656713 24 8
3.7876172 0.95138472 -0.90160388 5 1
12.607657 3.1621501 0.68120486 37 9
4.5973153 1.1513535 -0.92122585 5 2
12.590166 3.1507573 1.135465 15 10
5.6995201 1.4242191 -0.93047231 2 3
12.540463 3.1290181 1.5869827 10 11
9.2184429 2.2984147 -1.1665335 3 4
12.578476 3.1315079 2.0530462 57 12
11.463976 2.8497956 -1.0334928 18 5
12.731554 3.16254 2.5499716 12 13
12.443365 3.0863361 -0.67188907 20 6
12.61503 3.1242406 3.0003972 71 14
12.473749 3.0869405 -0.22429833 30 7
12.61985 3.1184225 3.4831867 74 15
3.2334659 0.79002845 -0.89189047 7 0
12.627678 3.0806334 0.2268813 12 8
3.8093131 0.92861116 -0.90520304 6 1
12.637191 3.0759385 0.68162352 11 9
4.5937948 1.1164505 -0.91893619 5 2
12.671875 3.077354 1.1408687 7 10
5.7246814 1.388121 -0.93297523 3 3
12.552357 3.0390575 1.5857641 11 11
9.2130384 2.2288716 -1.1638523 3 4
12.58851 3.0408344 2.0511689 60 12
12.757141 3.0745001 2.5507348 9 13
12.4549 2.9970536 -0.67136574 16 6
12.617585 3.0315485 2.9958982 72 14
12.47944 2.9960475 -0.2240191 28 7
12.633798 3.0284481 3.4811163 77 15
3.2332633 0.76609915 -0.89033753 6 0
12.648877 2.9924006 0.2268813 12 8
3.8081174 0.90020132 -0.90340346 5 1
12.671963 2.9908569 0.6823563 13 9
4.5938334 1.0825514 -0.91740966 5 2
12.665898 2.9824257 1.1384282 9 10
5.7303877 1.3472174 -0.93234956 2 3
12.580997 2.9531658 1.5867389 12 11
9.2303076 2.1649513 -1.164096 3 4
12.586354 2.9474649 2.0474145 57 12
11.797538 2.7584031 -1.0599881 39 5
12.778296 2.9853573 2.5507348 11 13
12.471628 2.9091275 -0.67115635 16 6
12.623259 2.9398513 2.9922991 69 14
12.478628 2.903872 -0.22363515 27 7
12.64146 2.9371135 3.4774928 78 15
3.2291186 0.74134672 -0.88774931 7 0
12.659715 2.901788 0.22670676 13 8
3.8219073 0.87533396 -0.90520304 5 1
12.643858 2.8911867 0.67973948 11 9
4.6031938 1.0508909 -0.91779137 5 2
12.670871 2.8903835 1.1370338 9 10
5.7300224 1.3049856 -0.93078518 2 3
12.616793 2.868783 1.5886889 15 11
9.2416906 2.0979664 -1.1636086 3 4
12.602771 2.8586559 2.0467887 57 12
11.295733 2.5580387 -1.0132726 10 5
12.776351 2.8886523 2.5461555 8 13
12.485789 2.820668 -0.67084235 16 6
12.647277 2.85251 2.9931986 66 14
12.499089 2.8144968 -0.22363515 24 7
12.646582 2.8453896 3.4733517 81 15
3.2324548 0.71780348 -0.88723171 7 0
12.664046 2.8098705 0.22642753 13 8
3.8261704 0.847543 -0.90475315 6 1
12.699326 2.808398 0.68162352 13 9
4.6123343 1.0191548 -0.91817296 5 2
12.687339 2.7987807 1.1366851 9 10
5.7218513 1.2601253 -0.92796934 2 3
12.648146 2.783191 1.5901513 17 11
9.2367249 2.0291369 -1.1611712 3 4
12.615187 2.7667005 2.0455372 57 12
11.694775 2.5627072 -1.0474377 13 5
12.7847 2.7968626 2.5438657 9 13
12.499799 2.7299709 -0.67052829 20 6
12.663077 2.763309 2.9922991 69 14
12.518432 2.727174 -0.22363515 33 7
12.659066 2.7531836 3.4712813 81 15
3.2468314 0.69724572 -0.88981992 7 0
12.668186 2.7158232 0.22614828 13 8
3.8129392 0.81672716 -0.90025413 6 1
12.630733 2.7008779 0.67691332 9 9
4.6233492 0.98694324 -0.91893619 5 2
12.687083 2.705982 1.1349421 9 10
5.7421012 1.2226197 -0.92984658 2 3
12.652204 2.6893098 1.5882014 17 11
9.256834 1.9642246 -1.1619024 3 4
12.634193 2.6785686 2.0455372 60 12
11.293733 2.3902593 -1.0099607 12 5
12.792861 2.7028708 2.5415759 8 13
12.485332 2.6356266 -0.66874892 16 6
12.671084 2.6702123 2.9895995 67 14
12.516101 2.6329961 -0.22325119 24 7
12.674199 2.663939 3.4702461 83 15
3.2555206 0.67477977 -0.89085519 7 0
12.684877 2.6269169 0.22611338 15 8
3.8339529 0.79257762 -0.9038533 6 1
12.714286 2.6237459 0.68036753 13 9
4.6262813 0.95384711 -0.91817296 5 2
12.715879 2.6171341 1.1358136 10 10
5.7545733 1.1822939 -0.93047231 2 3
12.67845 2.6025121 1.5891764 24 11
9.2683744 1.8991578 -1.1616586 3 4
12.637555 2.5849249 2.0430343 59 12
11.833291 2.418273 -1.0566761 12 5
12.815265 2.6142848 2.5423391 9 13
12.503874 2.546216 -0.66874892 15 6
12.67032 2.5778072 2.9851005 66 14
12.536138 2.5459511 -0.22328609 25 7
12.692936 2.5731823 3.4702461 85 15
3.2562497 0.65184605 -0.88981992 7 0
12.687222 2.5351613 0.22583415 13 8
3.8354368 0.76570117 -0.90295357 6 1
12.667212 2.5242667 0.67691332 9 9
4.6212745 0.91922826 -0.91588324 5 2
12.661093 2.516156 1.129364 7 10
5.7683005 1.1442466 -0.93141097 2 3
12.700202 2.5147135 1.5896639 17 11
9.267457 1.8333249 -1.1599525 3 4
12.639353 2.4957886 2.0405314 57 12
11.492162 2.2650893 -1.0247772 7 5
12.834688 2.5273724 2.5427208 9 13
12.526794 2.4622014 -0.66906291 20 6
12.684183 2.4885387 2.9842007 64 14
12.543365 2.458638 -0.22311155 47 7
12.694988 2.4837568 3.4661047 81 15
3.2569273 0.62836534 -0.88878465 7 0
12.690866 2.4438729 0.22558981 12 8
3.8426025 0.7392742 -0.90340346 6 1
12.723755 2.4432983 0.67900676 13 9
4.6217942 0.88583672 -0.91473836 6 2
12.721402 2.435941 1.133199 10 10
5.7586856 1.1006136 -0.92859513 2 3
12.725248 2.4274759 1.5906389 21 11
9.2878294 1.7700675 -1.1609274 4 4
12.648705 2.4060118 2.0392799 57 12
11.388292 2.1621344 -1.0141442 16 5
12.836589 2.4347873 2.5396678 12 13
12.543679 2.3746877 -0.66906291 20 6
12.705077 2.4006493 2.9851005 66 14
12.538609 2.3669286 -0.22272763 38 7
12.704426 2.3936379 3.4640343 83 15
3.2536373 0.6042015 -0.8867141 7 0
