# .PCD v0.7 - Point Cloud Data file format
VERSION 0.7
FIELDS x y z intensity ring
SIZE 4 4 4 4 2
TYPE F F F F U
COUNT 1 1 1 1 1
WIDTH 1250
HEIGHT 1
VIEWPOINT 0 0 0 1 0 0 0
POINTS 1250
DATA ascii
-3.3710756 -8.1910162 1.4029044 21 12
-3.1168807 -7.5658674 -0.71589726 10 5
-3.320894 -8.0531044 1.6932391 37 13
-3.3189042 -8.0442953 -0.45605558 16 6
-3.5690627 -8.6420679 2.1586304 8 14
-3.4003875 -8.2254992 -0.15536132 20 7
-5.1729016 -12.507008 3.6265726 27 15
-1.1977547 -2.8745925 -0.83443266 21 0
-3.4670091 -8.3125935 0.15721127 16 8
-1.3365717 -3.2030265 -0.80127567 1 1
-3.522557 -8.4333439 0.47897872 16 9
-1.6115673 -3.854466 -0.81208313 11 2
-3.6014113 -8.6094513 0.81647497 10 10
-1.958482 -4.6773157 -0.80313462 7 3
-3.292645 -7.8559122 1.0458828 8 11
-2.3943217 -5.7098103 -0.76022106 11 4
-3.3861282 -8.0671034 1.3856968 9 12
-3.1659932 -7.5389652 -0.71537429 10 5
-3.3626983 -7.9995461 1.6867516 25 13
-3.3556178 -7.9749055 -0.45343879 27 6
-3.6943409 -8.7756281 2.1982217 5 14
-3.4159181 -8.1063395 -0.15354627 13 7
-5.2435713 -12.431429 3.6151845 8 15
-1.2238373 -2.8803849 -0.83857375 18 0
-3.4695318 -8.1618204 0.15480286 20 8
-1.3207501 -3.1039596 -0.77878052 1 1
-3.5454562 -8.3283129 0.47437313 30 9
-1.6408449 -3.8506317 -0.81360966 11 2
-3.3174851 -7.7777362 0.73977798 15 10
-1.9848471 -4.6511588 -0.80094457 9 3
-3.3499398 -7.8424444 1.0471015 20 11
-2.4286618 -5.6801796 -0.75851488 13 4
-3.5000062 -8.1818981 1.4094746 9 12
-3.2138417 -7.5056896 -0.71432841 10 5
-3.4022222 -7.9379802 1.6787376 24 13
-3.3649566 -7.8472505 -0.44747245 19 6
-3.5656655 -8.3073072 2.087096 2 14
-3.4313807 -7.9867549 -0.15173122 21 7
-3.639015 -8.4659653 2.4691339 10 15
-1.2418799 -2.8684421 -0.83753842 16 0
-3.4413476 -7.9410734 0.15106803 27 8
-1.3325453 -3.0734427 -0.77338171 1 1
-3.4794734 -8.0175419 0.45804435 12 9
-1.6723802 -3.8498869 -0.81589925 11 2
-3.5029716 -8.0601301 0.76888794 24 10
-2.0109646 -4.6226974 -0.79844159 10 3
-3.3229809 -7.6314044 1.0219964 32 11
-2.459342 -5.6453171 -0.75607747 9 4
-3.155936 -7.2374215 1.2505373 6 12
-3.2608738 -7.4745097 -0.71345693 10 5
-3.4860303 -7.9830084 1.6932391 36 13
-3.3732631 -7.717423 -0.44140148 10 6
-3.5510755 -8.1203661 2.0461547 13 14
-3.4183087 -7.8093348 -0.14879921 26 7
-4.6663394 -10.650416 3.1156638 23 15
-1.2626551 -2.8614697 -0.83805609 14 0
-3.5001659 -7.928442 0.15127745 24 8
-1.3248265 -2.9981134 -0.75673532 12 1
-1.695369 -3.8312325 -0.81437284 12 2
-3.4139171 -7.7075753 0.73751193 9 10
-2.0423837 -4.608902 -0.79844159 11 3
-3.2742398 -7.381784 0.99152911 7 11
-2.4930537 -5.6153102 -0.75437129 11 4
-3.2732863 -7.3692222 1.2771312 39 12
-3.3056903 -7.4351778 -0.71188807 11 5
-3.540081 -7.9548898 1.6924759 32 13
-3.3875353 -7.6085272 -0.43648189 15 6
-3.4299929 -7.6966605 1.9453768 8 14
-3.4564521 -7.7487555 -0.14810112 23 7
-6.1534934 -13.788581 4.0458593 22 15
-1.2765596 -2.8404744 -0.83443266 13 0
-3.5078504 -7.798039 0.14925298 23 8
-1.3332065 -2.9623702 -0.74998683 5 1
-3.4313653 -7.6173482 0.43784264 18 9
-1.7172326 -3.8085654 -0.81208313 11 2
-3.6563709 -8.1055059 0.77795213 19 10
-2.0745103 -4.5945311 -0.79844159 10 3
-3.3096993 -7.3267627 0.98714179 25 11
-2.5271292 -5.5891666 -0.75315261 9 4
-3.4085431 -7.5315561 1.3093567 32 12
-3.3323913 -7.3598685 -0.70683306 14 5
-3.1484225 -6.9471059 1.482586 7 13
-3.4116907 -7.5210323 -0.43281841 23 6
-4.1676493 -9.1832724 2.3282435 8 14
-3.4619744 -7.6212716 -0.14611155 20 7
-6.2943649 -13.850142 4.0764003 5 15
-1.2942566 -2.8282063 -0.83339739 11 0
-3.5208762 -7.6867156 0.14757755 23 8
-1.3379149 -2.9195669 -0.74143869 2 1
-3.6030419 -7.8552327 0.4529154 28 9
-1.7480316 -3.8074934 -0.81437284 11 2
-3.6865094 -8.0261145 0.77272278 15 10
-2.1024351 -4.5731249 -0.79719013 9 3
-3.400969 -7.3942385 0.99932873 21 11
-2.5601349 -5.5610161 -0.75169015 9 4
-3.4117801 -7.4041243 1.2912103 30 12
-3.3340316 -7.2320714 -0.69672298 13 5
-3.1956363 -6.9255147 1.482586 5 13
-3.4242847 -7.414228 -0.42800349 23 6
-3.500936 -7.5767231 1.9269307 6 14
-3.4785156 -7.5213003 -0.14464554 27 7
-4.776566 -10.323236 3.0478532 16 15
-1.3126613 -2.8175797 -0.83287972 11 0
-3.5393121 -7.5900779 0.14618136 24 8
-1.3437501 -2.8803701 -0.73379034 1 1
-3.6031909 -7.7165155 0.4463211 16 9
-1.7739079 -3.7955067 -0.81437284 11 2
-3.4186821 -7.311388 0.70613581 10 10
-2.1335146 -4.5587082 -0.79719013 9 3
-3.5299785 -7.5356979 1.0217527 17 11
-2.5962422 -5.5398664 -0.7512027 8 4
-3.4075718 -7.2644839 1.2708738 10 12
-3.3628654 -7.1659231 -0.69253951 13 5
-3.4398308 -7.3166428 -0.42371196 21 6
-3.4947095 -7.4232702 -0.14321445 29 7
-4.9390965 -10.48187 3.1047933 3 15
-1.3306438 -2.8048563 -0.83184445 7 0
-3.5557384 -7.491744 0.14475027 25 8
-1.3471024 -2.8357143 -0.7247923 1 1
-3.6041903 -7.5835762 0.44004074 23 9
-1.8064482 -3.7975283 -0.81742579 11 2
-3.6863341 -7.7424655 0.75023663 34 10
-2.1560009 -4.5262465 -0.79406142 9 3
-3.7383802 -7.8411984 1.0666007 15 11
-2.6280148 -5.5072737 -0.7492528 8 4
-3.4620469 -7.2518167 1.272751 23 12
-3.3861821 -7.0865421 -0.68713588 16 5
-3.4441373 -7.2013679 1.5516587 8 13
-3.4404173 -7.1903648 -0.41774565 16 6
-3.5127366 -7.3283658 -0.14185315 24 7
-4.4038782 -9.1833773 2.7289882 0 15
-1.3455056 -2.7870352 -0.8292563 1 0
-3.5679328 -7.3839135 0.14314464 29 8
-1.3646771 -2.8229704 -0.72389251 1 1
-3.630949 -7.5042939 0.43690062 23 9
-1.8243587 -3.7671545 -0.81360966 10 2
-3.7068057 -7.6508517 0.74378711 9 10
-2.1892703 -4.5146399 -0.79468721 11 3
-3.474056 -7.1577129 0.97690481 13 11
-2.6645725 -5.4874725 -0.74900907 7 4
-3.5117266 -7.2256942 1.2724382 29 12
-3.3916507 -6.9755301 -0.67859459 22 5
-3.4965124 -7.1848187 1.5531853 22 13
-3.4459269 -7.0745964 -0.4124074 12 6
-3.4829333 -7.1474023 1.8356007 6 14
-3.5213375 -7.2198119 -0.14021264 30 7
-4.9390783 -10.117647 3.0167949 13 15
-1.3478895 -2.7428975 -0.81890345 1 0
-3.5845857 -7.2912626 0.14181826 25 8
-1.3723065 -2.7888949 -0.71759385 1 1
-3.6466606 -7.4077287 0.43271375 31 9
-1.8482234 -3.751127 -0.81284636 11 2
-3.7081368 -7.5193586 0.73350269 11 10
-2.2216976 -4.5031762 -0.79531288 10 3
-3.6492586 -7.3902087 1.0120032 26 11
-2.6887448 -5.4402633 -0.74510926 8 4
-3.5336854 -7.1467304 1.2627392 12 12
-3.3960795 -6.8623981 -0.66987902 16 5
-3.7940636 -7.6598663 1.6615648 9 13
-3.4753797 -7.0133953 -0.41020927 21 6
-3.5136969 -7.0845041 1.8257027 1 14
-3.5245297 -7.1001225 -0.13836268 25 7
-5.0190029 -10.106286 3.023524 15 15
-1.35789 -2.7163796 -0.81372708 1 0
-3.5673976 -7.1301465 0.13916549 26 8
-1.3964911 -2.7899454 -0.72029328 1 1
-3.6464007 -7.2785196 0.42664275 27 9
-1.8761261 -3.7416422 -0.81360966 10 2
-3.7181396 -7.4120235 0.72548437 18 10
-2.2530813 -4.487556 -0.79531288 9 3
-3.6677842 -7.2989235 1.0029848 22 11
-2.72928 -5.4289293 -0.74608415 10 4
-3.4680679 -6.8924894 1.2220662 6 12
-3.4080591 -6.767343 -0.66290659 16 5
-3.9079478 -7.7565961 1.6882781 38 13
-3.4819901 -6.9051447 -0.40528968 20 6
-6.4842935 -12.847866 3.3225269 9 14
-3.5259106 -6.9831433 -0.13654763 20 7
-4.4516211 -8.8088942 2.644613 6 15
-1.3768208 -2.7068336 -0.81372708 1 0
-3.5935006 -7.0587339 0.13825797 22 8
-1.4194721 -2.7870741 -0.72209287 1 1
-3.6653771 -7.1906075 0.42297927 26 9
-1.9057708 -3.7354486 -0.81513608 10 2
-3.7299407 -7.3078027 0.71781468 20 10
-2.2771666 -4.457644 -0.79280996 9 3
-3.7005754 -7.2377911 0.99811 13 11
-2.7680182 -5.4115105 -0.74632788 8 4
-3.5800149 -6.9929528 1.2442799 16 12
-3.4370499 -6.707922 -0.65942037 23 5
-3.7013929 -7.2207208 1.5772274 20 13
-3.5018494 -6.8255792 -0.40204483 29 6
-5.5412455 -10.791364 2.8006406 6 14
-3.5517309 -6.9138899 -0.135675 29 7
-4.5350943 -8.8205538 2.6575541 5 15
-1.3956845 -2.6971555 -0.81372708 1 0
-3.617862 -6.9855313 0.13731554 29 8
-1.4388949 -2.7770963 -0.72209287 1 1
-3.6704345 -7.0779634 0.41785032 23 9
-1.8892947 -3.6401539 -0.79719996 8 2
-3.6679363 -7.0640936 0.69637436 16 10
-2.3064084 -4.4381328 -0.79218423 10 3
-3.6142337 -6.9517655 0.96203667 18 11
-2.7938185 -5.3691626 -0.74315935 11 4
-3.6752801 -7.0571427 1.2602363 13 12
-3.4531705 -6.6278286 -0.65384239 18 5
-3.7716827 -7.2330012 1.5856228 33 13
-3.5115283 -6.7283707 -0.3977533 23 6
-3.7917526 -7.2622128 1.8913884 2 14
-3.5563838 -6.8056278 -0.13403448 24 7
-4.6460447 -8.8870649 2.6870596 4 15
-1.3690363 -2.6021099 -0.78784519 1 0
-3.6066301 -6.8492727 0.13511653 20 8
-1.6466838 -3.1258578 -0.81567252 3 1
-3.6794052 -6.9786129 0.41345412 21 9
-1.7839227 -3.3806498 -0.74301028 25 2
-3.6601262 -6.9332457 0.68591571 41 10
-2.3439472 -4.4363041 -0.79468721 9 3
-3.6392055 -6.8848829 0.95618695 18 11
-2.8228731 -5.3359838 -0.74120939 7 4
-3.6326466 -6.8608775 1.229575 16 12
-3.4655621 -6.5425482 -0.64774144 24 5
-3.5338407 -6.6602054 -0.39513651 19 6
-3.843838 -7.2413983 1.8927382 33 14
-3.5763569 -6.7318168 -0.13305715 36 7
-4.9349055 -9.2851162 2.8175042 11 15
-1.3721383 -2.565475 -0.77956301 1 0
-3.6257985 -6.7734385 0.1341043 22 8
-1.6927621 -3.1609604 -0.82781988 15 1
-3.6749279 -6.8565874 0.40769714 23 9
-1.7586348 -3.2784655 -0.72316611 23 2
-3.7439759 -6.9766402 0.69271386 18 10
-2.3759589 -4.4237261 -0.79531288 9 3
-3.7799435 -7.0348167 0.98056084 21 11
-2.8638296 -5.3253875 -0.74242812 8 4
-3.7148383 -6.9020896 1.241464 21 12
-3.4353948 -6.3802214 -0.63397086 36 5
-3.5289192 -6.5484385 1.4459506 14 13
-3.5326364 -6.549861 -0.39000759 24 6
-5.2977524 -9.8184605 2.5756896 4 14
-3.5707846 -6.6123033 -0.13117228 32 7
-1.3757288 -2.5306168 -0.77179843 8 0
-3.6479273 -6.7046881 0.13323167 31 8
-1.7244865 -3.1681931 -0.8327688 13 1
-3.6832955 -6.7612581 0.40351027 51 9
-1.77621 -3.2578006 -0.72125804 30 2
-3.7179177 -6.8163104 0.67929184 34 10
-2.4041226 -4.4039836 -0.79468721 9 3
-3.7354484 -6.8399301 0.95691812 13 11
-2.901916 -5.3092537 -0.74291557 8 4
-3.8337827 -7.0083537 1.2652421 19 12
-3.4758747 -6.3514466 -0.63344789 20 5
-3.5620942 -6.503603 1.4413712 4 13
-3.5416164 -6.4608622 -0.38613471 23 6
-3.5964677 -6.552784 -0.13047419 26 7
-3.3286483 -6.0623064 1.8531444 2 15
-1.4144094 -2.5600855 -0.7837041 1 0
-3.648001 -6.5974522 0.13159114 28 8
-1.7422386 -3.1495607 -0.83096921 13 1
-3.7108529 -6.7028308 0.4015215 21 9
-1.8031017 -3.2542214 -0.72316611 32 2
-3.7449083 -6.7559948 0.67580563 45 10
-2.428293 -4.3771534 -0.79280996 9 3
-3.787698 -6.82476 0.95838058 9 11
-2.9408784 -5.2945848 -0.7436468 10 4
-3.5042002 -6.3035688 1.1422846 3 12
-3.4812596 -6.2597327 -0.6266498 25 5
-3.8067884 -6.839448 1.5215111 14 13
-3.534971 -6.3458753 -0.38069177 19 6
-4.7716227 -8.5623608 2.2630076 10 14
-3.5903378 -6.4373374 -0.12865914 22 7
-5.2703104 -9.4455891 2.8982558 14 15
-1.4318026 -2.5503988 -0.7837041 1 0
-3.6604981 -6.5149384 0.13043928 31 8
-1.7531332 -3.1189423 -0.8260203 12 1
-3.717222 -6.6077876 0.39733464 22 9
-1.8252107 -3.2418725 -0.72316611 35 2
-3.7741864 -6.7008362 0.67284232 19 10
-1.876989 -3.3297603 -0.60540146 1 3
-3.7784851 -6.7002616 0.94448751 19 11
-2.9817281 -5.2830882 -0.74486554 9 4
-3.1681314 -5.6087871 1.0202657 0 12
-3.4904611 -6.1769147 -0.62072319 24 5
-3.6792915 -6.5057764 1.4528197 18 13
-3.5436499 -6.2608323 -0.37702829 24 6
-4.7510567 -8.3906317 2.2261157 16 14
-3.6143537 -6.3779545 -0.12796104 32 7
-5.2677879 -9.2918587 2.8620212 3 15
-1.4385228 -2.5199554 -0.77749246 1 0
-3.674289 -6.4312797 0.12928744 29 8
-1.7744398 -3.104625 -0.82557034 13 1
-3.7306921 -6.5220747 0.39377576 23 9
-1.8405591 -3.2150981 -0.72011316 31 2
-3.7764924 -6.5941267 0.66482401 17 10
-1.8899628 -3.2973917 -0.60195988 25 3
-3.781899 -6.5955582 0.93351924 9 11
-1.9079093 -3.3246665 -0.47065943 9 4
-3.2042508 -5.5791211 1.0190142 0 12
-3.5167065 -6.1206837 -0.6175856 18 5
-3.8471053 -6.6903224 1.5001404 12 13
-3.5574777 -6.1816506 -0.37378344 21 6
-4.8041706 -8.3445978 2.2229664 20 14
-3.6239591 -6.2895522 -0.12670447 28 7
-5.3032737 -9.2003641 2.8454566 2 15
-1.4808397 -2.5535557 -0.79095107 1 0
-3.6728106 -6.3282924 0.12771671 25 8
-1.8014015 -3.102587 -0.82826978 13 1
-3.7348621 -6.427454 0.38958889 23 9
-1.8426617 -3.1685526 -0.71248084 25 2
-3.7822132 -6.5011053 0.6580258 23 10
-1.904412 -3.2707937 -0.59945697 43 3
-3.8666701 -6.6382761 0.94326878 8 11
-1.905502 -3.2687285 -0.46456599 30 4
-3.2650473 -5.5964241 1.0262102 5 12
-1.921254 -3.2917879 -0.33345786 27 5
-3.8559172 -6.6012568 1.4860206 10 13
-6.0541849 -10.352199 2.7686975 6 14
-3.6262829 -6.1957064 -0.12530828 24 7
-3.5755556 -6.1065907 1.8961084 9 15
-1.588392 -2.6965544 -0.83857375 4 0
-3.6843195 -6.2497439 0.12663467 31 8
-1.8284181 -3.1003249 -0.83096921 13 1
-3.74807 -6.3502822 0.38644874 24 9
-1.856198 -3.1424139 -0.70942789 15 2
-3.8020508 -6.4340429 0.65384239 24 10
-1.9155697 -3.2390523 -0.59601539 47 3
-3.8876426 -6.5684128 0.93717533 6 11
-1.9246724 -3.2505584 -0.46383476 40 4
-3.7058766 -6.2538352 1.1513578 9 12
-1.9258949 -3.2474484 -0.33032027 44 5
-3.5591695 -5.9990931 1.3558888 3 13
-1.9516799 -3.2870035 -0.20034206 34 6
-4.9327025 -8.3010197 2.229265 6 14
-3.6813157 -6.187736 1.9292372 9 15
-1.6250356 -2.7152379 -0.84789127 12 0
-3.693953 -6.1672587 0.12548281 28 8
-1.8450099 -3.0791266 -0.82871968 13 1
-3.7604699 -6.2708621 0.38320392 40 9
-1.878091 -3.1293786 -0.70942789 15 2
-3.8099561 -6.3458486 0.64756715 20 10
-1.9289794 -3.2103612 -0.59319955 54 3
-3.8689551 -6.4339352 0.92181975 6 11
-1.9452722 -3.2336404 -0.46334729 57 4
-1.9495468 -3.2356308 -0.33049458 51 5
-3.7215691 -6.1741896 1.4013014 12 13
-1.9725161 -3.2698784 -0.20013271 62 6
-4.8878031 -8.0962152 2.1833749 7 14
-1.9714679 -3.2642736 -0.06656348 44 7
-5.6311045 -9.3164015 2.9168906 3 15
-1.6459594 -2.7071283 -0.84892654 11 0
-3.6922207 -6.0678625 0.1239819 23 8
-1.8644338 -3.0628421 -0.82781988 12 1
-3.7688274 -6.1864629 0.37964505 26 9
-1.9111336 -3.1346304 -0.71362567 26 2
-3.8240793 -6.2697678 0.64251208 23 10
-1.9585485 -3.2086191 -0.59538966 54 3
-3.8527229 -6.3068218 0.90743923 10 11
-1.9709052 -3.2250626 -0.46407849 58 4
-3.8505504 -6.2958536 1.1688784 18 12
-1.9767252 -3.2307832 -0.33136615 58 5
-3.7122967 -6.0626678 1.3818389 4 13
-1.9848604 -3.2389984 -0.199086 48 6
-3.7542048 -6.1239076 1.6583391 3 14
-2.0109396 -3.2777023 -0.067121953 46 7
-3.7289388 -6.0731745 1.909567 10 15
-1.668879 -2.7021456 -0.85099703 12 0
-3.7103131 -6.0051651 0.12321399 31 8
-1.887821 -3.0530665 -0.82871968 11 1
-3.7677705 -6.0910268 0.37535352 18 9
-1.9386264 -3.1315646 -0.71591538 31 2
-3.8499193 -6.2141252 0.63954884 23 10
-1.9897101 -3.210324 -0.59820545 45 3
-3.8714972 -6.241652 0.90183324 9 11
-1.9965123 -3.2162848 -0.46480972 49 4
-3.8266211 -6.1620975 1.1488549 15 12
-2.0076454 -3.230442 -0.3327606 45 5
-3.6850605 -5.9249067 1.3562704 20 13
-2.0205784 -3.2474582 -0.20044672 22 6
-6.0074129 -9.6475601 2.6238291 23 14
-3.6540234 -5.8635888 -0.12059613 21 7
-3.8233364 -6.1328998 1.9364842 3 15
-1.6790229 -2.6776297 -0.84685594 12 0
-3.7255731 -5.9367704 0.12234137 34 8
-1.9106311 -3.0434465 -0.82961947 12 1
-3.7730138 -6.0053825 0.37169001 21 9
-1.9656667 -3.1262643 -0.71782345 33 2
-3.8496945 -6.120316 0.63257635 19 10
-2.0225966 -3.2130733 -0.60133415 33 3
-3.8800416 -6.1614032 0.89403361 7 11
-2.0321178 -3.2244525 -0.46797833 31 4
-3.8126407 -6.0450096 1.1319599 7 12
-2.0487249 -3.2470319 -0.33589822 7 5
-3.6126773 -5.7168989 -0.35441914 16 6
-6.2083135 -9.8205805 2.6823163 17 14
-3.6756756 -5.8098531 -0.12000275 32 7
-3.8257334 -6.0447021 1.9168139 19 15
-1.6951346 -2.6628802 -0.84582067 12 0
-3.7293663 -5.8539319 0.12115461 21 8
-1.9386334 -3.0418746 -0.8327688 22 1
-3.7848055 -5.9340954 0.36886385 19 9
-1.9921825 -3.1210864 -0.71973157 28 2
-3.8355067 -6.0066495 0.62351215 19 10
-2.0518663 -3.2108831 -0.60352427 16 3
-3.8940911 -6.0913634 0.88769639 9 11
-3.2810814 -5.1285124 -0.74754661 6 4
-3.244436 -5.0673366 0.95299888 6 12
-3.5816844 -5.5919199 -0.58098018 29 5
-3.7780893 -5.8940272 1.3608499 22 13
-3.6256254 -5.6518297 -0.35190701 20 6
-3.7911108 -5.9075313 1.6205474 3 14
-3.678396 -5.7274909 -0.11881598 24 7
-3.8229311 -5.9502592 1.8950732 12 15
-1.7111241 -2.6480348 -0.84478539 11 0
-3.7289474 -5.766283 0.11986313 27 8
-1.9518845 -3.0171549 -0.82961947 15 1
-3.802316 -5.8729882 0.36666575 20 9
-2.016583 -3.1123972 -0.7208764 27 2
-3.8470447 -5.9352617 0.61880577 15 10
-2.7068486 -4.172965 -0.78780407 10 3
-3.9149048 -6.0307288 0.88282162 7 11
-3.3094273 -5.0960708 -0.74608415 10 4
-3.8084641 -5.8600416 1.1069304 18 12
-3.5805676 -5.5072761 -0.57470495 17 5
-3.7785051 -5.8072872 1.34673 19 13
-3.6422143 -5.5935464 -0.34981358 20 6
-3.8078341 -5.8456659 1.6106496 4 14
-3.7009149 -5.6771932 -0.11829241 30 7
-3.9097672 -5.9929986 1.9173316 10 15
-1.7359278 -2.6457157 -0.84789127 12 0
-3.7099538 -5.6521645 0.11801317 20 8
-1.9718306 -3.0018258 -0.82916957 14 1
-3.8125877 -5.8019047 0.3638396 24 9
-2.0420365 -3.10516 -0.72240293 23 2
-3.8412871 -5.8366961 0.61131036 16 10
-2.7351913 -4.1544428 -0.78780407 9 3
-3.8936083 -5.9094567 0.86892849 8 11
-3.3307166 -5.0512991 -0.74291557 8 4
-3.8167207 -5.7861629 1.0978571 10 12
-3.5947802 -5.4455638 -0.5708701 21 5
-3.8914607 -5.8905177 1.3722984 12 13
-3.6394601 -5.5069733 -0.34594071 17 6
-3.411021 -5.1574011 1.4275393 3 14
-3.7062442 -5.599525 -0.11721037 24 7
-3.9654014 -5.9887972 1.9245785 27 15
-1.7592503 -2.6418781 -0.85047942 10 0
-3.7271442 -5.5928454 0.11731508 24 8
-1.9943796 -2.9915774 -0.83006936 13 1
-3.8230715 -5.7302876 0.36101347 26 9
-2.0778368 -3.1120541 -0.72736394 11 2
-3.8167429 -5.7143188 0.60120028 38 10
-2.7641273 -4.1352468 -0.78780407 9 3
-3.9104877 -5.8458314 0.86356628 10 11
-3.3572958 -5.0169616 -0.74120939 8 4
-3.8207488 -5.7052135 1.0875325 23 12
-3.6116335 -5.3888898 -0.56755817 28 5
-3.8964794 -5.8117123 1.3600866 17 13
-3.6488841 -5.4383092 -0.34321922 17 6
-3.7967432 -5.6544123 1.5724078 5 14
-3.699672 -5.5077686 -0.11581416 23 7
-3.9963365 -5.9449348 1.9194021 23 15
-1.780897 -2.6343334 -0.8520323 11 0
-3.7504101 -5.5435019 0.11682641 29 8
-2.0217698 -2.9872642 -0.8327688 13 1
-3.814822 -5.6323504 0.35651258 24 9
-2.1589949 -3.1852283 -0.7479713 11 2
-3.8710797 -5.7089715 0.60346633 29 10
-2.7884924 -4.1093106 -0.78655261 9 3
-3.8876364 -5.7247815 0.84967309 13 11
-3.3955841 -4.9983277 -0.74194062 10 4
-3.8116188 -5.6065226 1.0737664 13 12
-3.6166651 -5.315773 -0.56250316 26 5
-3.9281206 -5.7713842 1.3570337 14 13
-3.6530297 -5.3631821 -0.34007907 14 6
-3.9206417 -5.7517562 1.6070504 6 14
-3.7064888 -5.4355464 -0.11483683 15 7
-3.9756739 -5.8259349 1.8898968 13 15
-1.7970579 -2.6186507 -0.85099703 13 0
-3.7799633 -5.5039973 0.11654717 32 8
-2.0425751 -2.9730773 -0.8327688 13 1
-3.8280237 -5.567729 0.35410511 21 9
-2.2768843 -3.3091736 -0.78079039 10 2
-3.8396735 -5.5784116 0.59248471 39 10
-2.8215952 -4.0962501 -0.78780407 9 3
-3.9062393 -5.6687641 0.84528583 15 11
-3.4360313 -4.9826713 -0.74315935 11 4
-3.8372025 -5.5602655 1.0700119 18 12
-3.5803208 -5.1860971 -0.5513472 17 5
-4.048665 -5.8601184 1.3845102 4 13
-3.6710737 -5.3096204 -0.33829966 22 6
-3.9840882 -5.7601967 1.6169481 3 14
-3.7147536 -5.3667879 -0.11392931 24 7
-3.8612695 -5.5763826 1.8174274 10 15
-1.8181528 -2.611114 -0.85254997 15 0
-3.7773263 -5.4207172 0.1153255 25 8
-2.0694511 -2.9686971 -0.83546823 13 1
-3.8166964 -5.471107 0.34960422 24 9
-2.3847668 -3.4159422 -0.80979347 11 2
-3.8513174 -5.5145769 0.58847558 45 10
-2.8380949 -4.0607586 -0.78467536 9 3
-3.9174359 -5.6029987 0.83943611 12 11
-3.4664526 -4.954289 -0.74242812 9 4
-3.9225485 -5.6019797 1.0831524 8 12
-3.5881035 -5.1224422 -0.54716372 13 5
-3.487812 -4.975565 1.1811076 4 13
-3.6818957 -5.2485375 -0.33599687 22 6
-4.0008159 -5.7010417 1.6079501 3 14
-3.7178698 -5.2939215 -0.11291707 23 7
-3.966881 -5.6463962 1.8490034 26 15
-1.842572 -2.6081448 -0.85565579 14 0
-3.7668064 -5.3279343 0.11389441 26 8
-2.06598 -2.9211302 -0.8260203 34 1
-3.8192332 -5.3960934 0.34646407 26 9
-2.4090979 -3.4012325 -0.81017506 12 2
-3.8760927 -5.4703531 0.58655816 28 10
-2.8656702 -4.0413461 -0.78467536 9 3
-3.7933259 -5.3456292 0.80482519 13 11
-3.4909022 -4.9176288 -0.74047816 9 4
-3.8953805 -5.4833579 1.0653188 15 12
-3.6053064 -5.0712857 -0.54437476 16 5
-3.5147722 -4.9421101 1.1788181 13 13
-3.6874244 -5.1810484 -0.33327541 20 6
-3.4989946 -4.9126601 1.392447 4 14
-3.7259679 -5.2294064 -0.11207936 20 7
-5.6391912 -7.9087734 2.6026845 3 15
-1.861861 -2.5967875 -0.8561734 9 0
-3.7840908 -5.2738872 0.11330102 29 8
-2.0783689 -2.8955541 -0.82287097 24 1
-3.8451586 -5.3530779 0.34541735 25 9
-2.4270544 -3.3763599 -0.80826694 12 2
-3.9106991 -5.4383068 0.58603519 28 10
-2.8926606 -4.0196385 -0.78436255 7 3
-3.9407601 -5.4720469 0.82798034 16 11
-3.5181863 -4.8834739 -0.73901576 9 4
-3.9000635 -5.4095621 1.0562457 15 12
-3.6371257 -5.0411453 -0.54385179 22 5
-3.9961398 -5.5367107 1.3272674 6 13
-3.7047939 -5.1292734 -0.33160067 22 6
-3.4966755 -4.8375735 1.3780502 2 14
-3.7330921 -5.1627555 -0.11120673 27 7
-3.9230194 -5.4214301 1.7930984 12 15
-1.8935833 -2.6024718 -0.86238509 9 0
-3.8043385 -5.2247095 0.11281236 29 8
-2.1329539 -2.9282286 -0.83636802 10 1
-3.8683183 -5.3067355 0.34416127 24 9
-2.4482527 -3.3561616 -0.80750376 10 2
-3.9109859 -5.3593717 0.58045721 27 10
-2.919487 -3.99775 -0.78404963 9 3
-3.949584 -5.4043345 0.82188696 13 11
-3.5521939 -4.8587933 -0.73901576 9 4
-4.0018859 -5.4698868 1.0734534 10 12
-3.6537049 -4.9921551 -0.54123718 24 5
-3.713356 -5.0662336 -0.3291932 25 6
-4.1506166 -5.660727 1.6205474 7 14
-3.7359204 -5.0914254 -0.1102294 19 7
-5.7067595 -7.7716522 2.5835319 6 15
-1.897936 -2.570539 -0.8561734 9 0
-3.8065479 -5.1536546 0.11183503 35 8
-2.1556606 -2.9164009 -0.83726782 10 1
-3.8746643 -5.2401338 0.34154451 24 9
-2.4687047 -3.3362634 -0.80674046 11 2
-3.915107 -5.2871037 0.57557648 23 10
-2.9419272 -3.9714367 -0.78279817 9 3
-3.968545 -5.3534055 0.81823081 27 11
-3.5848455 -4.8322816 -0.73877203 10 4
-4.0072393 -5.3996911 1.0650059 13 12
-3.6611457 -4.9297366 -0.53722799 22 5
-4.0472913 -5.4457097 1.3188719 25 13
-3.6905553 -4.9639053 -0.32416895 19 6
-4.1830549 -5.6222315 1.617848 4 14
-3.7630143 -5.0539923 -0.10998507 26 7
-4.175108 -5.6054206 1.8728148 3 15
-1.9188626 -2.5621996 -0.85772634 14 0
-3.8052571 -5.0773487 0.11075297 23 8
-2.1719551 -2.8969827 -0.83591807 12 1
-3.8692009 -5.1570401 0.33788097 15 9
-2.4990084 -3.3283672 -0.80903018 11 2
-3.9342527 -5.2380295 0.57313615 33 10
-2.96246 -3.9413273 -0.78092092 9 3
-3.9926958 -5.3081188 0.81554973 4 11
-3.6164598 -4.8061833 -0.73852831 13 4
-4.0293913 -5.3510695 1.0609387 10 12
-3.6730373 -4.8760571 -0.5340904 22 5
-3.4059169 -4.5181651 1.0998231 7 13
-3.6914415 -4.8933744 -0.32123813 21 6
-3.4558661 -4.5794334 1.3245119 1 14
-3.7744315 -4.9979415 -0.10932188 24 7
-5.8657842 -7.7615871 2.6068256 6 15
-1.9437164 -2.5579703 -0.86083221 10 0
-3.7925346 -4.9892426 0.10939168 28 8
-2.1815078 -2.8677907 -0.83186901 7 1
-3.8667202 -5.0813127 0.33463615 17 9
-2.521606 -3.3112798 -0.80903018 11 2
-3.9393265 -5.1692338 0.56860405 23 10
-2.9820335 -3.9116454 -0.77904367 9 3
-3.9926131 -5.2334709 0.80823755 5 11
-3.6234245 -4.7461061 -0.73316604 23 4
-3.99738 -5.2340341 1.0431051 11 12
-3.6852119 -4.8218017 -0.53095281 15 5
-3.4254496 -4.478683 1.096007 5 13
-3.6870399 -4.8189621 -0.31799328 20 6
-3.4593182 -4.5180612 1.3137141 8 14
-3.7861233 -4.9413104 -0.10865869 30 7
-5.898499 -7.695416 2.5980256 4 15
-1.9540073 -2.5354993 -0.85772634 20 0
-3.8016274 -4.9293923 0.10865869 32 8
-2.2009776 -2.8528752 -0.83186901 5 1
-3.8703644 -5.0130906 0.33191466 23 9
-2.5374591 -3.2842741 -0.80674046 11 2
-3.9524901 -5.113924 0.56546646 30 10
-3.0116856 -3.8938572 -0.77966946 9 3
-3.9998915 -5.1677942 0.80238777 10 11
-3.642278 -4.7040672 -0.7304849 17 4
-3.9261413 -5.0670271 1.0152597 13 12
-3.6776679 -4.7446399 -0.52520049 20 5
-3.650789 -4.7065697 1.157829 13 13
-3.715694 -4.7867937 -0.31757462 24 6
-6.2007113 -7.9852729 2.3340921 2 14
-3.7681344 -4.8491068 -0.10719268 18 7
-3.8352313 -4.9318981 1.6740416 19 15
-1.970471 -2.5202744 -0.85720873 9 0
-3.812917 -4.8750482 0.10803039 28 8
-2.225646 -2.8435776 -0.83366859 7 1
-3.8896222 -4.9677587 0.33065861 20 9
-2.5621781 -3.2700162 -0.80750376 11 2
-3.9573603 -5.0470095 0.56110865 20 10
-3.0429981 -3.8794837 -0.78092092 9 3
-4.0104604 -5.1092191 0.79751301 11 11
-3.6492772 -4.6457424 -0.72536635 15 4
-3.9471152 -5.0230999 1.0118183 8 12
-3.6811433 -4.681262 -0.52101701 11 5
-3.6568482 -4.6470251 1.1494334 4 13
-3.7469542 -4.7598224 -0.31746995 25 6
-3.4911356 -4.4316654 1.3024666 3 14
-3.76847 -4.780282 -0.10625025 21 7
-5.9765272 -7.5784678 2.5861201 4 15
-1.9779785 -2.494693 -0.85306764 9 0
-3.8294561 -4.8263803 0.10754173 35 8
-2.2449493 -2.8283627 -0.83366859 13 1
-3.906817 -4.9185891 0.3291932 24 9
-2.5873871 -3.2551231 -0.80826694 11 2
-3.9457419 -4.9622555 0.55465913 15 10
-3.0650868 -3.8519628 -0.77966946 9 3
-4.0101714 -5.0360627 0.79044467 8 11
-3.6449473 -4.575767 -0.71829796 17 4
-3.8392525 -4.8162417 0.97552538 22 12
-3.6868362 -4.623384 -0.51735646 12 5
-3.6810462 -4.6128197 1.1471437 15 13
-3.7514286 -4.6976509 -0.31506249 19 6
-3.9603069 -4.9574428 1.4648812 6 14
-3.7809424 -4.7295289 -0.10569178 32 7
-3.9101076 -4.8876009 1.6771475 16 15
-2.0013998 -2.4883506 -0.85565579 7 0
-3.8396561 -4.7721586 0.10691345 31 8
-2.2511969 -2.7959244 -0.82871968 12 1
-3.888839 -4.8281083 0.32490164 20 9
-2.6045561 -3.2313223 -0.80674046 11 2
-3.9527693 -4.9004707 0.55082428 22 10
-3.0813117 -3.8187118 -0.77716655 9 3
-4.0144272 -4.9715824 0.78459489 6 11
-3.6493554 -4.5162411 -0.71293575 19 4
-4.0433159 -5.0019984 1.0187013 10 12
-3.7052405 -4.5804935 -0.51543909 10 5
-3.8650959 -4.7747006 1.1940827 20 13
-3.7531505 -4.6347556 -0.31255037 20 6
-4.2622876 -5.2597308 1.5629599 4 14
-3.7735622 -4.6533165 -0.10457481 20 7
-3.7254314 -4.5923238 1.5844903 3 15
-2.0170703 -2.4731729 -0.85513818 11 0
-3.8551779 -4.7235465 0.10642478 24 8
-2.2566185 -2.763932 -0.82377076 13 1
-3.8870692 -4.7575345 0.32197085 28 9
-2.6345074 -3.2221797 -0.80903018 11 2
-3.9645903 -4.8472333 0.54786098 33 10
-3.112901 -3.8032215 -0.778418 10 3
-4.0125585 -4.898901 0.77752644 11 11
-3.6636562 -4.4713345 -0.7097671 20 4
-3.775032 -4.6039872 0.94298708 7 12
-3.716116 -4.530519 -0.51265007 10 5
-3.8862951 -4.7346244 1.1906482 25 13
-3.7347066 -4.5467072 -0.30836347 13 6
-4.6926541 -5.7108955 1.7064787 7 14
-3.7899084 -4.6089883 -0.10415597 27 7
-3.6763844 -4.4677496 1.5503261 12 15
-2.039212 -2.4649854 -0.85720873 11 0
-3.8617406 -4.6663847 0.10572667 32 8
-2.2671585 -2.7376046 -0.82062149 11 1
-3.900249 -4.7078962 0.32040074 26 9
-2.6438494 -3.1890585 -0.80521399 11 2
-3.9716179 -4.7872372 0.54420048 28 10
-3.1361933 -3.7789042 -0.77779222 10 3
-4.0217147 -4.8424597 0.77289546 16 11
-3.6617928 -4.4059558 -0.70342994 20 4
-4.062645 -4.8865366 1.0064995 12 12
-3.7170706 -4.4677072 -0.5084666 10 5
-3.9908571 -4.7933764 1.2124004 12 13
-3.7617331 -4.5165768 -0.30804947 21 6
-3.856544 -4.6271257 1.3906474 5 14
-3.797657 -4.5532398 -0.10349277 24 7
-5.2005329 -6.2330208 2.1751153 7 15
-2.0484943 -2.442167 -0.85410291 13 0
-3.8479409 -4.5841722 0.1044701 26 8
-2.2882466 -2.7250938 -0.82152128 11 1
-3.89062 -4.6300921 0.31694657 34 9
-2.6635208 -3.1675184 -0.80445075 11 2
-3.89253 -4.6274438 0.52903533 21 10
-3.1675863 -3.7629631 -0.77904367 10 3
-4.0157766 -4.7672 0.76533955 12 11
-3.6776276 -4.3642311 -0.7007488 18 4
-4.0660977 -4.8218112 0.9989906 10 12
-3.7229867 -4.4133673 -0.50515467 11 5
-3.9588056 -4.6895914 1.1929379 23 13
-3.7699742 -4.4627409 -0.30616537 21 6
-4.3910828 -5.1961436 1.5706083 4 14
-3.8195236 -4.5165968 -0.10324844 32 7
-5.1827703 -6.1243052 2.1497512 4 15
-2.0579836 -2.4189773 -0.85099703 12 0
-3.8492453 -4.5228491 0.10366729 29 8
-2.3173237 -2.7209213 -0.82512045 12 1
-3.9479501 -4.6339097 0.31904003 34 9
-2.6901145 -3.1552908 -0.80597723 11 2
-3.8730142 -4.5395279 0.5220629 16 10
-3.1879971 -3.7353046 -0.77779222 9 3
-3.9901183 -4.6718283 0.75437129 14 11
-3.6835017 -4.3097777 -0.69611776 20 4
-3.9730232 -4.646884 0.96832943 21 12
-3.7265072 -4.3554759 -0.50149411 13 5
-3.9301581 -4.5902572 1.1746202 20 13
-3.7794759 -4.4127059 -0.30449063 19 6
-4.0049434 -4.6726484 1.4207909 3 14
-3.8236215 -4.4579463 -0.10251543 25 7
-5.1954031 -6.0551634 2.1378453 7 15
-2.0769246 -2.4078393 -0.8520323 12 0
-3.8624349 -4.4746728 0.10317863 31 8
-2.3306959 -2.6991851 -0.82332087 12 1
-3.9527833 -4.5744982 0.3168419 27 9
-2.7095084 -3.1334643 -0.80521399 11 2
-3.9820311 -4.6034722 0.53252155 24 10
-3.1933103 -3.6890612 -0.77278632 9 3
-3.9680474 -4.5808411 0.74413431 21 11
-3.6958511 -4.2651029 -0.69294918 17 4
-4.0131311 -4.6279888 0.97020662 13 12
-3.7351778 -4.3059292 -0.49870515 13 5
-3.962599 -4.5648818 1.1750019 25 13
-3.7970917 -4.3711357 -0.30344391 23 6
-4.1159067 -4.7364788 1.4486848 4 14
-3.8210728 -4.394093 -0.10164282 22 7
-6.920414 -7.9526138 2.8247511 18 15
-2.0936837 -2.393281 -0.8520323 11 0
-3.8849015 -4.43925 0.10296919 31 8
-2.3404958 -2.6725857 -0.82017154 13 1
-3.9509258 -4.5099297 0.31422511 22 9
-2.734657 -3.1193774 -0.80635887 12 2
-3.9799089 -4.5366197 0.52798945 28 10
-3.2209542 -3.670208 -0.77341211 9 3
-4.0397434 -4.5999637 0.75169015 13 11
-3.6993287 -4.2093749 -0.68807441 17 4
-4.0014992 -4.5516076 0.95988196 23 12
-3.7427754 -4.2543178 -0.49574184 11 5
-4.0021553 -4.5459476 1.1772915 13 13
-3.8003564 -4.3152108 -0.30135047 19 6
-4.1218147 -4.6769266 1.4392369 6 14
-3.839752 -4.3538117 -0.10132867 26 7
-3.9734952 -4.5038757 1.609337 13 15
-2.1047978 -2.3731935 -0.84996176 11 0
-3.8945603 -4.3880911 0.10241073 29 8
-2.3547513 -2.6522214 -0.81882185 12 1
-3.9504776 -4.446403 0.31171298 19 9
-2.7472363 -3.0899394 -0.80368757 11 2
-3.974946 -4.4692283 0.52328306 24 10
-3.2491243 -3.6505845 -0.77403784 10 3
-4.0308309 -4.5256944 0.74413431 9 11
-3.6948807 -4.1470442 -0.68198091 15 4
-4.0897069 -4.5869603 0.97333533 11 12
-3.7557318 -4.2109008 -0.49365011 12 5
-3.9885578 -4.4688005 1.1643165 19 13
-3.8051109 -4.260272 -0.29936171 19 6
-4.271708 -4.781003 1.480178 4 14
-3.8359771 -4.2903061 -0.10045605 20 7
-4.0241628 -4.497622 1.6171014 15 15
-2.1161475 -2.3526955 -0.84789127 12 0
-3.9015996 -4.3362098 0.10181734 24 8
-2.3836422 -2.6473026 -0.82242107 12 1
-3.9472332 -4.3823099 0.30909619 14 9
-2.7655764 -3.0682511 -0.80292428 11 2
-3.9833643 -4.4162178 0.52031976 23 10
-3.2765441 -3.6313164 -0.77466357 9 3
-4.0336046 -4.4672127 0.73901576 9 11
-3.7064414 -4.1020002 -0.67881227 17 4
-3.8850546 -4.2981672 0.91764468 18 12
-3.7636538 -4.1609368 -0.49086115 15 5
-4.0433726 -4.4670472 1.1711857 23 13
-3.8152537 -4.2135453 -0.2978963 22 6
-4.1073966 -4.5330067 1.4122428 12 14
-3.8429997 -4.2382388 -0.099862665 26 7
-4.0287256 -4.4415083 1.6067487 3 15
-2.1151907 -2.3196802 -0.84116197 28 0
-3.8980799 -4.2719369 0.10094472 25 8
-2.4016061 -2.6310167 -0.82242107 13 1
-3.9561801 -4.3310509 0.30742142 19 9
-2.7882531 -3.0503185 -0.80330586 13 2
-3.9918201 -4.3654757 0.5175308 26 10
-3.2964809 -3.602525 -0.77341211 9 3
-4.0445843 -4.4169831 0.73535967 7 11
-3.7114816 -4.0517931 -0.67466873 15 4
-3.5131924 -3.8326335 0.82347113 18 12
-3.762265 -4.1029153 -0.48702627 16 5
-4.1281071 -4.4987292 1.186832 25 13
-3.8108039 -4.1500297 -0.2952795 12 6
-4.2080269 -4.581007 1.4360875 4 14
-3.8690529 -4.2090383 -0.09979286 25 7
-4.0583267 -4.4118528 1.6062311 12 15
-2.1378918 -2.3119485 -0.84375012 12 0
-3.9012675 -4.2174134 0.10028153 22 8
-2.4185917 -2.6127563 -0.82197118 23 1
-3.9597855 -4.2761798 0.30543268 18 9
-2.8116205 -3.0341492 -0.80406916 13 2
-4.0072966 -4.3214326 0.51561338 30 10
-3.3128657 -3.5713136 -0.77153486 9 3
-4.0461941 -4.358799 0.73024112 11 11
-3.7059031 -3.9894221 -0.66857523 12 4
-3.7772493 -4.0619597 -0.48528317 15 5
-3.6391525 -3.9107156 1.0383826 15 13
-3.8212731 -4.1049895 -0.29391876 11 6
-4.2677994 -4.5814614 1.4455354 6 14
-3.8819795 -4.1643724 -0.099374004 29 7
-3.8379345 -4.1156812 1.5078799 12 15
-2.1601846 -2.3043904 -0.84633833 10 0
-3.9073577 -4.1652818 0.09968815 21 8
-2.4216509 -2.5806022 -0.81702226 16 1
-3.9553616 -4.2120318 0.30281588 21 9
-2.8260119 -3.0072927 -0.80216104 11 2
-4.0147848 -4.2708282 0.51282436 26 10
-3.3377173 -3.5480986 -0.77153486 9 3
-4.0499225 -4.303689 0.72561014 16 11
-3.6962271 -3.9250855 -0.66199434 12 4
-4.1035371 -4.3545666 0.94768006 13 12
-3.7815764 -4.0115094 -0.48231989 13 5
-3.6926312 -3.9144158 1.046015 20 13
-3.8224165 -4.0491662 -0.29182532 11 6
-4.328321 -4.5834761 1.4554334 4 14
-3.8855135 -4.1116915 -0.098745719 29 7
-3.5606258 -3.7665727 1.388823 15 15
-2.1718276 -2.2854319 -0.84478539 12 0
-3.9149475 -4.1168528 0.099164575 22 8
-2.4431899 -2.5682945 -0.81837195 13 1
-3.9646599 -4.1647601 0.30135047 21 9
-2.8464165 -2.987987 -0.80216104 11 2
-4.0258942 -4.2246513 0.51055831 26 10
-3.3590648 -3.522438 -0.77090919 9 3
-4.0380158 -4.2329321 0.71829796 25 11
-3.7036686 -3.8797328 -0.65858197 15 4
-3.9516029 -4.1365614 0.9060685 22 12
-3.7936528 -3.9698312 -0.48040244 14 5
-3.7286878 -3.8991237 1.0486863 21 13
-3.8429859 -4.0158391 -0.29130197 21 6
-3.8109541 -3.9809749 1.2723231 6 14
-3.8802121 -4.0504899 -0.097907998 19 7
-3.6864283 -3.8468604 1.4276459 9 15
-2.1819727 -2.2650304 -0.84271485 11 0
-3.9345524 -4.081471 0.09895514 27 8
-2.4633205 -2.5544102 -0.81927174 14 1
-3.9693396 -4.113245 0.29957107 21 9
-2.8612339 -2.9628937 -0.80063456 11 2
-4.0268707 -4.1684918 0.50707209 28 10
-3.3884556 -3.5051732 -0.77216065 9 3
-4.0757499 -4.2131987 0.71976036 9 11
-3.7327526 -3.8572862 -0.65906948 16 4
-3.9631777 -4.0925398 0.90231407 22 12
-3.7928607 -3.9152958 -0.47691619 15 5
-3.7592411 -3.8778815 1.0498312 35 13
-3.8493707 -3.9680851 -0.28973189 19 6
-3.7103932 -3.8234844 1.2300324 15 14
-3.8589344 -3.9737747 -0.096686333 23 7
-3.6404924 -3.7462168 1.3996935 13 15
-2.1869328 -2.238687 -0.83857375 11 0
-3.9454722 -4.0374327 0.09853629 34 8
-2.4919937 -2.5482969 -0.82287097 25 1
-3.9776921 -4.0661426 0.29810563 15 9
-2.8840816 -2.946156 -0.80139786 11 2
-4.0265961 -4.1103878 0.50341159 21 10
-3.3997915 -3.4693301 -0.76934481 9 3
-4.0723667 -4.1527596 0.71415442 21 11
-3.7623696 -3.8339667 -0.65955693 17 4
-4.1058006 -4.1824703 0.92828226 19 12
-3.7963653 -3.8645599 -0.47395292 19 5
-3.9995489 -4.068552 1.108982 27 13
-3.8706911 -3.936094 -0.2893132 22 6
-3.7725334 -3.8336022 1.2417299 15 14
-3.8837752 -3.9438884 -0.096616521 27 7
-3.6645513 -3.7199743 1.3991758 15 15
-2.1994019 -2.2210038 -0.83753842 12 0
-3.9327419 -3.9685988 0.097524047 25 8
-2.5079095 -2.5298913 -0.82242107 16 1
-3.9342461 -3.9659595 0.29276738 18 9
-2.9073453 -2.928736 -0.80216104 11 2
-3.8972423 -3.924546 0.48388866 13 10
-3.4225371 -3.4441097 -0.76903194 9 3
-4.0606656 -4.0834088 0.70708597 15 11
-3.7687802 -3.7885656 -0.65614462 12 4
-4.0903025 -4.1089067 0.91827041 16 12
-3.8014951 -3.8174529 -0.47133827 23 5
-3.9620175 -3.9758728 1.091046 20 13
-3.869869 -3.8806918 -0.28721976 30 6
-3.8150556 -3.8243902 1.2471286 15 14
-3.8978157 -3.904624 -0.096302375 30 7
-3.7450452 -3.7489688 1.4198813 19 15
-2.2203288 -2.2110481 -0.83960903 11 0
-3.9128966 -3.8951814 0.096372187 39 8
-2.5130761 -2.4999526 -0.81837195 13 1
-3.6410856 -3.6208062 0.26911151 31 9
-2.9286056 -2.9102631 -0.80254269 12 2
-3.7563107 -3.7301776 0.46314558 48 10
-3.4430962 -3.4179506 -0.76840615 9 3
-4.0319948 -3.9997528 0.69733644 14 11
-3.7725806 -3.7398016 -0.65224481 22 4
-4.1518507 -4.1143403 0.92577928 12 12
-3.8167274 -3.7796044 -0.46994376 22 5
-3.9589779 -3.9177339 1.0826503 33 13
-3.8507576 -3.8093126 -0.28387025 25 6
-3.89294 -3.8483522 1.263775 9 14
-3.9135983 -3.8660753 -0.096023142 31 7
-3.8392062 -3.7912612 1.4457633 13 15
-2.2298148 -2.1904683 -0.83753842 11 0
-3.9357135 -3.8635669 0.096267477 25 8
-2.5300343 -2.4827886 -0.81837195 13 1
-3.9942567 -3.9169323 0.29318607 14 9
-2.9404395 -2.8815017 -0.80025297 13 2
-4.0363779 -3.9540949 0.49434736 19 10
-3.4654636 -3.3924475 -0.76809335 7 3
-4.0938759 -4.0048237 0.70318621 14 11
-3.7794991 -3.6959932 -0.64907616 17 4
-3.8597679 -3.7718539 0.85475802 19 12
-3.8238382 -3.7354381 -0.46767771 23 5
-3.9321682 -3.8385828 1.0681487 15 13
-3.8643892 -3.7697849 -0.2829282 23 6
-3.8437049 -3.748296 1.2394803 13 14
-3.932662 -3.8323681 -0.095848612 41 7
-4.0247431 -3.9193628 1.5052917 4 15
-2.2422779 -2.1721597 -0.83650321 11 0
-3.9547386 -3.8297322 0.096092947 22 8
-2.5585091 -2.4759066 -0.82197118 13 1
-3.9849386 -3.8549368 0.29056925 19 9
-2.9613955 -2.8627849 -0.80063456 12 2
-4.0309262 -3.8939807 0.49033821 21 10
-3.4898949 -3.3701532 -0.76840615 9 3
-4.0996151 -3.956187 0.69953007 12 11
-3.7666283 -3.6323133 -0.64249521 10 4
-4.1370759 -3.9881556 0.91013581 16 12
-3.828299 -3.6879184 -0.46506307 16 5
-4.2431631 -4.084713 1.1448541 25 13
-3.8827646 -3.7364695 -0.28240484 25 6
-3.9034903 -3.7537892 1.2502779 10 14
-3.905973 -3.7535534 -0.094557136 22 7
-4.572372 -4.3924127 1.6988882 8 15
-2.2486315 -2.1488388 -0.83339739 22 0
-2.5724835 -2.4557426 -0.82107133 13 1
-2.9841514 -2.8447499 -0.80139786 11 2
-4.0241632 -3.8348401 0.48632905 18 10
-3.5033245 -3.3361712 -0.7662161 7 3
-3.7596235 -3.5764899 -0.63713294 12 4
-4.1476364 -3.9428451 0.90638137 7 12
-3.8302052 -3.6398151 -0.46227407 15 5
-4.2423949 -4.0286989 1.1372217 29 13
-3.8928199 -3.6941471 -0.28125346 18 6
-3.8158464 -3.6198387 1.2142857 6 14
-4.940104 -4.6814351 1.8236392 11 15
-2.263206 -2.1334829 -0.83339739 21 0
-1.5778304 -1.4863527 0.03783682 16 8
-2.5834649 -2.4328315 -0.81927174 13 1
-1.66541 -1.5672098 0.11984935 14 9
-3.0034451 -2.8243723 -0.80139786 11 2
-3.5288308 -3.3149533 -0.76684189 9 3
-1.5744122 -1.4784714 0.26518771 7 11
-3.7795372 -3.5467415 -0.63640177 13 4
-3.8345406 -3.5945833 -0.45983368 16 5
-3.9716985 -3.7205527 1.0578451 5 13
-3.8930867 -3.6443613 -0.27947402 20 6
-4.7368221 -4.432641 1.4977242 4 14
-1.6241639 -1.5188029 -0.038814154 21 7
-4.0884085 -3.8218527 1.4995975 16 15
-2.2805047 -2.1206598 -0.83443266 2 0
-1.5527545 -1.4429086 0.036999103 40 8
-2.5999641 -2.4151907 -0.81927174 13 1
-1.6379805 -1.5205083 0.11712788 35 9
-3.0312369 -2.8118742 -0.80368757 10 2
-1.5354378 -1.423823 0.18320136 40 10
-3.5469663 -3.2868285 -0.76590323 9 3
-1.5468258 -1.4323769 0.25885051 50 11
-3.7992213 -3.5168872 -0.63567054 12 4
-3.8457541 -3.5562251 -0.45826489 13 5
-1.5457109 -1.4283402 0.40909451 11 13
-3.8855219 -3.5879686 -0.27717125 6 6
-3.6714609 -3.3891132 1.153549 4 14
-1.5697914 -1.4480548 -0.037278343 41 7
-4.1050477 -3.7840517 1.4959742 3 15
-1.5989889 -1.4662305 -0.58130759 2 0
-1.5522212 -1.4228477 0.036754768 50 8
-2.6196358 -2.3996131 -0.82017154 13 1
-1.5731692 -1.4405341 0.11178961 38 9
-3.0387189 -2.7805729 -0.80063456 11 2
-1.5497513 -1.4171028 0.1837243 68 10
-3.5677989 -3.2612758 -0.76559031 7 3
-1.5580055 -1.4231534 0.25909427 71 11
-3.7972918 -3.466188 -0.63128328 10 4
-1.5161008 -1.3834205 0.32507086 65 12
-3.8322108 -3.4943857 -0.45373279 17 5
-1.6847217 -1.5345919 -0.11943066 1 6
-4.1936593 -3.8172739 1.3092151 0 14
-1.5650693 -1.4236048 -0.036929294 53 7
-4.1006942 -3.728729 1.4851037 12 15
-1.5974702 -1.4449456 -0.5771665 2 0
-1.5472821 -1.3985672 0.036405724 58 8
-2.6416922 -2.3869531 -0.82197118 13 1
-1.557987 -1.4067616 0.11001018 58 9
-3.0580571 -2.7592909 -0.80063456 11 2
-1.5593613 -1.4065212 0.1837243 75 10
-3.5875454 -3.2336435 -0.76496464 7 3
-1.4956286 -1.3471435 0.24715105 13 11
-3.8075197 -3.4283063 -0.62908959 12 4
-1.4904794 -1.3410915 0.31756201 36 12
-3.8396115 -3.4535637 -0.45181534 23 5
-1.5170735 -1.3635833 0.39650109 54 13
-1.6448737 -1.4774164 -0.11587181 13 6
-1.5167164 -1.3618274 0.47059759 15 14
-1.5509089 -1.3915515 -0.036370814 57 7
-4.0403237 -3.6226318 1.4540454 3 15
-1.5974272 -1.4247564 -0.57354301 2 0
-1.5493027 -1.3813492 0.036231197 75 8
-2.6612022 -2.3710444 -0.82287097 13 1
-1.567526 -1.3961245 0.11001018 100 9
-3.0797012 -2.7410221 -0.80139786 11 2
-1.5051262 -1.3386647 0.17622891 15 10
-3.6139019 -3.2130866 -0.76590323 9 3
-1.4735999 -1.3092439 0.24203253 48 11
-3.818001 -3.3897798 -0.6268959 15 4
-1.4537733 -1.2902668 0.30786306 57 12
-3.8502133 -3.4147761 -0.45024657 12 5
-1.4721932 -1.3047788 0.38238126 53 13
-1.5891151 -1.4079095 -0.11126626 31 6
-1.560586 -1.3806901 -0.036370814 64 7
-3.8883433 -3.4389067 1.3908936 12 15
-1.6099888 -1.4164025 -0.57457829 36 0
-1.5438901 -1.3572959 0.035882145 84 8
-2.6772792 -2.3528757 -0.82287097 13 1
-1.5697312 -1.3785576 0.10948683 91 9
-3.1061397 -2.7259305 -0.80330586 13 2
-1.4707693 -1.2902845 0.17117387 42 10
-3.6139638 -3.1682463 -0.7612102 7 3
-1.4707594 -1.2884594 0.24008264 56 11
-3.8290384 -3.3532517 -0.62494606 12 4
-1.4597726 -1.2774842 0.30723733 63 12
-1.4751282 -1.2895591 0.38085476 66 13
-1.5913849 -1.3902111 -0.1107429 48 6
-1.5133311 -1.3215588 0.46384907 65 14
-1.5669345 -1.3674059 -0.036301006 77 7
-3.9049776 -3.4053276 1.3883054 13 15
-1.6271344 -1.4114575 -0.5771665 61 0
-1.544028 -1.3388954 0.035672721 87 8
-1.633268 -1.4152802 -0.49894145 3 1
-1.5654913 -1.3560718 0.10854478 76 9
-3.1305602 -2.7098644 -0.8048324 12 2
-1.4752207 -1.2760748 0.17065094 54 10
-3.6339514 -3.1422813 -0.76089734 9 3
-1.468981 -1.2693335 0.23837645 66 11
-1.463948 -1.2636462 0.3062987 64 12
-1.7364947 -1.4978443 -0.20063251 39 5
-1.4736853 -1.2702572 0.37818345 73 13
-1.5902193 -1.3702204 -0.11001018 66 6
-1.4959389 -1.2880738 0.45575082 68 14
-1.5673474 -1.348608 -0.036091577 76 7
-3.9090259 -3.3622925 1.3815762 7 15
-1.6337682 -1.3978379 -0.57613122 45 0
-1.5578979 -1.3319818 0.035777435 100 8
-1.633975 -1.3965337 -0.49624202 37 1
-1.5217655 -1.2997104 0.10488127 39 9
-3.1180425 -2.6611779 -0.79681838 1 2
-1.4899353 -1.2711763 0.17134818 57 10
-3.6588063 -3.1193979 -0.76152301 11 3
-1.4823401 -1.2629093 0.23910768 63 11
-1.7636575 -1.5020521 -0.28444308 26 4
-1.4637083 -1.2457135 0.30442151 66 12
-1.723887 -1.4666244 -0.19801784 46 5
-1.4867847 -1.2640115 0.37932828 71 13
-1.584525 -1.3461542 -0.10896347 66 6
-1.4868476 -1.2627239 0.45035201 68 14
-1.5734416 -1.3353206 -0.036021769 91 7
-1.5794443 -1.339466 0.55490804 13 15
-1.6420105 -1.3851522 -0.57561362 37 0
-1.5653993 -1.3200577 0.035742529 100 8
-1.637724 -1.3800695 -0.49444243 48 1
-1.5168291 -1.2777411 0.10393922 48 9
-1.8008453 -1.5159152 -0.45755997 20 2
-1.494199 -1.2568964 0.17082524 60 10
-1.4969809 -1.2578987 0.24008264 60 11
-1.7695401 -1.4858733 -0.28371185 53 4
-1.4600493 -1.2255617 0.30191854 66 12
-1.6165448 -1.3559616 -0.18459585 44 5
-1.4955729 -1.253601 0.37932828 69 13
-1.5951823 -1.3366203 -0.10906815 74 6
-1.500109 -1.2560664 0.45170173 85 14
-1.5673894 -1.3114704 -0.035672721 76 7
-1.5588883 -1.3038956 0.54455531 28 15
-1.6632811 -1.3838283 -0.57975465 21 0
-1.5715014 -1.3065401 0.035672721 100 8
-1.6395868 -1.3626616 -0.49219292 49 1
-1.5211028 -1.2632926 0.10362521 50 9
-1.8038305 -1.4970375 -0.45565188 49 2
-1.4965863 -1.241608 0.17012802 53 10
-1.8051119 -1.4965055 -0.37137547 50 3
-1.525378 -1.2641467 0.24325122 54 11
-1.7750262 -1.469996 -0.28298062 62 4
-1.4716138 -1.2178572 0.3025443 64 12
-1.6119205 -1.333497 -0.18302706 60 5
-1.4949925 -1.2358866 0.3770386 62 13
-1.6090941 -1.3292675 -0.10938216 84 6
-1.5116293 -1.2483082 0.45260152 74 14
-1.5608562 -1.2880439 -0.035323672 49 7
-1.5617666 -1.288337 0.54248476 40 15
-1.8220068 -1.4950169 -0.63151848 57 0
-1.5556167 -1.2755266 0.035114244 34 8
-1.6443025 -1.347764 -0.49084321 54 1
-1.5327568 -1.2554406 0.10383455 50 9
-1.698516 -1.3902193 -0.42664891 19 2
-1.511171 -1.2364389 0.17082524 45 10
-1.7984343 -1.4704297 -0.3679339 62 3
-1.5554659 -1.2713219 0.24666359 57 11
-1.7865285 -1.4591354 -0.28322437 61 4
-1.4844602 -1.2115595 0.30348289 61 12
-1.6302223 -1.3300512 -0.18407291 47 5
-1.5018483 -1.2244416 0.37665698 71 13
-1.59333 -1.2980995 -0.10770741 62 6
-1.5231129 -1.2404513 0.45350131 85 14
-1.5835462 -1.2887498 -0.035637815 63 7
-1.566004 -1.274019 0.54093182 44 15
-1.83965 -1.4886559 -0.6341067 57 0
-1.5627079 -1.2636509 0.035079334 57 8
-1.6473761 -1.33164 -0.48904356 53 1
-1.5474813 -1.2499988 0.10425323 44 9
-1.68808 -1.3625952 -0.4216879 43 2
-1.6032825 -1.2936864 0.18023807 66 10
-1.8007126 -1.4519545 -0.36636955 76 3
-1.6137675 -1.3002871 0.2544632 100 11
-1.6711955 -1.3460786 -0.26348156 36 4
-1.5157553 -1.2200059 0.30817595 33 12
-1.6223906 -1.304902 -0.1821555 42 5
-1.5101482 -1.2141905 0.37665698 60 13
-1.5943444 -1.2809694 -0.10718405 64 6
-1.5317358 -1.2297878 0.45350131 76 14
-1.5969604 -1.281696 -0.035742529 74 7
-1.5823954 -1.2690984 0.54352003 45 15
-1.8499976 -1.4757769 -0.6341067 47 0
-1.5746195 -1.2552031 0.03514915 62 8
-1.6596805 -1.3225361 -0.48994341 52 1
-1.5717947 -1.251606 0.10529996 29 9
-1.6806525 -1.3373308 -0.41749012 45 2
-1.6294272 -1.2961047 0.1821555 99 10
-1.8030734 -1.4332018 -0.36480519 67 3
-1.6290233 -1.2939284 0.25543818 51 11
-1.6634514 -1.3208004 -0.26080042 47 4
-1.5969653 -1.2671016 0.32288077 72 12
-1.6189712 -1.283641 -0.18076101 50 5
-1.558591 -1.2353246 0.38657904 79 13
-1.6001167 -1.2673278 -0.10697471 76 6
-1.5326437 -1.2130175 0.4512518 67 14
-1.5807773 -1.2506644 -0.035184052 64 7
-1.600309 -1.2652093 0.54662579 40 15
-1.8754412 -1.4747671 -0.63928306 25 0
-1.5864884 -1.2466509 0.035218958 51 8
-1.6719379 -1.3133246 -0.49084321 48 1
-1.6323391 -1.2812984 0.10875413 83 9
-1.6837687 -1.3207183 -0.41596362 53 2
-1.6290283 -1.2773217 0.18110962 68 10
-1.81148 -1.4193614 -0.36449236 73 3
-1.6536473 -1.2947615 0.25787556 73 11
-1.6726314 -1.3091556 -0.26080042 58 4
-1.6166645 -1.2644404 0.32507086 69 12
-1.610625 -1.2588114 -0.17884357 63 5
-1.5702717 -1.2268306 0.3873423 78 13
-1.6120738 -1.2585841 -0.10718405 74 6
-1.554903 -1.2130762 0.45530096 74 14
-1.5926238 -1.2420576 -0.03525386 42 7
-1.6471974 -1.2836939 0.5595668 38 15
-2.4460547 -1.895987 -0.8292563 15 0
-1.5998956 -1.2392188 0.035323672 45 8
-1.6887702 -1.3075855 -0.49309272 42 1
-1.6633595 -1.2869822 0.11021954 63 9
-1.6929481 -1.3089311 -0.41596362 54 2
-1.659976 -1.2829754 0.18355 48 10
-1.8104013 -1.3982282 -0.36230227 67 3
-1.6767892 -1.2941014 0.26006919 70 11
-1.6722999 -1.2901709 -0.25933796 57 4
-1.6332744 -1.2591538 0.32663518 61 12
-1.6241093 -1.2511839 -0.17936651 50 5
-1.6145738 -1.2433896 0.39611951 67 13
-1.6018273 -1.2326823 -0.10592799 58 6
-1.5880507 -1.2211983 0.46249935 59 14
-1.6123542 -1.2394397 -0.035498194 60 7
-1.6699073 -1.2827547 0.56422555 81 15
-2.4684415 -1.8859018 -0.83236206 18 0
-1.6244025 -1.2401533 0.035672721 71 8
-1.6994064 -1.2969464 -0.49354258 35 1
-1.6929498 -1.2910833 0.11158027 51 9
-1.7004837 -1.2958905 -0.41558203 58 2
-1.6847413 -1.2834289 0.18529311 19 10
-1.7022351 -1.2958169 -0.33883709 27 3
-1.6826227 -1.2799603 0.25958171 44 11
-1.6765258 -1.27486 -0.25860679 53 4
-1.653035 -1.2560862 0.32882527 14 12
-1.5913368 -1.2087663 -0.17483442 56 5
-1.6138325 -1.2249651 0.39382979 45 13
-1.6119847 -1.2226766 -0.10603265 100 6
-1.6165135 -1.2256666 0.46834809 70 14
-1.6098102 -1.2197001 -0.03525386 49 7
-1.689603 -1.2792283 0.56784898 83 15
-2.4877212 -1.8732706 -0.83443266 15 0
-1.647185 -1.2398915 0.035986863 78 8
-1.7099771 -1.2862219 -0.49399251 20 1
-1.7463957 -1.313139 0.11451109 44 9
-1.7171129 -1.2901821 -0.41749012 56 2
-1.6399214 -1.2308401 -0.32475799 45 3
-1.7071769 -1.280388 0.2620191 72 11
-1.6123149 -1.2083615 -0.2473948 68 4
-1.6757749 -1.2554655 0.33164111 3 12
-1.6013318 -1.1988213 -0.17500873 63 5
-1.6474974 -1.2324857 0.39993569 25 13
-1.6106731 -1.2044992 -0.10540463 89 6
-1.6295021 -1.2168071 -0.035498194 83 7
-1.6920788 -1.2630756 0.56577843 67 15
-2.498863 -1.8551428 -0.833915 14 0
-1.6798911 -1.2462331 0.036510434 24 8
-2.8410075 -2.106843 -0.81657231 12 1
-1.7442876 -1.2925906 0.11377838 42 9
-1.7229222 -1.2758266 -0.41672686 55 2
-1.7855487 -1.3217192 0.19435729 1 10
-1.6341805 -1.208789 -0.32194218 99 3
-1.7224597 -1.2731577 0.26299405 83 11
-1.614116 -1.1926404 -0.24641983 68 4
-1.7178711 -1.2683758 0.33821136 1 12
-1.6335001 -1.2056414 -0.17762341 55 5
-1.6874485 -1.2445489 0.40756804 18 13
-1.619043 -1.1932253 -0.10540463 75 6
-4.0713797 -2.9994869 1.167496 15 14
-1.6184223 -1.1914607 -0.035079334 71 7
-1.6899627 -1.2432185 0.56215501 73 15
-2.5211082 -1.8444964 -0.83702081 15 0
-4.0626564 -2.9712391 0.087855421 23 8
-2.8509266 -2.083508 -0.81522262 15 1
-4.0915151 -2.9890583 0.26555267 15 9
-1.7347382 -1.2663847 -0.41749012 53 2
-4.1480055 -3.025887 0.44920069 5 10
