# .PCD v0.7 - Point Cloud Data file format
VERSION 0.7
FIELDS x y z intensity ring
SIZE 4 4 4 4 2
TYPE F F F F U
COUNT 1 1 1 1 1
WIDTH 82
HEIGHT 1
VIEWPOINT 0 0 0 1 0 0 0
POINTS 82
DATA ascii
4.2529745 0.62120056 -0.22525398 13 6
4.2573104 0.59075111 -0.22525398 11 6
4.2771721 0.56310058 -0.22609136 11 6
4.2869449 0.53396714 -0.22640537 15 6
4.2706242 0.5296638 -0.075115159 87 7
4.278101 0.47230825 -0.22556801 64 6
4.2815785 0.47042328 -0.075184964 12 7
4.2963867 0.44626117 -0.37790731 23 5
4.2907262 0.44113225 -0.075289682 15 7
4.2914639 0.41548982 -0.37721002 31 5
4.3180757 0.41578442 -0.22734742 18 6
4.2970324 0.39711079 0.07532458 19 8
4.2843385 0.38462892 -0.37633851 74 5
4.3045015 0.38113654 -0.075429298 92 7
4.3097262 0.36720058 0.07549911 10 8
4.3108087 0.35592842 -0.37843022 103 5
4.3215308 0.35453579 -0.22724274 76 6
4.3289814 0.35286531 -0.075813256 42 7
4.3241472 0.33803922 0.075708538 9 8
4.3290105 0.33613911 0.22755675 58 9
4.327096 0.32687521 -0.37965041 113 5
4.3278842 0.32465595 -0.22745208 92 6
4.3193736 0.32174346 -0.075603828 11 7
4.3312516 0.3059108 0.22755675 87 9
4.3252969 0.29638803 -0.37930179 111 5
4.3420014 0.29524672 -0.22808012 47 6
4.3404188 0.27840135 0.075917974 102 8
4.3499837 0.26453221 -0.22839414 94 6
4.3394589 0.26161185 -0.075883061 98 7
4.3363104 0.24699372 0.075813256 66 8
4.3590722 0.24600065 0.22881283 9 9
4.3565297 0.24356902 0.38174215 5 10
4.4755659 0.24630463 -0.55036199 0 4
4.3230453 0.23564072 -0.37877885 55 5
4.3577075 0.23448117 -0.22870816 85 6
4.3571548 0.23216364 -0.076162301 98 7
4.3686252 0.21671945 0.22923151 28 9
4.3601909 0.20943409 -0.53598142 68 4
4.3524466 0.20677809 -0.38121921 74 5
4.3592024 0.20481163 -0.22870816 81 6
4.3646622 0.2020146 -0.076267019 87 7
4.3572836 0.18795773 0.076127395 72 8
4.3700314 0.18621542 0.22923151 85 9
4.3674364 0.18381408 0.38243937 113 10
4.3476319 0.17918019 -0.53427523 72 4
4.3637385 0.17679261 -0.38209078 66 5
4.3619399 0.17214492 -0.076197207 91 7
4.3764753 0.15818363 0.076441541 81 8
4.3692293 0.15563121 0.22912684 103 9
4.3785353 0.14984202 -0.53793132 15 4
4.3549094 0.14598989 -0.38121921 11 5
4.3796024 0.14452212 -0.22965018 45 6
4.3670325 0.14181845 -0.076267019 101 7
4.3854685 0.12786143 0.076581158 84 8
4.3941665 0.12581249 0.23038292 24 9
4.3637896 0.11579475 -0.38191649 10 5
4.4004703 0.11446255 -0.2306969 94 6
4.3739133 0.11148021 -0.076371737 84 7
4.382256 0.097153336 0.076511353 66 8
4.4069185 0.095391676 0.23101093 78 9
4.3784361 0.085599534 -0.38313666 42 5
4.3911781 0.083548717 -0.23017356 83 6
4.3925791 0.081274763 -0.076685868 66 7
4.3908248 0.066676408 0.07665097 86 8
4.3974919 0.064474754 0.23048759 87 9
4.3769341 0.055005163 -0.38296232 49 5
4.4131794 0.036201477 0.07703492 102 8
4.4078264 0.033082426 0.23101093 73 9
4.3999095 0.021502217 -0.23059224 8 6
4.4213247 0.0046289498 0.077174544 104 8
4.4159398 0.0023112693 0.23142964 77 9
4.4179277 -0.0092528984 -0.2315343 11 6
4.4153109 -0.012329905 -0.077069834 98 7
4.4318209 -0.029393381 0.23226699 45 9
4.4169593 -0.057050124 0.077104732 9 8
4.4207063 -0.074076578 -0.077174544 11 7
4.4400725 -0.10541148 -0.077523597 10 7
4.4477158 -0.11957482 0.077663213 82 8
4.4432492 -0.13575356 -0.077593401 35 7
4.4595985 -0.18223448 0.07790754 11 8
4.470202 -0.21393721 0.078116976 11 8
4.4606133 -0.2447015 0.077977359 58 8
