# .PCD v0.7 - Point Cloud Data file format
VERSION 0.7
FIELDS x y z intensity ring
SIZE 4 4 4 4 2
TYPE F F F F U
COUNT 1 1 1 1 1
WIDTH 1346
HEIGHT 1
VIEWPOINT 0 0 0 1 0 0 0
POINTS 1346
DATA ascii
1.5430206 3.7123454 -0.92814809 12 1
1.2421222 2.9854746 0.16946384 7 9
1.9148898 4.5979705 -0.96816492 1 2
1.2437179 2.9849029 0.28290752 0 10
1.2450625 2.9822643 0.3968066 1 11
1.2702401 3.0380964 0.52155256 1 12
1.2860955 3.073004 -0.2914488 0 5
9.9855766 23.847906 5.0255275 10 13
1.2398968 2.9582667 -0.16810311 3 6
9.9961166 23.82641 5.9652519 43 14
1.241412 2.9575374 -0.055987321 3 7
9.1226768 21.712576 6.3105264 26 15
1.332761 3.1489508 -0.91621947 1 0
1.2730538 3.0049603 0.056964654 1 8
1.2768701 3.0125008 -0.7553857 1 1
9.9653912 23.488411 1.3371838 2 9
1.2961713 3.0521102 -0.64455283 1 2
10.032052 23.611141 2.2444346 6 10
1.2949603 3.0448227 -0.52405554 1 3
10.058395 23.627266 3.1530039 48 11
1.3013754 3.0554636 -0.40777487 1 4
9.9897127 23.431883 4.0344453 24 12
1.2887481 3.0199709 -0.28726533 0 5
10.180346 23.844418 5.0396476 24 13
1.2903433 3.0193288 -0.17208064 1 6
10.156092 23.741705 5.9616528 29 14
9.9160452 23.169397 -0.43990538 1 7
9.1599178 21.382 6.2328806 36 15
1.3217998 3.0632982 -0.89396101 2 0
10.011066 23.178608 0.44070816 4 8
1.6008852 3.7047508 -0.93174726 8 1
10.016539 23.157963 1.3223203 31 9
1.9711033 4.5527682 -0.96434873 5 2
10.06202 23.229727 2.2148015 4 10
2.4516413 5.6545725 -0.97615117 2 3
10.102175 23.277863 3.1157119 30 11
3.3189416 7.6439834 -1.0232152 4 4
10.093204 23.223886 4.0106673 17 12
5.2384052 12.041773 -1.1488869 1 5
10.201609 23.439743 4.969048 4 13
9.2180338 21.159616 -1.2095888 15 6
10.198522 23.387987 5.8905683 30 14
9.9800148 22.875994 -0.43564698 7 7
9.2625828 21.211306 6.2018223 22 15
1.3688188 3.1123524 -0.91104311 18 0
10.046146 22.820812 0.43522811 4 8
1.6204265 3.6792171 -0.92814809 12 1
10.057934 22.815159 1.3067242 25 9
1.992534 4.5155478 -0.95938772 7 2
10.112113 22.905558 2.1905723 4 10
2.4870629 5.6282864 -0.97458684 2 3
10.139174 22.923559 3.0776887 31 11
3.3770418 7.6315198 -1.0246775 4 4
10.161491 22.941538 3.9740617 29 12
5.372417 12.117834 -1.1596943 1 5
10.242413 23.091578 4.9102788 5 13
9.9871445 22.494856 -1.2898722 4 6
10.240472 23.043753 5.8217335 28 14
10.023304 22.544466 -0.43065557 7 7
10.151901 22.812256 6.6904726 36 15
1.393674 3.109772 -0.91311359 23 0
10.077543 22.465494 0.42978296 4 8
1.6460729 3.6678147 -0.92814809 17 1
10.100745 22.485685 1.2918609 31 9
2.0191791 4.4907832 -0.95709801 6 2
10.164693 22.59638 2.1677377 4 10
2.5271065 5.6125875 -0.97489971 2 3
10.182328 22.593416 3.042834 34 11
3.4326854 7.6131868 -1.0254087 5 4
10.211719 22.626966 3.9318242 11 12
5.5028167 12.181713 -1.1694556 1 5
10.312829 22.819134 4.867538 1 13
10.02047 22.151625 -1.2741712 4 6
10.296594 22.740923 5.7632461 13 14
10.06163 22.211643 -0.42562929 7 7
10.298138 22.712679 6.6821904 43 15
1.4193621 3.108753 -0.91570181 16 0
10.188422 22.294558 0.42786318 2 8
1.6732593 3.6597779 -0.92904782 16 1
10.156084 22.19305 1.2790909 17 9
2.0537519 4.483717 -0.95862442 6 2
10.219275 22.30027 2.1461229 4 10
2.5686986 5.6001945 -0.9758383 2 3
10.217242 22.254776 3.0067606 35 11
3.4824374 7.5818205 -1.0244337 4 4
10.233289 22.258984 3.8802009 26 12
5.6243672 12.22264 -1.1771255 1 5
10.358586 22.500477 4.8148746 1 13
8.921916 19.362032 -1.1172681 8 6
10.370223 22.484447 5.7164559 1 14
10.343061 22.394691 6.6097212 32 15
1.4394015 3.0952649 -0.91466653 18 0
9.3826828 20.157959 0.38810661 18 8
1.7012366 3.6533072 -0.93039757 14 1
9.3919163 20.150213 1.1651032 5 9
2.0758719 4.4497004 -0.95442665 7 2
9.4174595 20.17742 1.9481051 4 10
2.6152604 5.5982313 -0.97865415 2 3
9.4550171 20.221045 2.7408419 5 11
3.540334 7.56811 -1.0258962 5 4
10.276182 21.947279 3.8382764 34 12
5.7670531 12.305755 -1.1889786 1 5
10.381223 22.141428 4.7534337 2 13
10.093736 21.508728 -1.2451773 2 6
10.401848 22.145155 5.6485209 7 14
10.13178 21.560438 -0.41582102 4 7
10.379107 22.066708 6.5341458 39 15
1.4560146 3.0746648 -0.91156071 18 0
10.226341 21.575512 0.41676345 2 8
1.725865 3.6395802 -0.92994767 12 1
10.212317 21.516809 1.2482127 4 9
2.1094155 4.4404187 -0.95557153 7 2
10.255956 21.579576 2.0903432 3 10
2.6525795 5.5762701 -0.97802842 2 3
10.298265 21.629614 2.9414387 36 11
3.5913725 7.539628 -1.0254087 5 4
10.312688 21.63072 3.7954135 33 12
5.9266162 12.419834 -1.2039695 1 5
10.384991 21.75305 4.6855059 2 13
10.153243 21.24851 -1.2341866 4 6
10.440997 21.831152 5.586884 2 14
10.17245 21.260086 -0.41138813 8 7
10.409404 21.735847 6.4575353 39 15
1.4774427 3.0644257 -0.91156071 21 0
10.234191 21.208235 0.41103908 2 8
1.7495358 3.6239338 -0.92904782 13 1
10.265841 21.245371 1.2365941 4 9
2.1454926 4.4361882 -0.95786124 6 2
10.349097 21.389078 2.0788388 3 10
2.6914446 5.5576158 -0.97802842 2 3
10.334726 21.3214 2.9092653 42 11
3.6378582 7.5018678 -1.0237026 4 4
10.358218 21.341389 3.7572434 34 12
6.0793433 12.514358 -1.2172171 1 5
10.489404 21.582901 4.6645169 1 13
10.179889 20.927464 -1.2196373 4 6
10.524909 21.617559 5.5508919 1 14
10.22079 20.98361 -0.40740898 6 7
10.447455 21.429958 6.3881721 37 15
1.4988005 3.0540364 -0.91156071 18 0
10.274454 20.91729 0.40678069 4 8
1.7722147 3.6063845 -0.92769814 19 1
10.321354 20.985001 1.2256036 4 9
2.1746764 4.4175787 -0.95709801 7 2
10.402219 21.121481 2.0598388 3 10
2.7293055 5.5369191 -0.97771555 2 3
10.360353 20.999502 2.8751419 32 11
3.684871 7.4656076 -1.0222402 4 4
10.394091 21.040089 3.7168832 30 12
6.2354422 12.610918 -1.2308134 1 5
10.490103 21.206474 4.5988789 7 13
10.215857 20.63394 -1.206658 9 6
10.522421 21.234493 5.4712596 4 14
10.253345 20.682417 -0.40294117 6 7
10.489476 21.140182 6.3234673 43 15
1.5252659 3.0538676 -0.91466653 18 0
10.365692 20.735943 0.40465149 4 8
1.808682 3.6165814 -0.93354684 21 1
10.364799 20.707043 1.2135663 4 9
2.198427 4.3882475 -0.954045 6 2
10.474432 20.898726 2.0451968 5 10
2.7616909 5.5053711 -0.97552538 2 3
10.408739 20.731512 2.8483305 38 11
3.7360065 7.4379292 -1.0219964 5 4
10.433366 20.75346 3.6790264 24 12
6.4209442 12.761078 -1.2498133 0 5
10.517844 20.894232 4.546979 6 13
9.4565144 18.769531 -1.1014627 12 6
10.551069 20.923876 5.4100728 4 14
9.528326 18.887447 -0.36925802 41 7
10.524484 20.843977 6.2566919 37 15
1.5430478 3.0362558 -0.91259599 18 0
10.378737 20.404633 0.39959031 4 8
1.8374215 3.6108134 -0.93534642 17 1
10.413923 20.447311 1.2025757 3 9
2.227226 4.3692946 -0.95328182 6 2
10.439038 20.470114 2.0103345 3 10
2.8090415 5.5035505 -0.97865415 2 3
10.445753 20.447973 2.8193257 41 11
3.7851348 7.4063597 -1.0212651 4 4
10.454758 20.439178 3.6361632 21 12
6.5888605 12.870235 -1.2649784 1 5
10.547112 20.59313 4.4973683 6 13
9.4798031 18.49333 -1.0891113 12 6
10.593709 20.648573 5.3578839 2 14
9.548543 18.603428 -0.36499965 60 7
10.549691 20.536295 6.1862931 39 15
1.5642058 3.0254102 -0.91259599 18 0
10.073373 19.466764 0.38259166 54 8
1.8607917 3.5944378 -0.93444669 13 1
10.097005 19.487429 1.1502397 68 9
2.2594848 4.3571239 -0.954045 7 2
10.112842 19.493004 1.9212611 47 10
2.8428435 5.4750395 -0.97708976 2 3
10.144282 19.520258 2.7011125 51 11
3.8352852 7.3738031 -1.020534 5 4
10.148568 19.503544 3.4822314 49 12
6.7484937 12.958223 -1.278226 1 5
10.185128 19.540457 4.2832808 51 13
9.5126486 18.242517 -1.0782255 12 6
10.209247 19.561733 5.0942416 61 14
9.5758762 18.332563 -0.36102048 30 7
10.22934 19.575241 5.9181566 59 15
1.5858151 3.0141397 -0.91259599 15 0
10.100048 19.188934 0.37850779 52 8
1.8882816 3.5844781 -0.93534642 20 1
10.136525 19.225639 1.1390399 54 9
2.2861822 4.3342986 -0.95251852 6 2
10.147896 19.222803 1.9017383 31 10
2.878258 5.4475703 -0.9758383 2 3
10.178269 19.255911 2.6743009 50 11
3.8838892 7.3415823 -1.0198027 5 4
10.191743 19.248865 3.4496934 55 12
6.9059477 13.037557 -1.2907765 1 5
10.219216 19.276342 4.240921 59 13
9.5437078 17.986967 -1.0671303 12 6
10.236827 19.285154 5.0407033 46 14
9.5872946 18.046288 -0.35669228 17 7
10.263042 19.30197 5.8575931 63 15
1.6095532 3.0081048 -0.91414887 19 0
10.293754 19.221933 0.38060206 63 8
1.9077384 3.5609021 -0.93264711 21 1
10.316745 19.240652 1.1441689 59 9
2.3245661 4.3316674 -0.95557153 7 2
10.338393 19.256809 1.9121969 39 10
2.9236963 5.4412656 -0.97834122 1 3
10.35905 19.263008 2.685513 48 11
3.9231539 7.2891302 -1.0163903 4 4
10.373637 19.265945 3.4656496 60 12
7.137063 13.243878 -1.316226 1 5
10.40349 19.289116 4.2600017 57 13
9.5761118 17.747641 -1.0568724 16 6
10.425495 19.305716 5.0654478 48 14
9.6211042 17.8013 -0.35320181 22 7
10.453586 19.333517 5.8891687 53 15
1.6393498 3.0117812 -0.91880763 16 0
10.466906 19.221603 0.3820332 16 8
1.9378335 3.5557148 -0.93489659 22 1
10.499113 19.248745 1.1490884 36 9
2.3453462 4.2980995 -0.95175534 6 2
10.531316 19.283758 1.9223071 37 10
2.9559264 5.408071 -0.97615117 2 3
10.548516 19.291237 2.6996498 51 11
3.9682245 7.2511172 -1.014928 5 4
10.571018 19.300371 3.4853601 53 12
7.29636 13.316044 -1.3284278 1 5
10.575661 19.284874 4.2752662 51 13
9.7345695 17.736444 -1.0603266 18 6
10.612543 19.328119 5.0906425 55 14
9.6873722 17.628542 -0.35110751 19 7
10.650316 19.364859 5.9217801 61 15
1.6575298 2.9951921 -0.91725475 19 0
10.621614 19.177706 0.38266146 3 8
1.9654433 3.5472131 -0.93624628 21 1
10.638073 19.183718 1.1496117 8 9
2.3817587 4.2915058 -0.954045 6 2
3.0080023 5.4132042 -0.98084426 2 3
10.618754 19.093821 2.6825881 38 11
4.0226107 7.230176 -1.015903 4 4
10.633428 19.096661 3.4618952 27 12
7.4496536 13.367914 -1.3388865 1 5
10.59723 19.00823 4.2302361 46 13
9.9155722 17.770956 -1.0665022 16 6
9.8521347 17.635553 -0.35260841 23 7
10.713597 19.16188 5.8824396 39 15
1.6727152 2.9734457 -0.91414887 19 0
10.560022 18.756323 0.37571543 3 8
1.9939831 3.5401981 -0.93804586 21 1
10.608943 18.820156 1.1322361 3 9
2.4049084 4.262804 -0.9513737 7 2
10.722171 18.997763 1.9085364 4 10
3.043777 5.3886323 -0.98021847 3 3
10.645304 18.830868 2.6560206 40 11
4.0710349 7.1984611 -1.0154155 5 4
10.669177 18.850054 3.430608 28 12
7.5938621 13.405725 -1.3479507 1 5
10.625135 18.749313 4.1890206 46 13
10.089646 17.789902 -1.0718405 16 6
10.780828 18.993128 5.0420532 3 14
10.018461 17.642857 -0.35414425 20 7
10.766933 18.945538 5.8389578 27 15
1.693433 2.9616954 -0.91414887 20 0
10.730436 18.751568 0.37711161 3 8
2.0186515 3.52619 -0.93804586 12 1
10.784755 18.82362 1.1369464 5 9
2.4473033 4.2680531 -0.95633471 6 2
10.699885 18.65284 1.8813437 4 10
3.0695179 5.3466949 -0.97646403 2 3
10.673667 18.577078 2.6306717 41 11
4.1350365 7.1939611 -1.0188278 4 4
10.700055 18.600452 3.3986957 30 12
7.7385941 13.446979 -1.3573635 1 5
10.646028 18.484138 4.1462798 40 13
10.518809 18.248524 -1.1038702 6 6
10.814458 18.753862 4.9979625 3 14
10.519215 18.227163 -0.36733824 8 7
1.7189226 2.9581516 -0.91673708 23 0
10.622651 18.273556 0.36894387 3 8
2.0451798 3.5153801 -0.93894571 12 1
10.697627 18.380377 1.1145467 5 9
2.4772885 4.2529912 -0.95671636 7 2
10.659256 18.285076 1.8517108 3 10
3.1098242 5.3325019 -0.97771555 2 3
10.698797 18.330841 2.6060543 43 11
4.1761508 7.149488 -1.0166341 5 4
10.726745 18.35664 3.3674088 31 12
7.9107423 13.526772 -1.3709598 1 5
10.741095 18.351755 4.1333046 22 13
10.538835 17.998978 -1.0930889 8 6
10.865316 18.541719 4.9615207 2 14
10.579433 18.03944 -0.36503452 9 7
10.870713 18.528683 5.7561359 2 15
1.7360713 2.9413929 -0.9151842 15 0
10.648272 18.026768 0.36545339 3 8
2.0660851 3.4963458 -0.93759602 11 1
10.67319 18.047371 1.0988458 4 9
2.4989178 4.2220778 -0.95366341 7 2
10.67182 18.023508 1.8325366 3 10
3.1489875 5.3140612 -0.97834122 2 3
10.72829 18.090082 2.5824115 41 11
4.2259617 7.1201587 -1.0166341 5 4
10.750761 18.106358 3.3351834 38 12
8.0782661 13.594537 -1.3835102 1 5
10.799702 18.159895 4.1069727 40 13
10.573349 17.772198 -1.083773 12 6
11.713297 19.67267 5.2858996 2 14
10.605822 17.798512 -0.36164877 9 7
11.005738 18.462297 5.7592416 1 15
1.757075 2.9288945 -0.9151842 21 0
10.702851 17.833687 0.36304495 3 8
2.0790107 3.4614246 -0.93219715 7 1
10.712533 17.821609 1.0897393 4 9
2.5151801 4.1826568 -0.94870234 6 2
10.776882 17.907423 1.8285275 7 10
3.1910098 5.2981601 -0.97959268 2 3
10.757005 17.853212 2.5592566 39 11
4.2642879 7.0717859 -1.0139531 4 4
10.779008 17.861528 3.3042092 43 12
8.2810926 13.716907 -1.401813 2 5
10.828753 17.922741 4.0703378 44 13
10.60931 17.545681 -1.074562 12 6
11.931044 19.72381 5.3218918 2 14
10.640767 17.576916 -0.35864696 11 7
11.001428 18.158361 5.6888428 1 15
1.7724528 2.9083083 -0.91259599 19 0
10.713571 17.565435 0.35913563 5 8
2.1051555 3.4501534 -0.933097 6 1
10.781524 17.656048 1.0841918 9 9
2.5573313 4.1846542 -0.95328182 5 2
10.743671 17.573366 1.8020321 15 10
3.2237968 5.2690134 -0.97834122 1 3
10.790143 17.621725 2.5370762 38 11
4.3251586 7.0580134 -1.0163903 5 4
10.808457 17.630901 3.2754254 46 12
8.4780235 13.818625 -1.4183725 8 5
10.858112 17.684181 4.0337024 44 13
10.646871 17.333338 -1.0660836 10 6
12.154542 19.7724 5.3583341 1 14
10.669875 17.34363 -0.35543573 11 7
10.967938 17.821173 5.6070561 1 15
1.7983046 2.9037626 -0.9151842 21 0
10.870695 17.54631 0.36028749 5 8
2.1164405 3.4134698 -0.92724824 7 1
10.828611 17.451162 1.0763414 4 9
2.5926957 4.1767068 -0.95557153 6 2
10.774532 17.343716 1.7863441 26 10
3.2624614 5.2474875 -0.97865415 2 3
10.81541 17.389196 2.5144086 43 11
4.3690786 7.0192213 -1.0151716 3 4
10.840344 17.402206 3.247267 46 12
8.6332941 13.853799 -1.4281341 26 5
10.881571 17.448027 3.9970672 45 13
10.658537 17.077106 -1.0549883 14 6
12.356272 19.789549 5.3862276 1 14
10.697445 17.119482 -0.35236409 12 7
10.976363 17.552231 5.5470099 2 15
1.8200847 2.8947251 -0.91621947 16 0
10.850216 17.243195 0.35561025 3 8
2.1365118 3.3940372 -0.92589855 6 1
10.890725 17.287485 1.0707937 4 9
2.6249306 4.1634879 -0.95671636 5 2
10.797733 17.119995 1.7708303 28 10
3.2970474 5.2234902 -0.97834122 1 3
10.854905 17.184044 2.4956405 36 11
4.4114509 6.9809313 -1.0139531 4 4
10.877247 17.199461 3.223176 48 12
9.17945 14.50364 -1.5016935 10 5
10.909763 17.230902 3.9642479 49 13
10.689003 16.869198 -1.0466145 14 6
11.047689 17.421803 4.7626638 1 14
10.724807 16.906122 -0.34946698 13 7
11.048998 17.403713 5.5237164 3 15
1.8402494 2.881948 -0.91621947 18 0
10.807729 16.912594 0.35033962 3 8
2.1633034 3.3839643 -0.92724824 10 1
10.829236 16.926712 1.0531043 4 9
2.6454663 4.1318326 -0.95366341 7 2
10.827789 16.904947 1.7563624 26 10
3.3377004 5.2069955 -0.97959268 1 3
10.853489 16.919037 2.4680982 7 11
4.4590106 6.9482913 -1.0137093 5 4
10.89458 16.963543 3.1931407 50 12
9.2320051 14.36378 -1.4938494 9 5
10.935295 17.007347 3.930284 47 13
10.726534 16.669874 -1.0388688 14 6
11.093074 17.22629 4.7302709 1 14
10.752688 16.691309 -0.3465699 12 7
11.152426 17.298553 5.5149164 1 15
1.855068 2.8609266 -0.91363126 19 0
10.833012 16.694143 0.34737271 3 8
2.1836905 3.3638766 -0.92589855 40 1
10.889474 16.761929 1.0475566 4 9
2.6646163 4.0984488 -0.95022881 6 2
10.847779 16.678627 1.7406744 30 10
3.3761261 5.1868787 -0.98021847 2 3
10.882497 16.706461 2.4481115 7 11
4.5149965 6.9286346 -1.0154155 5 4
10.911312 16.731537 3.1637311 48 12
8.727706 13.372964 -1.3971065 1 5
10.971118 16.804008 3.9008992 51 13
10.750884 16.454136 -1.0300764 12 6
11.022164 16.856476 4.6497383 6 14
10.775908 16.473591 -0.34360299 12 7
11.038025 16.86145 5.4000006 7 15
1.8739334 2.8462927 -0.91311359 21 0
10.835981 16.446112 0.34377751 9 8
2.2103391 3.3534307 -0.92724824 45 1
10.90726 16.535442 1.0381361 4 9
2.6920807 4.0781097 -0.94984722 7 2
10.870637 16.461164 1.7258579 30 10
3.412255 5.1631823 -0.98021847 2 3
11.044848 16.699623 2.4583485 8 11
4.5632582 6.896945 -1.0154155 4 4
10.939509 16.521547 3.1383884 45 12
8.8076477 13.291778 -1.3950148 10 5
10.984022 16.56992 3.864264 52 13
10.783789 16.255518 -1.0223306 8 6
11.055504 16.652481 4.614646 4 14
10.798827 16.259699 -0.3407059 12 7
11.067783 16.652052 5.3575544 7 15
1.8980528 2.8395653 -0.9151842 23 0
10.927176 16.335161 0.34304449 6 8
2.22611 3.3265808 -0.92409897 50 1
10.961308 16.36762 1.0323793 4 9
2.7303226 4.073894 -0.95328182 5 2
10.90097 16.259102 1.7126104 26 10
3.4328065 5.116271 -0.9758383 1 3
11.012889 16.401268 2.4256876 5 11
4.6090789 6.8616252 -1.014928 4 4
10.965329 16.311977 3.1130464 43 12
8.7934647 13.071264 -1.3782809 5 5
11.005176 16.352755 3.831445 53 13
10.802177 16.039026 -1.0134336 6 6
11.073459 16.429462 4.5741549 4 14
10.830468 16.062878 -0.33815783 12 7
11.08651 16.430258 5.310967 7 15
1.9275945 2.8406312 -0.9198429 19 0
10.946584 16.119516 0.34011251 4 8
2.245996 3.3061221 -0.92274922 48 1
10.952905 16.110668 1.02097 4 9
2.7542796 4.0482407 -0.95175534 6 2
10.931249 16.060722 1.6997112 30 10
3.4773376 5.1052418 -0.97834122 2 3
11.028732 16.17964 2.4042385 5 11
4.6579881 6.8309197 -1.0151716 3 4
10.994317 16.111021 3.0892682 46 12
8.8889933 13.016141 -1.3789781 4 5
11.028257 16.142597 3.8001521 45 13
10.82032 15.826384 -1.0047458 8 6
11.104265 16.229517 4.5399623 4 14
10.862144 15.869717 -0.33567959 12 7
11.114707 16.226543 5.2700739 6 15
1.9517611 2.8334694 -0.9219135 19 0
10.904501 15.81879 0.33536544 3 8
2.2723396 3.2951751 -0.92409897 48 1
10.994777 15.931891 1.0144802 3 9
2.7847078 4.0321426 -0.95251852 6 2
10.95817 15.861076 1.6866379 27 10
3.5151432 5.0840888 -0.97896701 2 3
11.070252 15.999413 2.3888831 8 11
4.7134757 6.8096595 -1.0168779 4 4
11.008658 15.892604 3.0620487 50 12
9.4790831 13.674239 -1.4556752 8 5
11.057889 15.945835 3.7719126 51 13
10.855389 15.642159 -0.99783736 8 6
11.15727 16.065166 4.5156674 2 14
10.877972 15.657192 -0.33278248 12 7
11.182503 16.083519 5.2488503 2 15
1.964853 2.8102751 -0.91880763 24 0
10.550368 15.078705 0.32122898 28 8
2.2941716 3.2776346 -0.92364907 45 1
10.571754 15.092443 0.96570319 24 9
2.8003917 3.9949214 -0.94832075 3 2
10.592759 15.105577 1.6141243 12 10
3.5528183 5.0626602 -0.97959268 2 3
10.616948 15.11761 2.2682326 7 11
4.7608981 6.7765894 -1.0168779 4 4
10.643301 15.138275 2.9309564 22 12
9.5032406 13.506699 -1.4448678 8 5
11.075152 15.734995 3.7402382 45 13
10.68531 15.158633 4.2817183 8 14
10.514536 14.910824 -0.31847152 8 7
10.707505 15.173244 4.9760551 30 15
1.9799513 2.7901881 -0.91673708 24 0
10.568552 14.882397 0.31861112 7 8
2.3192549 3.2647157 -0.9245488 53 1
10.599332 14.909199 0.95869017 4 9
2.8384562 3.9896708 -0.95175534 6 2
10.625175 14.928994 1.6031427 1 10
3.5857837 5.0345154 -0.97896701 2 3
10.639273 14.926733 2.2506831 3 11
4.8057861 6.7399535 -1.0163903 5 4
9.5208797 13.333014 -1.4333633 8 5
10.544242 14.749792 -0.9502117 36 6
10.697902 14.953705 4.2448263 1 14
10.561344 14.75738 -0.3167612 42 7
2.0016403 2.779433 -0.91777241 24 0
10.595028 14.701182 0.31630743 48 8
2.3408492 3.2468648 -0.92409897 30 1
10.638886 14.745754 0.95293313 73 9
2.8570461 3.9570239 -0.94870234 6 2
10.645145 14.738162 1.5905921 40 10
3.6139009 4.999754 -0.97708976 2 3
10.693193 14.782931 2.2402024 59 11
4.8608685 6.7174959 -1.0180966 5 4
9.5400753 13.164584 -1.4223818 12 5
10.729139 14.799966 3.5532455 47 13
10.659861 14.693605 -0.95136315 46 6
10.679389 14.704321 -0.31721494 52 7
10.769526 14.817549 4.9082446 60 15
2.0221367 2.7669499 -0.91829002 23 0
10.769411 14.725315 0.31843659 51 8
2.3657625 3.233588 -0.9249987 7 1
10.793487 14.742029 0.95753878 60 9
2.896203 3.9528191 -0.95251852 7 2
10.811382 14.750262 1.6000051 31 10
3.644042 4.9680324 -0.9758383 1 3
10.83255 14.757524 2.2477584 51 11
4.8982363 6.6681418 -1.015903 4 4
10.860915 14.779939 2.9049885 48 12
9.5597458 12.999747 -1.4117486 10 5
10.875497 14.778152 3.566602 50 13
10.826121 14.70568 -0.9570154 46 6
10.912582 14.812293 4.2475257 42 14
10.855537 14.724097 -0.31930923 55 7
10.930043 14.81974 4.9341264 51 15
2.0476398 2.7601664 -0.92087817 25 0
10.948215 14.752548 0.32067052 51 8
2.3818696 3.2071893 -0.92229939 6 1
10.963037 14.750978 0.96319103 53 9
2.922559 3.9309268 -0.95213693 5 2
11.001095 14.786011 1.6123811 33 10
3.6794994 4.9418297 -0.9758383 1 3
11.012389 14.785022 2.2636015 46 11
4.9399214 6.6274195 -1.014928 5 4
11.044352 14.806346 2.9256377 47 12
9.5811529 12.840079 -1.4016386 8 5
11.06063 14.811982 3.5933151 60 13
10.97292 14.68383 -0.96067894 16 6
11.081067 14.823154 4.2727203 48 14
10.997596 14.700792 -0.32046109 12 7
11.121494 14.855583 4.9724321 58 15
2.0691831 2.7488911 -0.9219135 24 0
11.120877 14.763271 0.32262516 19 8
2.4065473 3.1935952 -0.92319912 6 1
11.130681 14.760201 0.96884334 16 9
2.949429 3.9083471 -0.95175534 5 2
11.106448 14.712035 1.6127299 33 10
3.7139122 4.9160194 -0.9758383 1 3
11.169385 14.773931 2.2740822 12 11
4.9872193 6.5919003 -1.014928 4 4
11.152218 14.73518 2.9268892 46 12
9.6042223 12.68066 -1.3917029 8 5
11.199543 14.776263 3.6040003 59 13
10.991896 14.497058 -0.95345652 10 6
11.142094 14.684488 4.2556243 42 14
11.008184 14.497495 -0.31773853 11 7
11.297374 14.87296 5.0045252 57 15
2.0794182 2.7217331 -0.91777241 28 0
11.25646 14.728172 0.32356763 7 8
2.4340744 3.1824841 -0.9249987 6 1
11.192315 14.623074 0.96507514 6 9
2.9682896 3.8767483 -0.94908404 5 2
11.122981 14.516734 1.6000051 30 10
3.7538009 4.8955894 -0.97708976 1 3
11.278287 14.703473 2.2753007 14 11
5.0234485 6.5443249 -1.0129781 4 4
11.18036 14.55474 2.9068656 47 12
9.6148205 12.512192 -1.3805469 8 5
11.222245 14.593444 3.5784323 56 13
11.017397 14.316729 -0.9467575 10 6
11.180146 14.522959 4.2313294 31 14
11.044442 14.336337 -0.31588855 11 7
2.1031015 2.7132583 -0.9198429 24 0
11.279446 14.54138 0.32122898 10 8
2.4586208 3.1684942 -0.92589855 6 1
11.161835 14.37421 0.95377058 4 9
3.0007734 3.8616087 -0.95061046 3 2
11.145796 14.338053 1.5888492 32 10
3.7781861 4.8567886 -0.97458684 1 3
11.308829 14.526841 2.2604327 6 11
5.083653 6.5278869 -1.015903 4 4
11.199121 14.370387 2.8855906 47 12
9.6428461 12.364514 -1.3718314 9 5
11.245349 14.414132 3.5536268 55 13
11.038417 14.138711 -0.94005859 8 6
11.264587 14.418014 4.2241311 41 14
11.064217 14.156471 -0.31361976 10 7
11.338689 14.497206 4.9315381 5 15
2.1255748 2.7030654 -0.92139584 16 0
11.306492 14.367993 0.31913471 10 8
2.468627 3.1359401 -0.92139953 6 1
11.184051 14.197095 0.94717628 4 9
3.0385964 3.8544428 -0.954045 5 2
11.174065 14.169152 1.578739 31 10
3.8168938 4.8364983 -0.9758383 1 3
11.284479 14.288636 2.2355716 6 11
5.121716 6.4828939 -1.0144405 4 4
11.220767 14.192677 2.865567 47 12
9.6621828 12.212514 -1.3624185 8 5
11.262855 14.230592 3.5276768 55 13
11.047577 13.948569 -0.93252218 10 6
11.295974 14.251968 4.1984868 46 14
11.085758 13.981728 -0.31145564 11 7
11.367577 14.326893 4.9004798 5 15
2.1504176 2.6957111 -0.92398405 13 0
11.331671 14.194942 0.31704041 10 8
2.4953241 3.1247206 -0.92319912 7 1
11.316557 14.160796 0.95000237 6 9
3.0556221 3.8208694 -0.95099211 6 2
11.194301 13.992784 1.5677575 31 10
3.855504 4.8159013 -0.97708976 1 3
11.309488 14.116554 2.220947 6 11
5.1680923 6.4485292 -1.0146842 5 4
11.235535 14.009209 2.8442919 50 12
9.6885929 12.071732 -1.354226 10 5
11.282037 14.052109 3.502872 52 13
11.075884 13.785468 -0.92676514 14 6
11.31704 14.075567 4.169693 46 14
11.106648 13.808944 -0.30932647 11 7
11.394637 14.156894 4.869422 5 15
2.1606767 2.6701217 -0.92036057 12 0
11.242984 13.883929 0.31183958 4 8
2.5207565 3.1117675 -0.9245488 7 1
11.25038 13.878199 0.93629038 4 9
3.0834591 3.8009686 -0.9513737 3 2
11.218898 13.824562 1.5576475 35 10
3.8840501 4.7827339 -0.9758383 2 3
11.330151 13.941737 2.2058353 6 11
5.2042198 6.4015098 -1.0129781 4 4
11.249547 13.827756 2.8233294 50 12
9.6921225 11.904918 -1.34307 9 5
11.305484 13.88166 3.4799747 58 13
11.098666 13.618018 -0.92069423 14 6
11.334971 13.898056 4.140449 45 14
11.12187 13.631909 -0.30709255 11 7
11.418665 13.985716 4.8378458 2 15
2.1743636 2.648998 -0.91829002 9 0
11.268559 13.718568 0.30988494 4 8
2.5461326 3.0986094 -0.92589855 6 1
11.286104 13.725269 0.93126607 4 9
3.1124132 3.782383 -0.95213693 5 2
11.232833 13.645915 1.5463171 32 10
3.9047835 4.7402563 -0.97270966 2 3
11.364065 13.785715 2.1936483 6 11
5.2688422 6.387074 -1.0166341 5 4
11.271622 13.658997 2.8048701 46 12
9.7090282 11.757077 -1.3340057 12 5
11.326989 13.706574 3.4563143 52 13
11.129839 13.463234 -0.91546065 12 6
11.367135 13.740498 4.117054 42 14
11.151549 13.470337 -0.3052426 12 7
11.461814 13.840184 4.8150697 1 15
2.1784265 2.6155589 -0.91207838 6 0
11.277011 13.535099 0.30751142 4 8
2.5607526 3.0713296 -0.92319912 6 1
11.308537 13.553677 0.92509043 4 9
3.142519 3.7650826 -0.95328182 5 2
11.25739 13.478022 1.5363814 33 10
3.9411376 4.7152243 -0.97333533 1 3
11.383632 13.614671 2.179024 6 11
5.301836 6.3364358 -1.0144405 4 4
11.295521 13.490145 2.7867239 46 12
9.737134 11.624864 -1.3266847 11 5
11.339161 13.527866 3.4311275 60 13
11.139898 13.280724 -0.90844768 14 6
11.387622 13.571242 4.0900602 45 14
11.173305 13.306396 -0.30328792 12 7
11.498413 13.683868 4.7891879 1 15
2.202868 2.6076646 -0.91466653 7 0
11.303864 13.371592 0.30562654 4 8
2.5833907 3.0548656 -0.92364907 7 1
11.321597 13.378354 0.91849613 4 9
3.1693792 3.7425001 -0.95328182 5 2
11.285524 13.321579 1.5274916 37 10
3.9739599 4.6875954 -0.97333533 2 3
11.40371 13.442037 2.1643996 6 11
5.3408093 6.2932115 -1.0134655 4 4
11.317818 13.326641 2.7692034 46 12
9.7542725 11.477457 -1.3177948 12 5
11.362114 13.364611 3.4097569 60 13
11.162456 13.120481 -0.90279531 16 6
11.411174 13.403346 4.0639653 44 14
11.192025 13.141291 -0.30129832 11 7
11.520984 13.517982 4.7591648 1 15
2.2185042 2.5892892 -0.91363126 9 0
11.291509 13.169384 0.30279925 4 8
2.5983098 3.029361 -0.92139953 6 1
11.32236 13.191384 0.91106445 3 9
3.1992691 3.7247491 -0.95442665 3 2
11.299047 13.150284 1.5168586 35 10
4.0053029 4.6582379 -0.97302246 2 3
11.410529 13.261279 2.1480694 7 11
5.3872037 6.258781 -1.0139531 4 4
11.334518 13.158998 2.7507441 46 12
9.7769213 11.342682 -1.3101251 10 5
11.379498 13.19724 3.3872414 56 13
11.189842 12.968144 -0.89766639 16 6
11.416591 13.221581 4.0329227 43 14
11.216831 12.985658 -0.2995182 10 7
11.501377 13.305684 4.7125773 3 15
2.2314582 2.5679052 -0.91156071 7 0
11.343808 13.044966 0.30175212 4 8
2.624511 3.0170283 -0.92319912 7 1
11.423358 13.122562 0.91179711 6 9
3.2032721 3.6771574 -0.94793916 5 2
11.322517 12.992968 1.5077944 41 10
4.0390244 4.6316509 -0.97333533 2 3
11.398409 13.061647 2.1285703 6 11
5.4268503 6.2165322 -1.0132217 3 4
11.346827 12.988805 2.7316587 46 12
9.786375 11.194644 -1.3008866 13 5
11.409313 13.046541 3.3689237 64 13
11.197246 12.795013 -0.89107209 16 6
11.436719 13.059458 4.0077276 44 14
11.225516 12.813776 -0.2973541 10 7
11.576159 13.204727 4.7053304 1 15
2.2442219 2.5464666 -0.90949017 7 0
11.416091 12.944451 0.30126345 2 8
2.6480885 3.0015552 -0.92409897 6 1
11.33228 12.835867 0.89735234 3 9
3.2431622 3.6708906 -0.95213693 5 2
11.341702 12.832988 1.4983815 37 10
4.0764937 4.609261 -0.97458684 1 3
11.434062 12.91932 2.1183331 6 11
5.466167 6.1740379 -1.0124906 4 4
11.37304 12.836823 2.7163284 48 12
9.8087769 11.063436 -1.2935655 10 5
11.416753 12.872564 3.3445005 58 13
11.234592 12.658273 -0.88698983 16 6
11.462903 12.906451 3.9852331 43 14
11.250947 12.663339 -0.29567868 10 7
11.616712 13.065845 4.6846247 1 15
2.2709553 2.5408206 -0.91311359 9 0
11.475513 12.830159 0.30046064 5 8
2.6689801 2.9829936 -0.92409897 6 1
11.536185 12.884412 0.90635419 6 9
3.2713308 3.6510839 -0.95290023 5 2
11.35787 12.6719 1.4887943 31 10
4.1006594 4.571866 -0.97270966 5 3
11.452381 12.7594 2.1051712 6 11
5.5314317 6.1583939 -1.0163903 4 4
11.396376 12.683638 2.7006848 46 12
9.8271551 10.929503 -1.2858958 8 5
11.435031 12.708815 3.3231297 64 13
11.245188 12.493438 -0.88091892 16 6
11.480995 12.746472 3.9604883 47 14
11.272995 12.50675 -0.29389852 11 7
11.627439 12.895473 4.6525316 1 15
2.2864838 2.5216429 -0.91207838 23 0
11.447922 12.620872 0.29742393 2 8
2.6850159 2.9580495 -0.92229939 6 1
11.559603 12.726133 0.90101594 6 9
3.3020201 3.6339703 -0.95442665 5 2
11.400002 12.537232 1.4825191 11 10
4.129281 4.538022 -0.971771 2 3
11.452982 12.582254 2.0890844 6 11
5.5622602 6.10642 -1.0141968 3 4
11.416318 12.524388 2.684103 50 12
9.8709993 10.825296 -1.2817123 5 5
11.463932 12.563407 3.3059566 61 13
11.269655 12.341855 -0.87589461 16 6
11.502681 12.592624 3.9375434 43 14
11.300665 12.362808 -0.29236272 11 7
11.656832 12.743516 4.6276846 1 15
2.2974954 2.4985075 -0.90949017 54 0
11.490549 12.487127 0.29620224 2 8
2.7082424 2.9420984 -0.92319912 7 1
11.573741 12.564326 0.89525896 8 9
3.3239493 3.6059163 -0.95328182 6 2
11.388655 12.350416 1.4697944 7 10
4.1675601 4.5163426 -0.97333533 2 3
11.482121 12.434347 2.0781162 7 11
5.5980201 6.0601478 -1.0129781 5 4
11.432403 12.367507 2.6675208 49 12
10.082152 10.899179 -1.2989691 7 5
11.475351 12.400938 3.2842045 59 13
11.283622 12.185208 -0.87034708 16 6
11.511699 12.422796 3.910099 48 14
11.316007 12.207355 -0.29054767 15 7
11.669319 12.579675 4.5976615 1 15
2.3148823 2.4824069 -0.90949017 59 0
11.415095 12.232626 0.29204857 6 8
2.7260568 2.9202707 -0.92229939 6 1
11.470298 12.278888 0.88060486 4 9
3.3316135 3.5639784 -0.94832075 5 2
11.399755 12.19057 1.4602073 6 10
4.1895404 4.4770408 -0.97114527 2 3
11.514376 12.295926 2.0683665 12 11
5.6578341 6.0397525 -1.0161467 6 4
11.444161 12.208129 2.6503131 47 12
10.194802 10.867762 -1.3036757 10 5
11.50388 12.258964 3.2677951 57 13
11.316461 12.050811 -0.86636949 16 6
11.535418 12.275387 3.8889537 43 14
11.329732 12.052292 -0.28873262 12 7
11.603305 12.334682 4.5376158 7 15
2.3162282 2.449342 -0.90327853 52 0
11.421865 12.069851 0.290059 4 8
2.7517364 2.9068286 -0.92409897 6 1
11.49942 12.139069 0.87631339 6 9
3.3645172 3.5491812 -0.95061046 5 2
11.410542 12.032623 1.4507943 7 10
4.2193341 4.4462504 -0.97083241 1 3
11.538424 12.150466 2.0573983 6 11
5.6943927 5.9943485 -1.0151716 12 4
11.467867 12.06351 2.636234 46 12
10.171552 10.692388 -1.2911252 14 5
11.509332 12.094443 3.2452796 60 13
11.327316 11.894856 -0.86082184 14 6
11.549583 12.119786 3.865109 50 14
11.344607 11.900532 -0.28698736 11 7
11.591793 12.151335 4.4998283 6 15
2.3412929 2.4414792 -0.90638429 55 0
11.493394 11.976826 0.28974485 6 8
2.7733109 2.8889542 -0.9245488 7 1
11.466282 11.936058 0.86741626 4 9
3.3919344 3.5284364 -0.9513737 5 2
11.425224 11.880861 1.4420789 6 10
4.240684 4.4067221 -0.96864235 2 3
11.521069 11.963811 2.0393617 8 11
5.7319708 5.9501595 -1.0144405 34 4
11.496962 11.926274 2.6237192 45 12
10.171253 10.543684 -1.2817123 18 5
11.532133 11.95023 3.2281067 57 13
11.349036 11.752272 -0.85621631 14 6
11.575684 11.978601 3.8457632 43 14
11.374598 11.766407 -0.28566098 12 7
11.617243 12.009018 4.4770517 2 15
2.3609741 2.4278443 -0.90741962 86 0
11.50142 11.818907 0.28786001 6 8
2.7838967 2.8597481 -0.92139953 6 1
11.511703 11.817089 0.86459005 4 9
3.4274471 3.5159187 -0.95442665 5 2
11.45503 11.746602 1.4354551 5 10
4.2685843 4.3741837 -0.96801656 2 3
11.619573 11.898704 2.042043 8 11
5.7716274 5.9061508 -1.0139531 44 4
11.528855 11.793448 2.6121428 41 12
10.22093 10.448207 -1.2787491 14 5
11.551428 11.80006 3.209789 63 13
11.358141 11.598551 -0.85077339 14 6
11.589461 11.826519 3.8228183 47 14
11.3955 11.620462 -0.28409025 12 7
2.3823571 2.4150131 -0.9089725 54 0
11.506392 11.660046 0.28594023 4 8
2.8056583 2.8411403 -0.92184937 7 1
11.510333 11.647754 0.85820508 4 9
3.4477684 3.4877162 -0.95328182 6 2
11.554206 11.679913 1.4373724 3 10
4.3039446 4.3477378 -0.96895516 2 3
11.647883 11.762284 2.0325372 6 11
5.8043332 5.8572564 -1.0124906 40 4
11.529491 11.626496 2.5933709 11 12
10.231878 10.314364 -1.2710793 14 5
11.57267 11.657824 3.1929979 57 13
11.383137 11.458881 -0.84648186 12 6
11.603066 11.6762 3.8003232 44 14
11.411489 11.4754 -0.28248465 12 7
11.552826 11.609433 4.388536 56 15
2.3895953 2.3887618 -0.90534908 55 0
11.507481 11.49544 0.28391576 8 8
2.8240461 2.8201067 -0.92139953 6 1
11.544709 11.52056 0.85475093 8 9
3.4517851 3.4421608 -0.94755751 5 2
11.574786 11.538486 1.429877 2 10
4.3369923 4.3203735 -0.96958095 2 3
11.543234 11.490966 1.999876 6 11
5.8464904 5.8179922 -1.0127343 19 4
11.548754 11.484429 2.5796049 7 12
10.225922 10.165426 -1.2614923 18 5
11.596675 11.520013 3.1773515 68 13
11.401901 11.318634 -0.84198099 14 6
11.623438 11.534514 3.7805276 46 14
11.431681 11.336319 -0.28101864 17 7
11.566356 11.461865 4.3631721 62 15
2.397959 2.363884 -0.9022432 55 0
11.497153 11.329822 0.28175166 4 8
2.8436654 2.8003225 -0.92139953 6 1
11.594396 11.41369 0.85265756 6 9
3.49193 3.435107 -0.95213693 5 2
11.611012 11.414099 1.4244734 2 10
4.3536191 4.2782907 -0.96676511 2 3
11.551777 11.343981 1.9879328 7 11
5.9238029 5.8131838 -1.0190716 6 4
11.568836 11.348842 2.566777 8 12
10.195628 9.9947557 -1.2491161 27 5
11.608091 11.371458 3.1586523 65 13
11.417326 11.180667 -0.83748007 12 6
11.639605 11.390394 3.7598319 45 14
11.43477 11.182135 -0.2791687 12 7
11.566751 11.30724 4.3341837 57 15
2.4181488 2.351547 -0.90379614 58 0
11.679225 11.349621 0.28426477 8 8
2.854274 2.7727542 -0.9187001 6 1
11.696724 11.354726 0.85433227 9 9
3.5172355 3.4120119 -0.95251852 5 2
11.60691 11.25574 1.4145378 2 10
4.3833804 4.2477927 -0.96676511 2 3
11.570798 11.205058 1.9776958 6 11
6.0141697 5.8200016 -1.0276023 4 4
11.654882 11.274666 2.5683415 10 12
10.21215 9.8721008 -1.2426665 18 5
11.618008 11.223305 3.1399531 70 13
11.433325 11.041028 -0.83297914 15 6
11.654337 11.246609 3.7391367 47 14
11.463616 11.054836 -0.27798194 11 7
11.58838 11.171247 4.3129611 55 15
2.4390979 2.3381937 -0.90534908 60 0
11.685986 11.198629 0.28251958 9 8
2.8768575 2.7549543 -0.91959995 6 1
11.701192 11.197554 0.84878463 8 9
3.5423892 3.3887312 -0.95290023 5 2
11.67851 11.164139 1.4134917 2 10
4.4136653 4.2163172 -0.96676511 2 3
11.581268 11.059571 1.9662402 7 11
6.0661435 5.7888365 -1.0295522 4 4
11.680942 11.139174 2.5564523 3 12
10.272168 9.7923174 -1.2416207 14 5
11.642061 11.090465 3.1254516 70 13
11.080953 10.548555 -0.8017869 28 6
11.664806 11.100489 3.7175412 48 14
11.110142 10.565259 -0.2676152 42 7
11.280114 10.719412 4.1695747 32 15
2.4581687 2.3237638 -0.90638429 32 0
11.124763 10.509136 0.26712653 49 8
2.9002697 2.7388184 -0.92094964 7 1
11.158828 10.530266 0.80408967 73 9
3.5565491 3.3538668 -0.95022881 6 2
11.174813 10.534295 1.3435929 41 10
4.4401174 4.1826925 -0.96613932 2 3
6.1093011 5.7490673 -1.0300398 4 4
10.228728 9.6121387 -1.2280245 14 5
11.25415 10.57206 3.0014255 73 13
11.131022 10.449074 -0.80011219 50 6
11.283452 10.584757 3.5717731 54 14
11.166121 10.471029 -0.26719633 49 7
11.308157 10.596807 4.152493 54 15
2.4700923 2.3025939 -0.90483141 12 0
11.230051 10.461201 0.26789445 66 8
2.9121888 2.7118635 -0.9187001 6 1
11.254004 10.472514 0.80565983 78 9
3.5712492 3.3209364 -0.94793916 5 2
11.281649 10.487224 1.3476021 55 10
4.4764442 4.1583171 -0.9677037 2 3
11.302906 10.492285 1.8936061 57 11
6.159471 5.7157307 -1.0317459 3 4
11.312438 10.490112 2.4435067 45 12
10.24882 9.497159 -1.2224464 16 5
11.356493 10.519912 3.009058 69 13
11.165591 10.335834 -0.7973907 61 6
11.369946 10.517635 3.5758219 48 14
11.146456 10.307288 -0.26499733 61 7
11.33362 10.473026 4.1348934 65 15
2.4846864 2.2839851 -0.9043138 9 0
11.170264 10.260801 0.26475301 64 8
2.9382286 2.6980555 -0.92094964 7 1
11.192921 10.270815 0.79613465 69 9
3.5972407 3.2985768 -0.94870234 6 2
11.209181 10.274929 1.3303453 51 10
4.4966259 4.118958 -0.96582651 2 3
11.245561 10.293829 1.8719133 58 11
6.2153335 5.6873317 -1.0344272 4 4
11.252737 10.289576 2.4150355 54 12
10.297222 9.4092493 -1.2203547 14 5
11.291952 10.314585 2.9728043 101 13
11.169621 10.195692 -0.79257584 50 6
11.3092 10.315866 3.5339811 54 14
11.18859 10.202273 -0.26429924 49 7
11.335062 10.328589 4.1090112 66 15
2.5034328 2.2691791 -0.90534908 7 0
11.290535 10.226871 0.26590487 48 8
2.9526579 2.6735544 -0.91959995 6 1
11.317668 10.240665 0.7999028 52 9
3.6172707 3.2707481 -0.94793916 5 2
11.344197 10.253873 1.3378406 30 10
4.5120807 4.0755467 -0.96301067 2 3
11.396725 10.286894 1.8850751 39 11
6.2725759 5.6597567 -1.0373518 4 4
11.412322 10.290134 2.4338076 36 12
10.412982 9.3824825 -1.2262813 15 5
11.446836 10.310394 2.9945567 51 13
11.337015 10.204321 -0.79937947 35 6
11.482365 10.327886 3.565474 40 14
11.365114 10.218846 -0.26677749 47 7
11.503172 10.335712 4.143693 53 15
2.5264151 2.2580833 -0.90793723 9 0
11.472021 10.246371 0.26848781 45 8
2.9683435 2.65028 -0.9187001 6 1
11.50811 10.267777 0.80827659 53 9
3.6517379 3.2558684 -0.95099211 6 2
11.540444 10.28578 1.3524828 29 10
4.5463243 4.0492024 -0.96426219 2 3
11.566125 10.294189 1.9011619 39 11
6.3000708 5.6052723 -1.0354021 4 4
11.61379 10.325721 2.4613402 36 12
10.295033 9.1467848 -1.2048409 20 5
11.637431 10.335835 3.0254676 48 13
11.515535 10.220376 -0.80691588 35 6
11.653326 10.3354 3.5960677 38 14
11.549902 10.24007 -0.26943025 45 7
11.69362 10.360203 4.1861396 53 15
2.53777 2.2365587 -0.90638429 7 0
11.595798 10.212289 0.2697095 8 8
2.9838483 2.6269174 -0.91780037 6 1
11.637999 10.238629 0.8123588 11 9
3.6537366 3.2121477 -0.94564945 6 2
11.665854 10.252306 1.3587581 7 10
4.5819011 4.0238838 -0.96582651 2 3
11.685454 10.255093 1.9089615 52 11
6.345016 5.5663919 -1.0363771 4 4
11.739067 10.291267 2.4726036 7 12
10.340654 9.0589333 -1.2027491 16 5
11.73146 10.27374 3.0311918 61 13
11.552037 10.10948 -0.80450839 13 6
11.754531 10.279455 3.6050656 49 14
11.575944 10.119704 -0.26838309 12 7
11.791845 10.301196 4.195457 69 15
2.5620704 2.2263916 -0.90949017 7 0
11.703049 10.162554 0.27054721 4 8
3.0080001 2.6111331 -0.91959995 6 1
11.765013 10.205562 0.81623167 6 9
3.6805232 3.1904197 -0.94679433 5 2
11.752196 10.183665 1.3605011 2 10
4.6068945 3.9892116 -0.96520072 2 3
11.711736 10.134289 1.9016495 52 11
6.397234 5.533648 -1.0385706 3 4
11.80615 10.205182 2.4716649 6 12
10.346347 8.9370356 -1.1961254 17 5
11.75238 10.147958 3.0182168 69 13
11.570916 9.9842281 -0.80094957 13 6
11.780256 10.157692 3.5911186 42 14
11.588748 9.9890347 -0.26705673 11 7
11.804925 10.168191 4.1747513 53 15
2.5628822 2.1958799 -0.9043138 7 0
11.785863 10.091008 0.27082643 5 8
3.0320792 2.5951369 -0.92139953 7 1
11.837491 10.124475 0.81633633 6 9
3.6967356 3.1595464 -0.94526786 5 2
11.807858 10.08843 1.3587581 5 10
4.625617 3.9492588 -0.96332359 2 3
11.727831 10.005901 1.8928748 58 11
6.4780006 5.52492 -1.0453953 3 4
10.434273 8.8865471 -1.1990887 19 5
11.764635 10.016035 3.0033338 65 13
11.597743 9.8669672 -0.79801875 15 6
11.795955 10.028494 3.5744722 47 14
11.606395 9.8638582 -0.26586998 11 7
11.813786 10.033002 4.1530108 57 15
2.5840528 2.1829207 -0.90638429 9 0
11.857548 10.009777 0.27086136 12 8
3.0471442 2.5713921 -0.92049968 6 1
11.89872 10.033868 0.81570828 13 9
3.72471 3.13872 -0.94679433 5 2
11.891714 10.017303 1.3603268 7 10
4.6349425 3.901602 -0.9595691 2 3
11.742711 9.877779 1.8841002 55 11
6.54984 5.507668 -1.0507576 4 4
11.865815 9.9707279 2.4547698 30 12
10.442655 8.7686434 -1.1929878 23 5
11.769613 9.8793821 2.9869242 69 13
11.602075 9.7318506 -0.79362249 13 6
11.820871 9.90835 3.5609753 54 14
11.625928 9.7414923 -0.26475301 11 7
11.833176 9.9081202 4.1354108 53 15
2.5962598 2.1623561 -0.90534908 9 0
11.854901 9.8666277 0.26922083 12 8
3.0590296 2.5450711 -0.9187001 6 1
11.887081 9.8828802 0.8101607 13 9
3.7571023 3.1214225 -0.94946563 6 2
11.906176 9.888217 1.3540516 7 10
4.6848688 3.8880723 -0.96426219 2 3
11.74721 9.7423353 1.8738631 59 11
6.5866032 5.4605403 -1.0505139 3 4
11.86364 9.8284168 2.4400651 5 12
10.402326 8.6116714 -1.1814833 15 5
11.789899 9.7569208 2.9747124 69 13
11.614326 9.6047935 -0.78985435 13 6
11.82366 9.7709618 3.5411794 52 14
11.650484 9.6244287 -0.26377568 12 7
11.846935 9.7797623 4.1162581 52 15
2.6172645 2.1490819 -0.90741962 7 0
11.770454 9.658042 0.26576525 6 8
3.0797353 2.5261261 -0.91959995 6 1
11.858478 9.719883 0.8035664 8 9
3.7681706 3.0864086 -0.94679433 5 2
11.797642 9.6596966 1.3340057 4 10
4.7042542 3.8490164 -0.9626978 2 3
11.762682 9.6173716 1.865576 59 11
6.6414709 5.4282422 -1.0531949 3 4
11.829456 9.6616383 2.4191029 6 12
10.480716 8.553957 -1.183575 13 5
11.810566 9.6359053 2.9628823 63 13
11.619177 9.4729948 -0.78566748 13 6
11.840218 9.6463289 3.5258827 51 14
11.658472 9.494874 -0.26244929 16 7
11.869972 9.6602354 4.100729 52 15
2.6292009 2.1283267 -0.90638429 7 0
11.854696 9.589467 0.26614919 8 8
3.0972958 2.504564 -0.91959995 6 1
11.873228 9.5941782 0.80000746 8 9
3.7804594 3.0526278 -0.94450456 3 2
11.839988 9.5570755 1.3312168 3 10
4.7279339 3.8136024 -0.96207207 2 3
11.783175 9.4976406 1.858264 55 11
6.6977515 5.3966928 -1.0561198 3 4
11.879698 9.5651836 2.4156613 6 12
10.437726 8.3981476 -1.1720704 10 5
11.83013 9.5150671 2.951052 73 13
11.649222 9.3628674 -0.78325999 11 6
11.857131 9.5231705 3.5110362 55 14
11.66678 9.3669291 -0.26115781 20 7
11.876846 9.528779 4.0800238 60 15
2.6409767 2.1075082 -0.90534908 7 0
11.805655 9.4142179 0.26356626 8 8
3.1116588 2.4804487 -0.9187001 6 1
11.850869 9.4401274 0.79404122 9 9
3.7924628 3.0188248 -0.94221485 5 2
11.851848 9.430769 1.3251159 6 10
4.7482576 3.7755845 -0.96082056 2 3
11.805676 9.3805676 1.8514392 58 11
6.7595172 5.3671427 -1.0597758 3 4
11.899769 9.4451733 2.4062753 5 12
10.527317 8.3498402 -1.1755567 23 5
11.834832 9.3801708 2.9354057 101 13
11.66577 9.2428684 -0.78001517 13 6
11.868328 9.3966064 3.4948397 55 14
11.686462 9.2459812 -0.26011065 20 7
11.893082 9.4060793 4.0629416 62 15
2.6468785 2.0813909 -0.9022432 7 0
11.762613 9.2462988 0.26115781 6 8
3.1323941 2.4605265 -0.91959995 6 1
11.85056 9.3020554 0.78954029 9 9
3.8350704 3.0092402 -0.94755751 5 2
11.832796 9.2781029 1.3155288 4 10
4.7673798 3.7354188 -0.95925629 2 3
11.811487 9.2514124 1.8421772 61 11
6.8108916 5.3308334 -1.0619696 3 4
11.881474 9.2928438 2.3890674 4 12
10.553962 8.2515984 -1.1720704 21 5
11.852071 9.2598505 2.9235756 71 13
11.674936 9.1149063 -0.77624696 13 6
11.890624 9.2799501 3.4822423 55 14
11.712878 9.1346617 -0.25927296 22 7
11.909801 9.2815456 4.0458593 68 15
2.6674514 2.0675967 -0.9043138 6 0
11.858514 9.1851559 0.261821 8 8
3.1325445 2.4254758 -0.91465092 9 1
11.902575 9.2093182 0.78870296 9 9
3.8502917 2.9769182 -0.94603103 5 2
11.908316 9.2037964 1.316749 7 10
4.7823992 3.6935906 -0.95706618 2 3
11.814527 9.1181402 1.8324275 58 11
6.8582954 5.2892327 -1.063432 3 4
11.949185 9.2120876 2.3896933 1 12
10.66798 8.2184219 -1.1781713 21 5
11.865136 9.1340837 2.9106007 71 13
11.693968 8.9990721 -0.7733162 13 6
11.904202 9.1542349 3.4669456 60 14
11.72879 9.0128403 -0.2581909 19 7
11.923753 9.159339 4.0287776 67 15
2.6913903 2.0554914 -0.90741962 7 0
11.86831 9.0608873 0.26063424 8 8
3.1560183 2.407726 -0.91645062 5 1
11.906226 9.0766859 0.7846207 9 9
3.8678577 2.9475858 -0.94526786 5 2
11.921564 9.0785131 1.3109967 7 10
4.8307137 3.6760232 -0.96144634 2 3
11.833657 9.0017853 1.8256029 59 11
6.9266605 5.2652497 -1.0683068 3 4
11.947159 9.0749664 2.3762398 3 12
10.845692 8.2353153 -1.191419 8 5
11.880126 9.0142441 2.8987703 104 13
11.707135 8.8765469 -0.76996666 13 6
11.899482 9.0191174 3.44715 55 14
11.734038 8.8872738 -0.25693434 24 7
11.939696 9.0364714 4.0122132 68 15
2.6933272 2.0273576 -0.90327853 6 0
11.848145 8.9120197 0.25878429 6 8
3.1805382 2.3914897 -0.9187001 6 1
11.887868 8.9321556 0.77928245 8 9
3.8841412 2.9162962 -0.94412297 6 2
11.860361 8.9017754 1.2974004 5 10
4.8404565 3.6303566 -0.95831764 2 3
11.867587 8.8942556 1.8209718 64 11
6.9918461 5.2381883 -1.0726941 3 4
11.901112 8.9096518 2.3546519 5 12
10.840529 8.1097555 -1.1844466 14 5
11.898746 8.8981638 2.8880851 69 13
11.720822 8.7587318 -0.76682651 15 6
11.926247 8.9057465 3.4363523 57 14
11.749326 8.7704487 -0.25592208 27 7
11.943648 8.9090042 3.9925427 75 15
2.7043118 2.0062029 -0.9022432 7 0
11.895613 8.8183737 0.25847015 8 8
3.1955907 2.368067 -0.9182502 5 1
11.935487 8.838254 0.7783404 9 9
3.8933589 2.8809342 -0.94145161 3 2
11.92702 8.8223181 1.2979233 7 10
4.8752146 3.6035206 -0.96019489 2 3
11.88628 8.7793446 1.8143909 61 11
7.0506034 5.2057557 -1.0761064 3 4
11.907388 8.7853031 2.3437014 5 12
10.847173 7.9972196 -1.1790429 17 5
11.906842 8.7752771 2.8751101 104 13
11.73666 8.6435251 -0.76389569 13 6
11.941039 8.7876225 3.4228551 60 14
11.771614 8.6597643 -0.2550844 40 7
11.952627 8.7865067 3.9749432 68 15
2.7244892 1.9918364 -0.9043138 7 0
11.881 8.6796637 0.25682962 15 8
3.212044 2.3457015 -0.9182502 5 1
11.940436 8.713501 0.77467692 13 9
3.9292397 2.8652508 -0.94526786 5 2
11.935193 8.7001019 1.292171 10 10
4.8842864 3.5577667 -0.95706618 2 3
11.8895 8.6540985 1.8056164 55 11
7.124598 5.1820254 -1.0817124 2 4
11.976414 8.7077732 2.3452659 11 12
10.680297 7.7596908 -1.1549879 20 5
11.905784 8.643712 2.8598454 69 13
11.759535 8.5344 -0.76148826 15 6
11.954771 8.6697216 3.4093583 57 14
11.781466 8.5377579 -0.25396743 28 7
11.968308 8.669982 3.9599316 73 15
2.7355375 1.9700316 -0.90327853 7 0
11.933191 8.5906658 0.2566551 8 8
3.2208374 2.3169663 -0.91600066 6 1
11.979774 8.6115189 0.77321154 8 9
3.9603064 2.8457711 -0.94793916 5 2
12.044077 8.6481733 1.2972261 9 10
4.8743105 3.4973893 -0.95018309 2 3
11.898012 8.5338545 1.7978168 61 11
7.1702824 5.1390986 -1.0831748 2 4
12.048056 8.6287498 2.3471429 13 12
10.554388 7.5561996 -1.1356393 10 5
11.929109 8.5341167 2.851068 73 13
11.758563 8.4058952 -0.75751072 13 6
11.964265 8.5497999 3.3949614 55 14
11.798468 8.4250917 -0.25305989 24 7
11.98601 8.5526962 3.9454377 73 15
2.7571018 1.9564757 -0.90586674 6 0
12.056345 8.5490074 0.25798148 13 8
3.2369344 2.2944241 -0.91600066 6 1
12.077092 8.5542202 0.77561897 13 9
3.9693513 2.8094194 -0.94526786 5 2
12.074883 8.5431652 1.2940885 9 10
4.9421568 3.4940674 -0.9586305 2 3
11.90851 8.4129944 1.7902608 64 11
7.2076039 5.0900636 -1.0834185 3 4
11.990182 8.4612856 2.3243036 7 12
10.744963 7.5769286 -1.1502815 42 5
11.94989 8.4234743 2.8419094 71 13
11.764709 8.2867947 -0.75416124 11 6
11.970963 8.4258251 3.3796647 60 14
11.812841 8.3114481 -0.25211748 25 7
12.004338 8.4399214 3.9319789 73 15
2.76911 1.9360729 -0.90534908 7 0
12.07311 8.4348593 0.25707394 12 8
3.2560701 2.2740004 -0.91690052 6 1
12.059534 8.4159822 0.77069938 11 9
3.9792058 2.7749019 -0.94297814 5 2
11.970781 8.3447275 1.2766573 6 10
4.9518414 3.4493177 -0.95581466 1 3
11.936002 8.3080997 1.7856297 61 11
7.2804422 5.0656986 -1.0890245 3 4
12.003552 8.3457918 2.3155432 11 12
10.660153 7.4062395 -1.1356393 24 5
11.968094 8.3118458 2.8323689 104 13
11.799303 8.1885176 -0.7526958 11 6
11.984652 8.3109589 3.3670673 62 14
11.821275 8.1945992 -0.25107032 24 7
12.015322 8.3229141 3.91645 71 15
2.7698312 1.9079266 -0.90120792 6 0
12.083934 8.3174877 0.2560617 13 8
3.2847087 2.2600517 -0.92049968 6 1
12.030767 8.2716131 0.76515174 9 9
4.0033355 2.7503893 -0.94412297 6 2
12.084587 8.2993011 1.2825838 9 10
4.975801 3.4146631 -0.95581466 2 3
11.947872 8.1931334 1.7788051 66 11
7.3336425 5.0270901 -1.0917057 2 4
12.056634 8.2584381 2.3146045 13 12
10.660626 7.2967563 -1.1302357 11 5
11.969118 8.1892891 2.8190124 73 13
11.813312 8.0766411 -0.74997431 11 6
12.010202 8.2050962 3.3580692 57 14
11.82865 8.0780439 -0.25002316 19 7
12.022076 8.2039776 3.8998857 73 15
2.7910764 1.8939668 -0.90379614 7 0
12.087089 8.1958885 0.25490984 16 8
3.2858891 2.2272248 -0.91645062 6 1
12.122949 8.2109413 0.76734984 16 9
4.0224404 2.7223718 -0.94412297 5 2
12.069623 8.1656094 1.2749141 9 10
4.9995208 3.3798401 -0.95581466 2 3
11.962008 8.080636 1.7724679 101 11
7.4031072 4.9990983 -1.0968242 3 4
12.071418 8.1453447 2.3064699 19 12
10.86494 7.3257399 -1.1464466 28 5
11.983668 8.0770063 2.8090901 101 13
10.767782 7.2520332 -0.68036753 1 6
12.028392 8.0949364 3.3472717 58 14
11.849918 7.9718218 -0.24929017 16 7
12.038975 8.0929031 3.8869445 79 15
2.8058369 1.8755088 -0.9043138 7 0
12.08747 8.0735474 0.25372308 12 8
3.2981162 2.2020664 -0.91555077 5 1
12.103546 8.0751238 0.76253498 13 9
4.0495148 2.6996703 -0.94603103 5 2
12.106445 8.0678844 1.2728225 9 10
5.0065508 3.3339078 -0.95268601 2 3
11.968551 7.9639387 1.7651558 65 11
7.4444366 4.9516945 -1.0977992 4 4
12.058893 8.0149469 2.2933295 15 12
11.051918 7.3400927 -1.1607401 20 5
12.005415 7.9703441 2.8010762 114 13
11.835058 7.8512864 -0.74432206 11 6
12.029382 7.9741621 3.331975 62 14
11.860277 7.859077 -0.24834774 14 7
12.054908 7.9820008 3.8740036 71 15
2.8317695 1.8643746 -0.9084549 6 0
12.118484 7.9724727 0.25319952 13 8
3.3134081 2.1789892 -0.91555077 5 1
12.082849 7.9399681 0.75772005 11 9
4.0403647 2.6530147 -0.93954355 5 2
