# .PCD v0.7 - Point Cloud Data file format
VERSION 0.7
FIELDS x y z intensity ring
SIZE 4 4 4 4 2
TYPE F F F F U
COUNT 1 1 1 1 1
WIDTH 1332
HEIGHT 1
VIEWPOINT 0 0 0 1 0 0 0
POINTS 1332
DATA ascii
11.888906 9.3153982 2.3921962 3 12
10.552909 8.2626438 -1.1725934 21 5
11.84089 9.2677746 2.9228125 69 13
11.671702 9.1287756 -0.77656096 13 6
11.89028 9.2930536 3.4840419 54 14
11.706482 9.1461039 -0.25930786 13 7
11.903215 9.293129 4.0463772 73 15
2.6748013 2.077033 -0.90741962 7 0
11.866294 9.2077599 0.26217005 9 8
3.1412058 2.4365695 -0.91780037 12 1
11.874014 9.2037945 0.78734219 9 9
3.8601098 2.9898949 -0.94908404 5 2
11.916033 9.2263813 1.3184921 6 10
4.8010454 3.7146881 -0.96144634 2 3
11.8207 9.1393738 1.8346213 61 11
6.8998718 5.3328295 -1.0707442 3 4
11.95209 9.230958 2.3918834 1 12
10.673423 8.2374668 -1.1795658 18 5
11.858674 9.148901 2.9113638 66 13
11.679783 9.0043945 -0.77289748 13 6
11.903925 9.1705713 3.4691951 55 14
11.725683 9.0299969 -0.25833052 19 7
11.918813 9.172101 4.0298128 68 15
2.6892364 2.0583086 -0.90741962 7 0
11.858811 9.0700264 0.26059934 8 8
3.1581397 2.4145803 -0.91780037 6 1
11.90465 9.0952101 0.78514409 9 9
3.8746471 2.9581077 -0.94755751 5 2
11.904131 9.0849476 1.3101251 7 10
4.8221498 3.6774859 -0.96050775 2 3
11.840008 9.0229378 1.8277966 61 11
6.9552288 5.2965479 -1.0734253 3 4
11.945509 9.0934544 2.3778043 3 12
10.622841 8.0807257 -1.1677126 8 5
11.876945 9.0281725 2.8999152 101 13
11.707376 8.8960524 -0.77059472 11 6
11.896263 9.0330324 3.4484997 58 14
11.724686 8.8963003 -0.25689942 18 7
11.92561 9.0454674 4.0106602 70 15
2.6946409 2.0320344 -0.9043138 7 0
11.846791 8.9304399 0.25895882 6 8
3.1800056 2.3954382 -0.91914994 5 1
11.886453 8.9473314 0.77970117 8 9
3.8936341 2.9298072 -0.94717592 5 2
11.839849 8.9025431 1.2960058 5 10
4.840445 3.6369522 -0.95894337 2 3
11.867791 8.9138308 1.8224343 61 11
7.0285521 5.275269 -1.0790312 3 4
11.894913 8.9212198 2.3549647 4 12
10.694938 8.0183191 -1.1694556 15 5
11.881549 8.9014807 2.8857954 71 13
11.738758 8.7881079 -0.76850128 15 6
11.924711 8.9240732 3.4386017 57 14
11.749676 8.7866859 -0.2560966 22 7
11.935865 8.9194288 3.9925427 77 15
2.7087624 2.0131714 -0.9043138 7 0
11.887918 8.8287458 0.25847015 9 8
3.1982172 2.3743396 -0.91959995 6 1
11.94221 8.8593693 0.77928245 11 9
3.9129226 2.9007008 -0.94679433 5 2
11.938529 8.8469515 1.300015 7 10
4.8673038 3.6042492 -0.95925629 2 3
11.883402 8.7932558 1.8151222 68 11
7.0779753 5.2355199 -1.0809813 3 4
11.979143 8.8543978 2.359345 1 12
10.703962 7.9060712 -1.1642264 14 5
11.892862 8.7809982 2.8735836 71 13
11.724287 8.6502113 -0.76358169 13 6
11.94435 8.8061285 3.4260044 58 14
11.772097 8.6759701 -0.25525889 30 7
11.948071 8.7992191 3.9759784 68 15
2.7227509 1.9942117 -0.9043138 7 0
11.879872 8.6947584 0.25696924 15 8
3.2052789 2.3450499 -0.91690052 6 1
11.919925 8.7144918 0.77383947 13 9
3.9568582 2.8906825 -0.95251852 5 2
11.925982 8.709343 1.2919967 11 10
4.8843708 3.5643563 -0.95769191 2 3
11.889968 8.6703129 1.8068351 61 11
7.1320004 5.1988378 -1.0836623 3 4
11.962429 8.713563 2.3440144 9 12
10.855544 7.9015055 -1.1746851 19 5
11.911014 8.6665697 2.8632798 104 13
11.742387 8.5376177 -0.7608602 15 6
11.95193 8.6835871 3.410708 58 14
11.782218 8.5571518 -0.25417686 30 7
11.971682 8.688364 3.9635551 67 15
2.7334731 1.9728949 -0.90327853 7 0
12.022999 8.6712656 0.2587494 11 8
3.2278941 2.3271756 -0.9187001 6 1
12.046914 8.6789303 0.77813107 13 9
3.9466693 2.8411946 -0.94526786 5 2
12.018839 8.649148 1.2954829 7 10
4.9059281 3.5278637 -0.95706618 2 3
11.895393 8.5477133 1.7985479 59 11
7.1890802 5.1639752 -1.0868309 3 4
12.029385 8.6344509 2.3452659 12 12
10.557504 7.5723739 -1.1366851 13 5
11.920166 8.5466022 2.851068 67 13
11.756248 8.4228554 -0.75792938 13 6
11.958389 8.5613661 3.3954113 55 14
11.78476 8.4339485 -0.25295517 25 7
11.99119 8.5753574 3.9500966 75 15
2.748754 1.9548831 -0.90379614 6 0
12.057167 8.5685778 0.2581909 12 8
3.2377076 2.3000698 -0.91690052 6 1
12.0665 8.5657063 0.7755143 13 9
3.9535968 2.8044872 -0.94221485 5 2
12.06268 8.5535002 1.2937398 9 10
4.9304366 3.4935305 -0.95706618 2 3
11.922375 8.4415188 1.7936732 68 11
7.2330561 5.1193976 -1.0880497 3 4
12.028085 8.5069151 2.3333766 12 12
10.846037 7.6652193 -1.1619604 17 5
11.945869 8.4393873 2.8430541 73 13
11.782131 8.3175392 -0.75583595 15 6
11.97646 8.448472 3.3837137 58 14
11.8074 8.3261185 -0.25218728 30 7
11.995493 8.452487 3.9319789 71 15
2.7639167 1.9367543 -0.9043138 7 0
12.049529 8.4371738 0.25675982 13 8
3.2696512 2.2885852 -0.92139953 6 1
12.053988 8.4308939 0.77090871 11 9
3.9762981 2.779067 -0.94297814 5 2
12.0486 8.4177351 1.2858958 7 10
4.9644232 3.4658086 -0.95894337 2 3
11.945205 8.333086 1.7883109 66 11
7.3076987 5.0960283 -1.0938994 3 4
12.056393 8.4012718 2.3274322 16 12
10.675279 7.433342 -1.1380796 12 5
11.952937 8.3198881 2.8308423 73 13
11.789083 8.199729 -0.75259113 11 6
11.990344 8.3335133 3.3711166 60 14
11.824183 8.2149591 -0.25131464 32 7
12.006599 8.3354921 3.91645 70 15
2.7757807 1.9163138 -0.90379614 6 0
12.063695 8.3221884 0.25581738 15 8
3.2759233 2.2590649 -0.9187001 6 1
12.087884 8.3295374 0.76933861 13 9
4.0101552 2.7612603 -0.94641262 5 2
12.084096 8.3175993 1.2834555 9 10
4.9738507 3.4209912 -0.95612758 2 3
11.954006 8.215765 1.7809987 63 11
7.3709116 5.0639963 -1.0980428 3 4
12.069152 8.285593 2.3186719 14 12
10.621764 7.2865009 -1.1269237 17 5
11.968632 8.2073698 2.8209202 107 13
11.80979 8.0923929 -0.75028831 11 6
12.009645 8.2231722 3.3603189 60 14
11.833387 8.0994625 -0.25030243 23 7
12.023046 8.2231054 3.9029913 70 15
2.7926166 1.8985751 -0.90483141 7 0
12.084893 8.2098036 0.25501457 15 8
3.2855563 2.2311859 -0.91690052 6 1
12.109167 8.2170305 0.76693118 14 9
4.0346866 2.7357988 -0.94755751 5 2
12.09218 8.1962605 1.2780517 10 10
5.0112877 3.3941736 -0.9586305 2 3
11.950024 8.0877285 1.7717367 65 11
7.4332676 5.0289192 -1.1019428 3 4
12.072492 8.1614008 2.3080344 15 12
10.929536 7.3831758 -1.153942 34 5
11.976619 8.0874538 2.8090901 108 13
11.817727 7.9741631 -0.74714822 11 6
12.019704 8.1043453 3.3468218 58 14
11.852903 7.9888716 -0.2494996 22 7
12.041518 8.1098862 3.8900504 75 15
2.8170404 1.8865564 -0.9084549 7 0
12.063805 8.0729656 0.25337404 12 8
3.2994332 2.2071106 -0.91645062 4 1
12.069932 8.0679188 0.7608602 11 9
4.0471563 2.7032051 -0.94603103 3 2
12.109338 8.0850897 1.2738683 10 10
5.0200706 3.349241 -0.95581466 1 3
11.966551 7.9776821 1.7658869 66 11
7.4632411 4.9735961 -1.1012114 3 4
12.097932 8.0561228 2.3020899 25 12
11.101901 7.3872657 -1.1666667 15 5
11.998456 7.9808168 2.8010762 73 13
10.753664 7.1474257 -0.67670399 1 6
12.033787 7.9921975 3.3351245 60 14
11.856742 7.8716407 -0.24841754 20 7
12.052772 7.9957156 3.8755567 79 15
2.8220792 1.8615251 -0.90586674 6 0
12.126546 7.9929552 0.25351366 15 8
3.3196433 2.1872389 -0.91780037 6 1
12.152649 8.0010357 0.76253498 14 9
4.0511694 2.6651716 -0.94259644 6 2
11.962393 7.8668008 1.2526023 6 10
5.0433316 3.3141103 -0.95581466 2 3
11.988767 7.8721547 1.7610122 63 11
7.524332 4.9388041 -1.1051114 3 4
12.11754 7.9476333 2.2952068 15 12
10.656617 6.984127 -1.114722 9 5
12.016109 7.8721128 2.792299 111 13
10.85009 7.102807 -0.67963481 1 6
12.040361 7.8759942 3.3216274 60 14
11.867897 7.7602134 -0.24751003 20 7
12.067863 7.8849645 3.8626156 71 15
2.8220453 1.8333596 -0.90172559 7 0
11.98581 7.7807088 0.24942979 12 8
3.3430045 2.1693156 -0.92004979 6 1
12.017169 7.7921257 0.75060236 9 9
4.0696774 2.6368241 -0.94259644 3 2
11.993614 7.7679272 1.250162 5 10
5.0729795 3.2831135 -0.95706618 1 3
12.013425 7.768867 1.7566248 66 11
7.5619626 4.88831 -1.1055988 3 4
12.098061 7.8146114 2.2811277 10 12
11.277618 7.2790785 -1.1743364 27 5
12.017983 7.7539725 2.7800872 114 13
11.866308 7.6502471 -0.7399258 13 6
12.059011 7.7685261 3.3117294 60 14
11.886474 7.6544404 -0.24677703 14 7
12.072255 7.7681165 3.8465688 79 15
2.8364031 1.8146544 -0.9022432 7 0
12.024679 7.6871438 0.24911566 11 8
3.3482151 2.1396279 -0.91735035 5 1
12.057813 7.6994352 0.74976498 11 9
4.0830197 2.6051819 -0.94145161 5 2
12.064349 7.6947203 1.2519051 7 10
5.0857811 3.2412477 -0.95518899 2 3
12.01044 7.6485548 1.7483377 101 11
7.629396 4.8567176 -1.1104735 3 4
11.264263 7.159555 -1.1677126 19 5
12.035369 7.6467199 2.7716916 108 13
11.885704 7.5458088 -0.73783237 13 6
12.080041 7.663271 3.3027315 60 14
11.902469 7.5477114 -0.24600913 14 7
12.087029 7.6588316 3.8341455 79 15
2.8604448 1.8020165 -0.90586674 6 0
12.047585 7.5838375 0.24848737 11 8
3.3531756 2.1099722 -0.91465092 5 1
3.9886205 2.5078804 0.24692108 5 9
4.1110826 2.5828803 -0.94374132 5 2
12.087405 7.5912342 1.2487675 7 10
5.1116304 3.2077653 -0.95581466 1 3
12.023184 7.5392041 1.742488 68 11
7.6816163 4.8149376 -1.1131548 4 4
12.207664 7.6459818 2.2814405 0 12
11.254862 7.0437474 -1.1616118 21 5
12.046849 7.5364799 2.7621512 105 13
11.8839 7.4287691 -0.73448288 13 6
12.09027 7.5519142 3.291034 60 14
11.920947 7.4432502 -0.24531102 12 7
12.097585 7.5476799 3.8206871 77 15
2.864748 1.7769102 -0.90327853 6 0
3.8889372 2.410305 0.079862215 17 8
3.3711376 2.0885639 -0.91555077 5 1
3.98735 2.468411 0.24576966 8 9
4.120666 2.5489526 -0.94183326 5 2
12.129935 7.5003819 1.2477216 7 10
5.1406221 3.1761549 -0.95706618 1 3
12.038364 7.4321408 1.7371258 65 11
7.7302499 4.7705712 -1.1153483 4 4
12.185083 7.5139122 2.2673614 1 12
11.229124 6.9190197 -1.153942 22 5
12.06741 7.4326305 2.7549005 111 13
11.904854 7.3267856 -0.73259878 13 6
12.086261 7.4326096 3.275737 65 14
11.930029 7.3336701 -0.24443841 16 7
12.123648 7.4468546 3.8124046 77 15
2.8754334 1.7558615 -0.90276086 6 0
3.8732359 2.3633065 0.079199016 35 8
3.388963 2.0670092 -0.91645062 5 1
3.9874308 2.4301198 0.24472295 10 9
4.1283007 2.5139942 -0.93954355 6 2
3.9619589 2.4117522 0.40579712 11 10
5.1694226 3.1442926 -0.95831764 1 3
12.052634 7.3252401 1.7317636 66 11
7.7888141 4.7319479 -1.1190044 3 4
12.218666 7.4173918 2.2639198 15 12
11.360624 6.8910885 -1.1624832 24 5
12.078711 7.3237801 2.7457416 118 13
11.913009 7.2176228 -0.72998202 3 6
12.111183 7.331903 3.2685387 65 14
3.8185718 2.3107874 -0.07790754 23 7
12.13236 7.3360448 3.7989461 77 15
2.8876216 1.7357445 -0.90276086 6 0
3.879354 2.3300326 0.078989588 22 8
3.4116642 2.0483148 -0.9187001 6 1
4.0265632 2.4155822 0.24608369 10 9
4.1508017 2.488142 -0.94068843 5 2
3.9359744 2.3584304 0.40143937 13 10
5.1641297 3.0918937 -0.95331174 2 3
12.076223 7.2246118 1.7278637 68 11
7.837811 4.6852584 -1.1211981 3 4
11.391355 6.8013897 -1.1607401 4 5
12.090346 7.2130189 2.7365828 118 13
2.8252425 1.6848502 -0.17239466 35 6
12.12859 7.2272272 3.2595408 60 14
3.8057992 2.2660134 -0.077314161 49 7
12.135135 7.2225199 3.7839346 81 15
2.8983057 1.7140533 -0.9022432 7 0
3.7853575 2.2377627 0.076755688 9 8
3.419523 2.0198846 -0.91690052 6 1
3.8958254 2.2993989 0.2370819 10 9
4.1613073 2.4551129 -0.93916196 3 2
3.8909605 2.2937815 0.39516413 12 10
5.1861224 3.0548606 -0.95331174 2 3
12.075049 7.1099119 1.7205516 104 11
7.8857255 4.6394892 -1.1233917 3 4
3.7634449 2.2124178 0.6914404 4 12
3.8323197 2.2520075 -0.38888893 52 5
12.104856 7.1075611 2.7285688 105 13
2.8492854 1.6716651 -0.17312735 9 6
12.138406 7.1187177 3.2487431 60 14
3.7766697 2.2131007 -0.076406635 11 7
12.149831 7.1140232 3.7725468 78 15
2.9135406 1.6957211 -0.90327853 6 0
3.7822587 2.1995599 0.076371737 10 8
3.4268022 1.9920452 -0.91510093 6 1
3.8340659 2.2270029 0.23237166 9 9
4.1685815 2.4193597 -0.93687224 5 2
3.8844755 2.2535639 0.39289808 10 10
5.2039046 3.0165987 -0.95268601 2 3
12.087825 7.0014329 1.7151892 50 11
3.8756418 2.2439213 -0.54987448 40 4
3.780509 2.1870797 0.69175333 10 12
3.8293624 2.2135584 -0.38697147 55 5
12.116782 7.0012712 2.7201731 119 13
2.8435891 1.6417476 -0.17208064 8 6
12.148524 7.0083041 3.2379456 63 14
3.7902946 2.1856835 -0.076371737 11 7
12.170743 7.0126314 3.7637467 74 15
2.9219544 1.6734207 -0.9022432 6 0
3.7732234 2.1591966 0.075883061 10 8
3.4372413 1.9661394 -0.91420108 6 1
3.8113716 2.1783781 0.23006889 9 9
4.1819606 2.3882511 -0.93610895 5 2
3.8672376 2.207623 0.38958618 11 10
3.8607175 2.2021146 -0.70395517 36 3
3.8567162 2.1971569 -0.54499972 58 4
3.8025522 2.1645422 0.69300479 8 12
3.8291357 2.1779051 -0.38540271 46 5
12.139765 6.9019542 2.7144489 120 13
2.8584542 1.6238286 -0.17228998 9 6
12.153092 6.8983097 3.226248 65 14
3.7671978 2.1374588 -0.075603828 10 7
12.192514 6.9122486 3.7554643 72 15
2.9352496 1.6539278 -0.90276086 7 0
3.7742658 2.1249535 0.075603828 10 8
3.4559796 1.9449607 -0.91555077 6 1
3.8055959 2.1399693 0.22881283 9 9
3.8442311 2.1599317 -0.85711402 32 2
3.8582354 2.1669118 0.38714582 11 10
3.8811641 2.17801 -0.70489377 69 3
3.8300276 2.1475537 0.53915 22 11
3.8861949 2.1772649 -0.54694968 55 4
3.8003364 2.1282907 0.68987608 30 12
3.8425081 2.1501467 -0.38522837 33 5
12.15114 6.7938352 2.7060535 118 13
2.8819253 1.6106539 -0.17302269 9 6
12.173732 6.7980947 3.2190495 66 14
12.191549 6.7996659 3.740453 78 15
2.9436295 1.6310101 -0.90172559 6 0
3.7837596 2.0956476 0.07549911 10 8
3.471513 1.9211257 -0.91600066 6 1
3.8173158 2.1107495 0.22860347 9 9
3.8282895 2.1159449 -0.85024494 56 2
3.845737 2.1238363 0.38435683 7 10
3.8758962 2.1387293 -0.70113939 58 3
3.8866434 2.1437724 0.54499972 9 11
3.9082534 2.1539154 -0.54792464 52 4
3.8448846 2.11724 0.69519484 22 12
2.8276145 1.5564246 -0.2823846 61 5
12.169033 6.692749 2.6995659 101 13
2.9021292 1.5947996 -0.17354605 34 6
12.193566 6.6979289 3.2118511 63 14
12.194154 6.6871819 3.7264767 77 15
2.949856 1.6076452 -0.90017265 7 0
3.7758286 2.0560861 0.075045347 9 8
3.4899764 1.8996365 -0.91735035 6 1
3.8109033 2.0725994 0.22734742 10 9
3.8588567 2.0969341 -0.85367942 63 2
3.8429618 2.0874281 0.38261372 7 10
3.9046216 2.1191561 -0.70364231 38 3
3.9123552 2.1215832 0.54646218 39 11
3.9441376 2.1379299 -0.55084944 39 4
2.8474407 1.5408919 -0.28325617 78 5
12.186104 6.5917501 2.6930783 67 13
2.9096773 1.5726022 -0.17333671 9 6
12.217177 6.5975389 3.2055526 60 14
2.9474847 1.5910426 -0.058465563 9 7
12.216741 6.5890436 3.7192299 77 15
2.9610069 1.5870135 -0.90017265 7 0
3.7900908 2.0296757 0.075045347 10 8
3.4825356 1.8641911 -0.9119516 5 1
3.8111904 2.0384078 0.22651003 8 9
3.8959124 2.0819705 -0.85864049 56 2
3.8363521 2.0492833 0.38052195 10 10
3.9576612 2.1123059 -0.71052545 38 3
3.920064 2.0904837 0.54548723 7 11
3.8013101 2.0263007 -0.52891296 20 4
12.258591 6.5289955 2.1997817 6 12
2.8686819 1.5265913 -0.28430203 78 5
12.214492 6.4973016 2.6892622 48 13
2.9152942 1.5494384 -0.17302269 9 6
12.221633 6.4901505 3.1947548 66 14
2.9726508 1.5779271 -0.058744799 9 7
12.231723 6.4873009 3.7099123 74 15
2.9805593 1.5708065 -0.90276086 7 0
3.0256405 1.5932158 0.059687231 54 8
3.502363 1.8434635 -0.91375118 5 1
3.8323991 2.0154698 0.22692874 8 9
3.9590137 2.0802929 -0.86932582 31 2
3.8329268 2.013186 0.37877885 7 10
3.8533688 2.0222073 -0.68925035 27 3
3.931046 2.0612218 0.54499972 7 11
3.7907474 1.9868135 -0.52550066 42 4
11.813888 6.1866612 2.1121783 39 12
11.798537 6.1707535 2.5881333 36 13
2.9278111 1.5299716 -0.17312735 8 6
11.812324 6.167459 3.0764306 49 14
2.974731 1.5525081 -0.058570277 8 7
11.819357 6.1632581 3.571703 78 15
2.984592 1.5464051 -0.90069032 6 0
3.0455687 1.5766507 0.059861753 64 8
3.5289931 1.8261324 -0.91735035 5 1
3.8268607 1.9785752 0.22577733 10 9
3.9333224 2.0318789 -0.86054862 46 2
3.8521991 1.9891205 0.37930179 8 10
3.8568597 1.9898221 -0.6873731 52 3
3.9471049 2.0346372 0.54524344 7 11
3.8045256 1.9603007 -0.52550066 42 4
11.76722 6.0579219 2.0962222 60 12
2.9021199 1.4927671 -0.28552222 8 5
11.794188 6.0639954 2.5778296 107 13
2.9561865 1.5186207 -0.17417407 8 6
11.801347 6.0572634 3.0624835 68 14
2.9890556 1.5335283 -0.058640085 9 7
11.825992 6.0620923 3.5608325 45 15
2.9901502 1.5229023 -0.89913744 6 0
3.0618484 1.558071 0.059966467 69 8
3.5347075 1.7979186 -0.91555077 5 1
3.8405802 1.9518105 0.22577733 7 9
3.9176531 1.9892591 -0.85406113 55 2
3.8411186 1.9495542 0.37686142 8 10
3.8829892 1.9691015 -0.68956316 60 3
3.9169452 1.9846001 0.53915 7 11
3.8393695 1.9444551 -0.52842557 42 4
2.907136 1.4697747 -0.28499928 8 5
2.9774132 1.5033482 -0.17480211 8 6
2.9937997 1.4985296 -0.89706683 6 0
3.5367155 1.7679679 -0.91285133 5 1
3.8612599 1.9285202 0.22619602 7 9
3.9156339 1.9539725 -0.85062653 56 2
3.8528523 1.9218012 0.37668711 7 10
3.8966405 1.9419471 -0.68956316 48 3
3.877394 1.9306636 0.53183788 7 11
3.8741755 1.9282197 -0.53135037 42 4
2.924463 1.4529892 -0.28569651 8 5
2.9932032 1.4851886 -0.17511612 67 6
11.834139 5.8667922 3.0494366 49 14
3.0298846 1.501413 -0.05902404 67 7
3.0440595 1.4972028 -0.9089725 1 0
3.0797143 1.5134064 0.059896659 9 8
3.5472229 1.7423749 -0.9124015 6 1
3.1574368 1.5495484 0.18432724 74 9
3.9573848 1.940416 -0.85673243 31 2
3.8661742 1.8948582 0.37668711 7 10
3.9491341 1.9338064 -0.6964463 25 3
3.7588267 1.8389906 0.51380116 7 11
11.827614 5.7789388 2.0849588 54 12
2.9488585 1.4395308 -0.28709102 8 5
11.841971 5.7757168 2.5610385 104 13
2.992727 1.4590045 -0.1744881 42 6
11.885318 5.7891574 3.0521359 46 14
11.905186 5.7911248 3.547374 46 15
2.6319785 1.2712144 -0.7831865 50 0
3.1082127 1.5005628 0.060245708 17 8
3.5578454 1.7161005 -0.9119516 5 1
3.1540506 1.519978 0.18348989 75 9
3.8886116 1.8714644 0.37755868 6 10
3.6230719 1.7413329 0.49357089 6 11
2.9150493 1.3997868 -0.39705035 70 4
12.073479 5.792417 2.1209388 29 12
2.96243 1.4206305 -0.28743961 31 5
12.129879 5.8116651 2.614465 37 13
12.189125 5.8322062 3.1196213 32 14
3.0490029 1.4575677 -0.058989134 8 7
12.204319 5.8290095 3.6239846 36 15
2.6355522 1.2503259 -0.78163356 42 0
3.118871 1.4782826 0.060245708 67 8
3.5873492 1.6995653 -0.91645062 5 1
3.1736114 1.502194 0.18401325 77 9
4.3322811 2.0487845 -0.93152958 3 2
12.200099 5.7669659 1.1806116 7 10
5.4211121 2.5602324 -0.9495573 1 3
3.5726056 1.6857123 0.48504004 9 11
2.928582 1.3805857 -0.39753783 76 4
12.263727 5.7787166 2.1472197 8 12
2.9743221 1.4002455 -0.28761396 8 5
12.286631 5.7790308 2.6392701 16 13
3.0275135 1.4233491 -0.17532547 8 6
12.299338 5.7771454 3.1371675 53 14
3.0647857 1.4382608 -0.059093848 13 7
12.314675 5.7764816 3.64469 68 15
3.1273022 1.4556288 0.060210802 62 8
3.597652 1.6730294 -0.91600066 5 1
3.1897135 1.4819704 0.18432724 73 9
4.3500395 2.0201433 -0.93229276 3 2
3.2351227 1.5010089 0.31201756 27 10
5.4070344 2.5064209 -0.94392568 1 3
3.6022978 1.6690767 0.48747739 8 11
12.299385 5.6883235 2.146281 15 12
2.9767919 1.3761013 -0.2869167 9 5
12.410446 5.7318025 2.6572063 23 13
3.0412474 1.4033234 -0.17553481 8 6
12.314595 5.6797128 3.1308687 71 14
12.318846 5.671247 3.6338196 81 15
2.7687006 1.2664419 -0.81579769 28 0
3.1392081 1.4345903 0.060245708 69 8
3.5983214 1.6436443 -0.91330135 5 1
4.351532 1.9840261 -0.92962146 3 2
3.2525175 1.4822568 0.31271479 56 10
5.4239688 2.4695606 -0.94392568 1 3
3.3301742 1.5148422 0.44921044 3 11
2.9692597 1.3494158 -0.40046272 8 4
12.319834 5.5963025 2.1431525 23 12
2.9990265 1.3610495 -0.2881369 8 5
12.353602 5.6012487 2.6365988 35 13
3.0543683 1.3842372 -0.17574416 61 6
12.343293 5.5887856 3.1281695 70 14
3.1082537 1.4060434 -0.059547611 79 7
12.327235 5.5737386 3.6250196 77 15
2.7882671 1.251343 -0.81890345 28 0
3.1491461 1.4126412 0.060245708 51 8
3.5993211 1.6130713 -0.91060191 5 1
3.2319696 1.4470829 0.18558332 74 9
4.3742371 1.957608 -0.93152958 5 2
3.2666788 1.4605709 0.31306344 46 10
5.4342871 2.4274619 -0.94267422 2 3
2.9713557 1.3254201 -0.39948773 6 4
12.361367 5.50881 2.1434653 18 12
3.0157344 1.3433233 -0.28883412 8 5
12.431866 5.5324283 2.6449945 39 13
3.0641954 1.3623452 -0.17574416 70 6
12.342832 5.4850659 3.1182716 65 14
3.107028 1.3794408 -0.059338182 73 7
12.347378 5.476768 3.6193256 78 15
2.8093107 1.2372987 -0.82252699 23 0
3.1701562 1.3949023 0.060455136 46 8
3.6140614 1.5894748 -0.91150165 5 1
3.2218785 1.4156479 0.18443193 71 9
4.3863358 1.9254675 -0.93114793 3 2
3.2950404 1.4457364 0.31480655 52 10
5.4456739 2.387085 -0.94173563 2 3
12.283093 5.3791175 1.6464549 66 11
2.9844015 1.305715 -0.39997521 7 4
12.388668 5.4176226 2.141588 25 12
3.0362244 1.3264947 -0.28988001 73 5
12.458542 5.437829 2.642323 18 13
3.0846148 1.3457133 -0.17637219 68 6
12.346038 5.3810301 3.1092734 65 14
12.364058 5.3811827 3.6131141 78 15
2.8109984 1.2141002 -0.82045639 16 0
3.1908326 1.3774921 0.060664564 66 8
3.6342907 1.5674295 -0.91375118 6 1
3.2429318 1.3972985 0.18505996 65 9
4.3834429 1.8878093 -0.92771345 3 2
3.3071313 1.4229079 0.31498083 49 10
5.5515428 2.3862798 -0.95706618 1 3
12.30393 5.2861876 1.6442614 108 11
2.9952686 1.2856312 -0.40021896 10 4
12.448902 5.3381815 2.1453426 6 12
3.0325923 1.2997714 -0.28865981 63 5
12.369869 5.2966189 2.6156096 8 13
3.0941656 1.3236058 -0.17637219 25 6
12.358219 5.2839756 3.1029749 66 14
3.1464465 1.3440217 -0.059722137 24 7
12.372041 5.2796793 3.6043141 72 15
2.822964 1.1959534 -0.82149172 18 0
3.2042911 1.3561826 0.060734376 69 8
3.6451449 1.5420192 -0.91375118 6 1
3.2618065 1.378512 0.18558332 69 9
3.3151491 1.3990105 0.31480655 45 10
2.9760668 1.2546924 -0.51154077 12 3
12.326807 5.191843 1.6423115 106 11
3.0078301 1.2662294 -0.40070644 67 4
12.456732 5.2388883 2.1403368 7 12
3.0509999 1.2818962 -0.28953138 33 5
12.502481 5.2504263 2.6358356 9 13
3.1143811 1.3066083 -0.17700022 7 6
12.381334 5.1893864 3.0993757 69 14
3.1373088 1.314296 -0.059373088 51 7
12.372957 5.1782613 3.5939615 74 15
2.8330288 1.1769559 -0.82200933 13 0
3.2099872 1.3322463 0.060664564 67 8
2.8944168 1.2006825 -0.72344255 5 1
3.2861116 1.3618239 0.18642069 61 9
2.9603522 1.2256144 -0.62280059 13 2
2.9591956 1.223321 -0.5071606 22 3
12.324223 5.089747 1.637193 68 11
3.034946 1.2527742 -0.40314382 33 4
12.366995 5.099834 2.1187487 8 12
3.0598745 1.2605649 -0.28953138 6 5
12.504338 5.1488123 2.6285849 9 13
3.1068032 1.2779957 -0.17605817 46 6
12.392027 5.0924525 3.0930772 71 14
3.1815529 1.306797 -0.060036276 77 7
12.389147 5.0836883 3.5882673 78 15
2.8519113 1.1615211 -0.82511514 11 0
3.2340269 1.3158343 0.060943801 67 8
2.9045341 1.1811806 -0.72389251 45 1
3.301089 1.3411059 0.18673471 50 9
4.416873 1.7926078 -0.92656857 2 2
12.440148 5.0463691 1.1745108 9 10
2.9566801 1.1981794 -0.50528342 1 3
12.330014 4.9916649 1.633293 101 11
3.0380974 1.2293218 -0.40241259 7 4
12.356511 4.994864 2.1109269 7 12
3.0907693 1.2481263 -0.29162312 9 5
12.519952 5.0533071 2.624387 8 13
3.143434 1.2674798 -0.17762825 70 6
12.398355 4.9941654 3.0858786 69 14
3.1905985 1.2845538 -0.060036276 73 7
12.399242 4.9869795 3.5810204 83 15
2.8832748 1.1508944 -0.83184445 9 0
3.2487068 1.2954466 0.061048519 13 8
3.302949 1.3150722 0.18631603 72 9
4.4274554 1.7610028 -0.92618686 3 2
12.397316 4.9284778 1.1671896 9 10
5.5242124 2.1938844 -0.9414227 1 3
12.344264 4.8974175 1.630612 106 11
3.0466056 1.208082 -0.40241259 7 4
12.361695 4.8968434 2.105921 7 12
12.441734 4.9210148 2.6007268 16 13
3.1559222 1.2469702 -0.1778376 72 6
12.400291 4.8946085 3.0777805 71 14
3.1957684 1.2607801 -0.059966467 69 7
12.419378 4.894628 3.5768793 81 15
2.8948376 1.1321445 -0.83287972 9 0
3.2688479 1.2770994 0.061257947 64 8
3.6740723 1.4346787 -0.91060191 6 1
3.3213537 1.2956088 0.18683939 63 9
4.4359827 1.7286271 -0.92542368 5 2
12.494545 4.8663931 1.1731163 9 10
5.554121 2.1609976 -0.94392568 1 3
12.35965 4.8039269 1.6281745 106 11
3.054965 1.1867846 -0.40241259 14 4
12.366115 4.7989883 2.100915 7 12
3.1041799 1.2034086 -0.29127449 73 5
12.451991 4.8248086 2.5957658 6 13
3.1757262 1.2292329 -0.17846562 72 6
12.423253 4.8037081 3.0750811 70 14
3.2100878 1.2406013 -0.060071182 16 7
12.42441 4.796679 3.5685973 81 15
2.9225152 1.1195087 -0.83857375 7 0
3.2888889 1.2585369 0.061467376 71 8
3.68946 1.4110806 -0.9119516 6 1
3.3415115 1.2766683 0.18746741 61 9
4.4479423 1.697616 -0.92542368 3 2
12.509596 4.7719512 1.1713731 10 10
5.5469213 2.113729 -0.94017124 2 3
12.378047 4.7118678 1.6262246 109 11
8.8333015 3.3607533 -1.16044 3 4
12.380854 4.7055159 2.0977864 7 12
3.1162305 1.1831238 -0.29162312 76 5
12.46885 4.7314901 2.5923312 9 13
3.1991704 1.2126973 -0.17930301 72 6
12.427326 4.7058187 3.0678825 63 14
3.226151 1.2209932 -0.060210802 65 7
12.432295 4.7002587 3.5613501 85 15
2.9845238 1.1194317 -0.85410291 5 0
3.2919776 1.2334406 0.061362665 67 8
3.6919203 1.3825568 -0.9101519 6 1
3.3727908 1.2617064 0.18872347 30 9
4.4596858 1.666522 -0.92542368 2 2
12.525807 4.6782274 1.1698043 10 10
5.5467367 2.0694287 -0.93766832 2 3
12.379016 4.6135583 1.622081 65 11
8.8677111 3.3031564 -1.1619024 3 4
12.39859 4.613462 2.0952835 7 12
3.1318841 1.1641161 -0.29232034 74 5
12.422441 4.6149335 2.5759215 13 13
3.2131763 1.1924179 -0.17961702 74 6
12.448915 4.6148744 3.0651829 65 14
3.2514729 1.2046934 -0.060524948 71 7
12.443068 4.605298 3.5551386 81 15
3.053925 1.1212058 -0.87170261 6 0
3.3042634 1.2118053 0.061432473 62 8
3.7014825 1.3567487 -0.9101519 6 1
3.3983963 1.2443094 0.18966553 7 9
4.484118 1.6400675 -0.92809504 3 2
12.53945 4.5838261 1.1680613 10 10
5.5703259 2.0340424 -0.93923265 2 3
12.392274 4.5202217 1.6196437 45 11
8.8737698 3.2350528 -1.1597089 3 4
12.410078 4.5193553 2.0918419 8 12
3.1436801 1.1435854 -0.292669 45 5
12.478343 4.5368166 2.5808828 11 13
3.2082815 1.1651841 -0.17888431 72 6
12.458845 4.519877 3.0597842 65 14
3.2767239 1.1880976 -0.060839087 79 7
12.460384 4.5130539 3.5509973 81 15
3.0907674 1.1103078 -0.8799848 2 0
3.7016926 1.3275851 -0.90790248 6 1
3.3825567 1.2117988 0.1883048 51 9
4.4862161 1.6054151 -0.92618686 3 2
12.563641 4.4934888 1.167364 10 10
5.5825305 1.9944401 -0.93891978 2 3
12.404834 4.4269252 1.6172063 30 11
8.9023027 3.173466 -1.16044 3 4
12.415276 4.4233251 2.0874617 9 12
11.206061 3.9880919 -1.0406395 10 5
12.484591 4.4382014 2.5755401 12 13
3.2370403 1.1501116 -0.1800357 74 6
12.457039 4.4210615 3.051686 71 14
3.2794871 1.1626167 -0.060734376 76 7
12.477018 4.4207983 3.5468564 78 15
3.0603566 1.0747205 -0.8691144 2 0
3.3491633 1.1754857 0.061956044 9 8
3.722132 1.3049308 -0.91060191 7 1
12.529694 4.3878431 0.69575429 11 9
4.489903 1.571462 -0.92466044 3 2
12.56538 4.3929563 1.164575 10 10
5.6041193 1.9570464 -0.94017124 2 3
12.444805 4.3434916 1.618425 25 11
8.9186163 3.1092827 -1.1597089 3 4
12.427955 4.3278732 2.0843329 10 12
11.165888 3.8861904 -1.0343643 19 5
12.498581 4.3451319 2.5721054 10 13
3.2508478 1.128884 -0.18034972 72 6
12.465508 4.3263202 3.0462873 72 14
12.48095 4.3219199 3.5390918 77 15
3.1116357 1.068387 -0.88153768 6 0
3.3499231 1.1488948 0.06181642 48 8
3.7311506 1.2789155 -0.91060191 5 1
12.584587 4.3086667 0.697115 19 9
4.4936028 1.5367516 -0.92313397 5 2
12.573121 4.2973876 1.1624832 10 10
5.6026902 1.9127688 -0.93766832 1 3
12.460538 4.2492018 1.6164751 22 11
8.9476204 3.0495045 -1.1606836 3 4
12.457864 4.2410107 2.0843329 15 12
11.482018 3.9043269 -1.061034 21 5
12.508161 4.2508259 2.5679076 14 13
3.2718883 1.1106567 -0.18108243 74 6
12.485073 4.2332535 3.0435877 71 14
3.2972941 1.1173559 -0.060769279 7 7
12.483372 4.2253904 3.5313272 85 15
3.1629744 1.0613877 -0.89396101 6 0
3.3711348 1.1299285 0.062060758 67 8
3.7381403 1.2522168 -0.9101519 6 1
12.574586 4.207396 0.6949169 14 9
4.5172548 1.5097011 -0.92580527 5 2
12.572578 4.1994066 1.1596943 11 10
5.6234016 1.8761115 -0.93891978 2 3
12.469185 4.1551981 1.613794 16 11
9.0176592 3.0032771 -1.1670209 3 4
12.496543 4.1570463 2.0858974 15 12
11.316138 3.7599921 -1.0432541 11 5
12.503997 4.1522565 2.5610385 14 13
12.503223 4.1423111 3.0408883 72 14
12.497892 4.1332841 3.5271859 81 15
3.1721432 1.0398803 -0.89447862 7 0
3.3808405 1.1069897 0.062095661 12 8
3.7375314 1.223057 -0.90790248 6 1
12.504932 4.0872459 0.68947399 14 9
4.5276842 1.478128 -0.92580527 5 2
12.497412 4.0775471 1.1501071 11 10
5.6269712 1.8337464 -0.9373554 2 3
12.435598 4.0477695 1.6057506 13 11
8.9931011 2.9255109 -1.1611712 4 4
12.555319 4.0794697 2.0909033 23 12
11.417915 3.7054996 -1.0502267 13 5
12.564427 4.0751581 2.5675259 21 13
12.335087 3.9960148 -0.67953008 15 6
12.517006 4.0501218 3.0372891 70 14
3.3544328 1.0847456 -0.061537188 69 7
12.508061 4.0399947 3.5220098 85 15
3.1903646 1.0212445 -0.8975845 6 0
3.3999147 1.087014 0.062305093 7 8
3.7496908 1.1981224 -0.90880221 5 1
12.575021 4.0132051 0.69177675 14 9
4.5248008 1.4423071 -0.92313397 3 2
12.611001 4.0174136 1.1579511 11 10
5.6415195 1.7950145 -0.93766832 2 3
12.446528 3.9554434 1.603557 11 11
9.0076313 2.8608487 -1.16044 3 4
12.543951 3.9791744 2.0843329 33 12
11.54417 3.6575971 -1.0594652 13 5
12.592571 3.9873424 2.5675259 10 13
12.347446 3.9049907 -0.67869276 15 6
12.511527 3.9520721 3.0291908 65 14
3.3562026 1.0594964 -0.061432473 74 7
12.532275 3.9514112 3.5209746 83 15
3.2011042 1.0000988 -0.89861977 6 0
3.4188743 1.0668256 0.062514521 8 8
3.7523832 1.170175 -0.90745258 6 1
12.722868 3.9627349 0.69837105 9 9
4.5272613 1.4083502 -0.92160755 5 2
12.497952 3.885504 1.1450521 4 10
5.6595736 1.7573429 -0.93860692 2 3
12.468148 3.8666956 1.6028258 11 11
9.0368643 2.800832 -1.1616586 3 4
12.494056 3.8675606 2.0715053 38 12
11.392401 3.5221782 -1.0432541 10 5
12.593839 3.8912241 2.5621834 15 13
12.366776 3.8163326 -0.6782741 18 6
12.52019 3.8588893 3.0246921 63 14
12.376217 3.81215 -0.22604357 21 7
12.539245 3.8575747 3.5152805 87 15
3.1932249 0.97322094 -0.89447862 7 0
3.4377172 1.0464236 0.06272395 8 8
3.771647 1.1473528 -0.9101519 6 1
12.975723 3.9423218 0.71072239 6 9
4.5388608 1.3772818 -0.92198914 2 2
12.53812 3.8021986 1.1462723 2 10
5.6754837 1.7189366 -0.93923265 2 3
12.47394 3.7732353 1.6001446 13 11
9.063798 2.7399769 -1.1626337 3 4
12.494277 3.772248 2.0671253 45 12
11.180176 3.3712337 -1.0216396 17 5
12.647015 3.8111386 2.5675259 10 13
12.385468 3.7276006 -0.67785537 15 6
12.54309 3.7702718 3.023792 63 14
12.394868 3.7233534 -0.22590394 33 7
12.538113 3.7616191 3.5075159 85 15
3.1962376 0.94980526 -0.89344335 7 0
3.4353533 1.0195551 0.062549427 38 8
3.7683551 1.1176709 -0.90745258 6 1
12.81717 3.7966204 0.70056915 4 9
4.5540133 1.3472319 -0.92313397 5 2
12.487932 3.6919847 1.1392999 3 10
5.6589284 1.6708817 -0.93453962 2 3
12.492363 3.6838067 1.5991696 13 11
9.0922251 2.6794384 -1.1638523 3 4
12.514625 3.6832507 2.0661867 57 12
11.406059 3.3526628 -1.0401167 10 5
12.643176 3.7138934 2.5614202 12 13
12.390106 3.6348643 -0.67670399 16 6
12.561626 3.6804211 3.0219924 63 14
12.407125 3.6328027 -0.22565961 28 7
12.552943 3.6707416 3.50441 81 15
3.2046466 0.92800397 -0.89396101 6 0
3.7629614 1.0875462 -0.90430319 5 1
12.574715 3.6295056 0.68591511 3 9
4.574626 1.3186686 -0.92542368 5 2
12.601472 3.6300821 1.1473181 2 10
5.6685572 1.630788 -0.93422669 2 3
12.489156 3.5882876 1.5955136 13 11
9.1107101 2.6158974 -1.1638523 3 4
12.528639 3.5925317 2.0643096 54 12
11.406203 3.2663698 -1.0380249 11 5
12.670682 3.6260834 2.5618017 12 13
12.399818 3.5438857 -0.6758666 16 6
12.564528 3.5862103 3.0165937 69 14
12.432183 3.5460963 -0.22565961 29 7
12.56526 3.5793054 3.5007865 77 15
3.2091877 0.90508431 -0.89344335 6 0
12.636356 3.5590591 0.2291501 16 8
3.777966 1.0633613 -0.9061029 6 1
12.672811 3.5621665 0.68989259 19 9
4.5572577 1.2792711 -0.92008096 3 2
12.662955 3.5522432 1.1506301 10 10
5.6798038 1.5911744 -0.93422669 2 3
12.500521 3.4972656 1.5938075 13 11
9.0828676 2.5394011 -1.1580026 5 4
12.534388 3.4996653 2.0611808 59 12
11.234891 3.1326122 -1.0204194 16 5
12.695688 3.5375369 2.5618017 14 13
12.40694 3.4524136 -0.67492455 15 6
12.559216 3.4900637 3.0093951 104 14
12.429663 3.451726 -0.22517094 28 7
12.584355 3.4899533 3.4992335 81 15
3.2228799 0.88470346 -0.89551395 7 0
12.647394 3.4670596 0.22890575 19 8
3.7852976 1.0369602 -0.9061029 6 1
12.660767 3.4635997 0.68790388 16 9
4.5585027 1.2453549 -0.91855454 5 2
12.687445 3.4637587 1.1506301 11 10
5.6793394 1.5483657 -0.93234956 2 3
12.51314 3.4067812 1.592345 12 11
9.109952 2.4785342 -1.1592213 4 4
12.53564 3.4058583 2.0574262 59 12
11.369936 3.0848823 -1.0307038 10 5
12.706812 3.4452221 2.5591304 9 13
12.417245 3.3620586 -0.67419189 16 6
12.57575 3.4002645 3.0075955 102 14
12.430292 3.3586073 -0.22475208 28 7
12.586031 3.3959734 3.493022 78 15
3.219645 0.85969168 -0.89292574 6 0
12.646173 3.3719759 0.228452 17 8
3.7999763 1.0125173 -0.90790248 5 1
12.690431 3.3766608 0.68821788 19 9
4.5822654 1.2175333 -0.92160755 3 2
12.672806 3.3648672 1.1471438 10 10
5.6881008 1.5081722 -0.93203664 2 3
12.528362 3.3194942 1.59137 13 11
9.1481428 2.42046 -1.1619024 3 4
12.543831 3.314229 2.0549233 57 12
11.26931 2.9753759 -1.0197222 3 5
12.72106 3.353931 2.5572224 13 13
12.434618 3.2737625 -0.67387784 15 6
12.591063 3.3126075 3.005796 75 14
12.447635 3.2702212 -0.22464737 27 7
12.590169 3.305325 3.4878457 81 15
3.2235527 0.83726901 -0.89240813 7 0
12.657218 3.2828116 0.22824258 17 8
3.8067806 0.98662639 -0.90790248 5 1
12.705384 3.2882056 0.68779916 19 9
4.590446 1.1863168 -0.92160755 5 2
12.708918 3.2820213 1.1483641 11 10
5.6982341 1.4694222 -0.93203664 3 3
12.52952 3.2286961 1.5886889 11 11
9.1547937 2.3556607 -1.1606836 4 4
12.566101 3.2287631 2.0549233 59 12
11.395439 2.9258506 -1.0293093 6 5
12.699857 3.2560432 2.5484452 27 13
12.433394 3.1831083 -0.67262173 16 6
12.601995 3.2239223 3.0030966 73 14
12.461854 3.1834428 -0.22450775 28 7
12.608634 3.2185881 3.4868104 81 15
3.2347963 0.81672788 -0.89396101 7 0
12.580381 3.1716433 0.22646242 19 8
3.79829 0.9568848 -0.90430319 6 1
12.597701 3.1689956 0.68078619 32 9
4.5850859 1.1516951 -0.91893619 6 2
12.605906 3.1617107 1.1370338 21 10
5.7023559 1.4291607 -0.93109804 2 3
12.532499 3.1363261 1.5862515 9 11
9.1556091 2.2878408 -1.1587338 4 4
12.576835 3.1380932 2.0530462 59 12
11.469718 2.85972 -1.0341899 17 5
12.735613 3.1706285 2.5511165 12 13
12.43787 3.091893 -0.67167974 20 6
12.60528 3.1311734 2.9985976 73 14
12.485717 3.0968404 -0.22454266 30 7
12.620092 3.125494 3.4837046 83 15
3.2463255 0.79437131 -0.89551395 7 0
12.622178 3.0862944 0.22681147 12 8
3.8108819 0.93040293 -0.90565288 6 1
12.634174 3.0798821 0.68151885 11 9
4.602747 1.1211787 -0.92084426 5 2
12.682414 3.0846081 1.1419145 9 10
5.6992431 1.3840562 -0.92890793 3 3
12.555153 3.0443742 1.5862515 11 11
9.1640291 2.2203965 -1.1577588 3 4
12.583609 3.0442991 2.0505433 57 12
11.416777 2.7577946 -1.0275662 11 5
12.745153 3.0739584 2.5484452 9 13
12.459677 3.0028105 -0.67167974 16 6
12.60895 3.0341227 2.9940984 69 14
12.496415 3.0024357 -0.22433324 27 7
12.642134 3.0351069 3.4837046 83 15
3.2462878 0.76978362 -0.89396101 7 0
12.6503 2.9950688 0.22691619 13 8
3.8136494 0.90221184 -0.90475315 6 1
12.675327 2.9939866 0.68256563 13 9
4.5898232 1.0824518 -0.91664648 5 2
12.678952 2.9878349 1.1396484 9 10
5.7397661 1.3504794 -0.93391389 2 3
12.590143 2.9576313 1.5879577 13 11
9.1758175 2.1538603 -1.1572714 4 4
12.585838 2.9496675 2.0474145 60 12
11.863016 2.7758963 -1.0659148 42 5
12.777773 2.9875934 2.5507348 11 13
12.469175 2.9108498 -0.67105168 18 6
12.626541 2.9429326 2.9931986 66 14
12.487858 2.9083176 -0.22380966 28 7
12.640949 2.9393137 3.4774928 85 15
3.2421687 0.74493849 -0.89137286 7 0
12.655309 2.9031031 0.22663696 13 8
3.8350508 0.87904865 -0.90835232 6 1
12.618043 2.8876011 0.67837876 9 9
4.589612 1.0486331 -0.91511995 5 2
12.680079 2.8948121 1.1379054 9 10
5.7220907 1.3042296 -0.92953372 2 3
12.627906 2.8736279 1.5901513 17 11
9.1906309 2.0897489 -1.1572714 3 4
12.598418 2.8599808 2.0461631 60 12
11.291402 2.5591295 -1.0129241 10 5
12.773426 2.8926778 2.5457737 8 13
12.485297 2.8228469 -0.67084235 16 6
12.64678 2.8547113 2.9931986 72 14
12.500054 2.8193052 -0.22367005 24 7
12.644198 2.847172 3.4728339 87 15
3.2416332 0.72102737 -0.88981992 7 0
12.655745 2.8103526 0.2262879 15 8
3.8258746 0.8488766 -0.90475315 6 1
12.700294 2.8132687 0.68172824 14 9
4.6083231 1.0191096 -0.91740966 6 2
12.698032 2.805794 1.1377311 10 10
5.7194824 1.2616969 -0.92765647 2 3
12.649598 2.7858253 1.590395 17 11
9.1972408 2.0238287 -1.1562965 4 4
12.606502 2.7694144 2.0442858 59 12
11.838342 2.5963268 -1.0603367 12 5
12.783721 2.8013308 2.5438657 11 13
12.491044 2.7326205 -0.67010969 18 6
12.662593 2.7655251 2.9922991 66 14
12.527248 2.7336688 -0.22380966 37 7
12.658104 2.757602 3.4712813 85 15
3.2541418 0.70000553 -0.89189047 7 0
12.657462 2.7181456 0.22597377 13 8
3.8278964 0.82133043 -0.9038533 6 1
12.629789 2.7052863 0.67691332 9 9
4.6268444 0.98937577 -0.91969937 7 2
12.707571 2.7149894 1.1368595 9 10
5.730083 1.2221487 -0.92796934 2 3
12.65903 2.6953857 1.5891764 22 11
9.195612 1.9562658 -1.1543465 3 4
12.629393 2.6821637 2.0449116 57 12
11.43323 2.4239533 -1.0225111 14 5
12.801044 2.7116148 2.543484 9 13
12.496137 2.6424634 -0.66937697 16 6
12.666336 2.673836 2.9886997 65 14
12.52059 2.6407866 -0.22335589 25 7
12.677048 2.6691647 3.4712813 85 15
3.2702982 0.67962879 -0.89499629 7 0
12.680046 2.6305261 0.22604357 15 8
3.8220878 0.79221356 -0.90115386 6 1
12.707043 2.6291881 0.68005347 14 9
4.618257 0.9538756 -0.91664648 5 2
12.735971 2.6282208 1.1377311 10 10
5.7481489 1.1841109 -0.92953372 2 3
12.689206 2.6093364 1.5906389 19 11
9.2090445 1.8920251 -1.1543465 4 4
12.63233 2.5907476 2.0424087 57 12
11.887101 2.4335864 -1.0615569 11 5
12.815817 2.6213872 2.5427208 9 13
12.50841 2.553961 -0.66906291 16 6
12.669418 2.5822358 2.9851005 62 14
12.538721 2.5533121 -0.22335589 27 7
12.691587 2.5798275 3.4702461 83 15
3.2598104 0.65374076 -0.89085519 7 0
12.678492 2.5380194 0.22569451 12 8
3.842813 0.76856673 -0.90475315 6 1
12.681997 2.531816 0.67775071 11 9
4.6151767 0.91969228 -0.91473836 5 2
12.671938 2.5229094 1.13041 9 10
5.7388382 1.1404871 -0.92671788 2 3
12.693483 2.5179815 1.5889326 17 11
9.2298183 1.8292315 -1.1553215 4 4
12.63073 2.4986606 2.0392799 57 12
11.505052 2.2718077 -1.0259974 9 5
12.829954 2.5310924 2.5419576 9 13
12.529855 2.4673455 -0.6692723 22 6
12.67949 2.4922142 2.9833009 66 14
12.552317 2.4649425 -0.22328609 51 7
12.69033 2.4874446 3.4650695 83 15
3.2605014 0.63023537 -0.88981992 7 0
12.697866 2.4498241 0.22572944 15 8
3.8442576 0.74098426 -0.9038533 6 1
12.742513 2.4515185 0.68005347 14 9
4.6195574 0.88707745 -0.91435677 7 2
12.726419 2.4415135 1.1337218 9 10
5.7389007 1.0989059 -0.92546642 2 3
12.739999 2.4348986 1.5925888 28 11
9.2228661 1.761023 -1.152884 3 4
12.651748 2.4111605 2.0399058 57 12
11.381663 2.1649976 -1.0136212 23 5
12.83381 2.438895 2.5392861 12 13
12.550697 2.3805606 -0.66948164 20 6
12.700409 2.4043589 2.9842007 63 14
12.543675 2.3724258 -0.22283232 38 7
12.699793 2.3973556 3.4629991 81 15
3.2610233 0.60675067 -0.88878465 7 0
12.661575 2.3512585 0.22478701 12 8
3.845505 0.71341729 -0.90295357 7 1
12.692546 2.3501358 0.67649466 14 9
4.6294985 0.85552096 -0.91511995 5 2
12.662826 2.3377764 1.1265751 10 10
5.734776 1.056669 -0.92358917 2 3
12.713735 2.3379986 1.5872264 22 11
9.2388411 1.6973099 -1.1533716 3 4
12.660499 2.3213568 2.0386541 57 12
11.372985 2.081177 -1.0115296 20 5
12.788723 2.3379469 2.5270743 8 13
12.555223 2.2907252 -0.66885358 24 6
12.720719 2.3163328 2.9851005 65 14
12.5619 2.2851484 -0.22286724 81 7
12.710517 2.3076005 3.461446 87 15
3.2765896 0.58601028 -0.89189047 7 0
12.685555 2.2642124 0.22492662 16 8
3.8292882 0.68279034 -0.89800459 7 1
12.783364 2.2747645 0.6804722 14 9
4.6237602 0.82112044 -0.91283029 6 2
12.802429 2.2712362 1.1375568 11 10
5.753684 1.0186733 -0.92546642 2 3
12.761024 2.2547095 1.5911263 6 11
9.2485104 1.6324286 -1.1531279 3 4
12.672506 2.2322278 2.0380285 57 12
11.399011 2.0037975 -1.0125754 18 5
12.812469 2.2499661 2.5286009 9 13
12.561073 2.2012937 -0.66833019 43 6
12.725061 2.2254608 2.9824011 65 14
12.573608 2.1967058 -0.22279742 60 7
12.720608 2.2178187 3.4598932 78 15
3.2767928 0.56246901 -0.89085519 7 0
12.695141 2.1745825 0.22482191 12 8
3.8397241 0.65702808 -0.89935428 6 1
12.794996 2.1847918 0.6802628 19 9
4.6429276 0.79112899 -0.91550165 5 2
12.75119 2.1704419 1.1316301 9 10
5.7684455 0.97980326 -0.92671788 2 3
12.71774 2.1556075 1.583814 5 11
9.2518511 1.5664965 -1.1521529 3 4
12.683886 2.1430383 2.0374026 57 12
11.530601 1.9440485 -1.0230341 7 5
12.822057 2.1594791 2.527456 8 13
12.564316 2.111567 -0.6677022 35 6
12.724913 2.1339903 2.978802 63 14
12.574831 2.1065652 -0.22255309 52 7
12.743402 2.1302321 3.4619637 83 15
3.2806399 0.53957742 -0.89085519 7 0
12.711987 2.0862246 0.22485681 15 8
3.8634484 0.63335651 -0.9038533 6 1
12.825706 2.0979922 0.68110019 22 9
4.638649 0.75711685 -0.91359347 7 2
12.834858 2.0925901 1.1377311 13 10
5.7595468 0.93697339 -0.92421496 2 3
12.820654 2.0810874 1.5947824 6 11
9.2471476 1.4977126 -1.150203 3 4
12.679037 2.0512872 2.0342741 60 12
11.276389 1.82032 -0.99932772 7 5
12.823613 2.065486 2.5247848 11 13
12.590583 2.0257037 -0.66833019 60 6
12.735654 2.0444779 2.9779022 63 14
12.585633 2.0158954 -0.22248328 100 7
12.746519 2.0393772 3.4588578 83 15
3.2806003 0.51548815 -0.88981992 7 0
12.692656 1.9921622 0.22426341 13 8
3.8678818 0.60569412 -0.9038533 6 1
12.826577 2.0040016 0.68036753 24 9
4.6496415 0.72562051 -0.91473836 5 2
12.79635 1.9924163 1.1330247 11 10
5.7504888 0.89330637 -0.92171198 2 3
12.83487 1.9915317 1.5947824 22 11
9.2652254 1.4343336 -1.1511779 3 4
12.689487 1.9599025 2.0336483 59 12
11.777158 1.8168882 -1.042557 48 5
12.837719 1.975916 2.5247848 9 13
12.596859 1.9343433 -0.66791159 37 6
12.75732 1.9567044 2.9797015 62 14
12.615215 1.9304018 -0.22276253 116 7
12.751238 1.9466554 3.4562697 87 15
3.2745667 0.49113995 -0.88723171 6 0
12.710543 1.9018764 0.22433324 16 8
3.8643067 0.5775243 -0.90205371 6 1
12.834329 1.9135228 0.68005347 29 9
4.6488886 0.6914655 -0.91359347 6 2
12.851334 1.9091806 1.1366851 12 10
5.7507224 0.85226989 -0.92077333 2 3
12.88414 1.9048624 1.5991696 17 11
9.2691221 1.3687453 -1.1504467 3 4
12.710677 1.8724171 2.0348997 59 12
11.760289 1.7282211 -1.0399423 13 5
12.831778 1.8833927 2.5209687 15 13
12.594246 1.8440385 -0.66707414 22 6
12.770996 1.865365 2.9797015 63 14
12.624426 1.8417065 -0.2226927 132 7
12.766428 1.8578717 3.4567873 85 15
3.2855651 0.46935996 -0.88930225 9 0
12.709652 1.8111192 0.22408889 16 8
3.8528099 0.54833561 -0.89845449 6 1
12.817713 1.8196712 0.67848343 26 9
4.6710982 0.66146857 -0.91702807 7 2
12.815028 1.8124456 1.1323274 11 10
5.7545772 0.81182563 -0.92046052 2 3
12.881398 1.8126549 1.5972198 17 11
9.2587929 1.3012384 -1.1480093 3 4
12.723439 1.7836341 2.0348997 59 12
11.84113 1.6557393 -1.0460433 10 5
12.871834 1.7975656 2.5263112 15 13
12.622639 1.7582737 -0.66791159 50 6
12.775987 1.7750885 2.9779022 63 14
12.640939 1.7540765 -0.22276253 134 7
12.782915 1.7692297 3.4578226 85 15
3.3021617 0.44823146 -0.89292574 7 0
12.735858 1.7242228 0.22433324 16 8
3.8488195 0.52038199 -0.8966549 6 1
12.808332 1.7272 0.67733198 21 9
4.6503077 0.62544006 -0.91206706 6 2
12.868838 1.7284995 1.1359879 12 10
5.7679353 0.7726804 -0.92171198 2 3
12.907512 1.724528 1.5989259 22 11
9.255846 1.234993 -1.1465468 4 4
12.735581 1.6947705 2.0348997 59 12
11.826725 1.5696189 -1.0437772 17 5
12.847091 1.7027644 2.5190604 15 13
12.620746 1.668276 -0.66717881 45 6
12.780339 1.6848333 2.9761024 65 14
12.635033 1.663434 -0.22244836 101 7
12.812193 1.6822083 3.4624813 87 15
3.2937143 0.42368826 -0.88981992 7 0
12.739653 1.634244 0.22419362 16 8
3.873621 0.49622327 -0.90160388 5 1
12.82206 1.637992 0.67743665 19 9
4.6409278 0.59122509 -0.90939575 5 2
11.621587 1.4784504 1.0249515 34 10
5.7771087 0.73289376 -0.92233771 2 3
12.944839 1.6376134 1.6020945 28 11
9.2189445 1.1646268 -1.1409409 4 4
12.731423 1.6038367 2.0323968 63 12
11.914493 1.4966995 -1.0505754 21 5
12.905418 1.6188921 2.5282195 17 13
12.636049 1.5806218 -0.6673882 33 6
12.791789 1.5955747 2.9761024 66 14
12.646338 1.5751843 -0.22244836 101 7
12.81212 1.5912988 3.4593754 103 15
3.2889209 0.39974952 -0.88774931 7 0
12.740823 1.5440676 0.2240191 15 8
3.8750563 0.46893221 -0.90115386 6 1
12.823267 1.5472471 0.67691332 14 9
4.652739 0.55974889 -0.91092217 5 2
11.62569 1.3965731 1.0244286 41 10
5.764432 0.69042981 -0.91952187 2 3
12.762791 1.5241275 1.5782082 6 11
9.2152157 1.0972197 -1.1394784 4 4
12.640824 1.4916708 -0.66707414 13 6
3.2840197 0.37532842 -0.88567883 7 0
11.581067 1.321545 0.20346016 8 8
3.8666952 0.43987122 -0.89845449 6 1
11.667102 1.3231125 0.61536622 1 9
4.6760411 0.5294618 -0.91473836 7 2
5.7574472 0.64783752 -0.91764468 2 3
11.701952 1.3146551 1.445858 1 11
9.22857 1.0335214 -1.1402097 4 4
12.322888 1.3756979 1.9638785 9 12
11.474837 1.2790014 -1.0101351 42 5
12.361515 1.366906 2.8712754 51 14
11.58208 1.2766316 -0.20339034 54 7
12.372466 1.359381 3.3351424 76 15
3.288481 0.35259849 -0.88619649 7 0
3.8522317 0.41100517 -0.89440536 7 1
12.281803 1.3060437 0.64729118 79 9
4.6679964 0.49474579 -0.91244864 5 2
12.28424 1.2997988 1.0807312 41 10
5.7559357 0.60700566 -0.91670603 2 3
9.1765003 0.96125245 -1.1328975 4 4
11.354889 1.1834321 -0.99880481 7 5
12.347231 1.2824939 2.4129708 72 13
12.442701 1.2858258 2.8879216 68 14
12.243367 1.2609136 -0.21483912 55 7
12.48735 1.2838323 3.3636124 81 15
3.3062978 0.33059683 -0.89033753 6 0
12.285075 1.2262138 0.21550232 46 8
3.8705878 0.38497168 -0.89800459 6 1
12.334559 1.2224573 0.64959395 84 9
4.6713367 0.46214497 -0.91244864 7 2
12.390382 1.2214391 1.0892724 55 10
5.7542343 0.56522226 -0.91576743 2 3
12.416761 1.2174757 1.5318978 114 11
9.1632299 0.8952347 -1.13046 4 4
12.437443 1.2107382 1.9792091 57 12
12.235415 1.1889161 -1.0755018 44 5
12.465313 1.2068633 2.4343412 124 13
12.282054 1.1847936 -0.64666313 60 6
12.49017 1.2026696 2.8969195 75 14
12.345428 1.1843835 -0.21647964 75 7
12.482755 1.1931612 3.3599889 69 15
3.2988539 0.30718672 -0.88774931 7 0
12.372982 1.1478124 0.2168985 70 8
3.8769996 0.3589758 -0.89890444 6 1
12.394304 1.1432456 0.65231544 91 9
4.6568542 0.42790487 -0.90901417 6 2
12.410314 1.1381698 1.0903183 60 10
5.7579484 0.52604127 -0.91576743 2 3
12.43682 1.1318402 1.5333602 63 11
9.1532965 0.83140522 -1.1285102 4 4
12.370636 1.1192868 1.96732 55 12
11.47746 1.034434 -1.0082177 8 5
12.389159 1.1144235 2.4179318 119 13
12.347523 1.1063277 -0.64969862 88 6
12.397328 1.1064343 2.8735247 108 14
12.34723 1.0997851 -0.21637493 78 7
12.411691 1.1011664 3.3387659 75 15
3.2893696 0.28315637 -0.88464355 7 0
12.295022 1.0540541 0.21539761 72 8
3.8794112 0.33190235 -0.89890444 6 1
12.314422 1.0492227 0.64770985 79 9
4.6499467 0.39455348 -0.90710598 7 2
12.322665 1.0434268 1.0819514 55 10
5.7693543 0.48649433 -0.91701895 2 3
12.359358 1.0378504 1.5228794 123 11
9.1430521 0.76615679 -1.1265603 4 4
12.3624 1.031588 1.964817 65 12
11.518157 0.95708579 -1.0111809 18 5
12.40055 1.028234 2.418695 101 13
12.259402 1.012216 -0.64467436 82 6
12.847569 1.056264 2.9761024 72 14
12.262928 1.0060432 -0.21476932 74 7
12.861928 1.0506653 3.4578226 85 15
3.2835629 0.25957635 -0.88257295 7 0
12.2961 0.96772224 0.21529289 64 8
3.8699768 0.3038955 -0.89620501 6 1
12.337377 0.96447164 0.64854723 42 9
4.6623745 0.36284503 -0.90901417 6 2
12.480617 0.96909523 1.0951991 9 10
5.7430673 0.44392398 -0.91232592 2 3
12.819549 0.98641008 1.5786955 16 11
9.1403837 0.70010459 -1.1255853 4 4
12.826256 0.9801712 2.0374026 68 12
11.353705 0.8636542 -0.99619007 17 5
12.977266 0.98260576 2.5297458 42 13
12.274137 0.92720634 -0.64509302 45 6
12.885723 0.96888942 2.9833009 75 14
12.614796 0.94408423 -0.22080785 43 7
12.874727 0.9612841 3.4593754 103 15
3.3007517 0.23718077 -0.8867141 7 0
3.868165 0.27591753 -0.89530522 6 1
12.885853 0.91462559 0.67701799 14 9
4.6687102 0.33056399 -0.90977734 7 2
12.944348 0.91196638 1.1352907 11 10
5.7441268 0.40267807 -0.91201305 2 3
12.946919 0.90533555 1.5935637 15 11
9.1212854 0.63462669 -1.1226605 4 4
12.852648 0.88973397 2.0405314 63 12
11.556235 0.79796243 -1.0134469 10 5
12.991644 0.89252168 2.5312722 47 13
12.686949 0.86713403 -0.66644609 22 6
12.892174 0.87890029 2.9833009 75 14
12.718841 0.86262369 -0.22251819 47 7
12.881277 0.86912388 3.4593754 103 15
3.3100381 0.21463141 -0.88878465 7 0
12.74358 0.8218599 0.22290213 8 8
3.869997 0.24890593 -0.89530522 7 1
12.929795 0.82707179 0.67900676 14 9
4.6631193 0.29664844 -0.90825087 6 2
12.940457 0.82095104 1.1344191 10 10
5.7527122 0.3629398 -0.91295165 2 3
12.951084 0.81254202 1.5933199 15 11
9.0919113 0.56723863 -1.1185169 4 4
12.83883 0.79875106 2.0374026 59 12
11.500004 0.71142828 -1.0080433 11 5
13.011416 0.80037659 2.5339437 41 13
12.720604 0.78025323 -0.66791159 50 6
12.89424 0.78639245 2.9824011 75 14
12.714707 0.77098256 -0.22234367 39 7
