# .PCD v0.7 - Point Cloud Data file format
VERSION 0.7
FIELDS x y z intensity ring
SIZE 4 4 4 4 2
TYPE F F F F U
COUNT 1 1 1 1 1
WIDTH 1340
HEIGHT 1
VIEWPOINT 0 0 0 1 0 0 0
POINTS 1340
DATA ascii
2.2931168 2.5077643 -0.91052544 56 0
11.486678 12.553102 0.29700506 4 8
2.7000165 2.9496493 -0.92319912 6 1
11.522416 12.578927 0.89400291 6 9
3.3218255 3.6238692 -0.95557153 6 2
11.409327 12.442383 1.4769412 13 10
4.1549301 4.5279641 -0.97333533 1 3
11.491662 12.514612 2.0861595 8 11
5.6280775 6.1269236 -1.0215088 5 4
11.427234 12.431377 2.6744039 46 12
10.231072 11.122321 -1.3221526 7 5
11.473914 12.469049 3.293745 55 13
11.273905 12.243114 -0.87223113 12 6
11.512613 12.493591 3.9222467 42 14
11.299497 12.25802 -0.29100144 11 7
11.681294 12.663335 4.6162968 1 15
2.3013725 2.4817796 -0.90690196 54 0
11.501945 12.394917 0.29515511 4 8
2.7284968 2.9392986 -0.92589855 6 1
11.574611 12.460133 0.89128143 4 9
3.3430355 3.5962746 -0.95442665 3 2
11.394155 12.252999 1.4638679 8 10
4.1837511 4.4959531 -0.97270966 2 3
11.5571 12.410842 2.0822597 8 11
5.6761265 6.0932922 -1.0224838 7 4
11.43966 12.271825 2.657196 46 12
10.216054 10.951553 -1.3102994 16 5
11.482997 12.30539 3.271611 57 13
11.288214 12.088207 -0.86678815 12 6
11.526376 12.334602 3.8975019 44 14
11.316519 12.105795 -0.28925619 11 7
11.56222 12.359981 4.5350275 3 15
2.3159957 2.4628382 -0.90586674 59 0
11.46349 12.181793 0.29197878 5 8
2.7489505 2.9201784 -0.92589855 6 1
11.46274 12.168225 0.87610406 6 9
3.3694055 3.5742784 -0.95480824 6 2
11.405611 12.094873 1.4544551 6 10
4.2150369 4.4666352 -0.97270966 2 3
11.586222 12.26924 2.0720227 14 11
5.7062593 6.0405307 -1.0202903 18 4
11.463984 12.12707 2.643117 47 12
10.178623 10.759829 -1.2958316 10 5
11.506546 12.159336 3.2540567 55 13
11.322897 11.956894 -0.86302006 12 6
11.550548 12.188767 3.8768065 44 14
11.337472 11.959737 -0.28765056 11 7
11.595044 12.222898 4.5143223 5 15
2.333133 2.4466093 -0.90586674 54 0
11.477847 12.027684 0.29019859 4 8
2.7665789 2.8980968 -0.9249987 6 1
11.522583 12.061902 0.87421989 4 9
3.4010599 3.5577638 -0.95671636 3 2
11.415413 11.937195 1.4450421 5 10
4.226994 4.4171214 -0.96832943 2 3
11.545281 12.056151 2.0495987 9 11
5.7318096 5.9833474 -1.0173653 39 4
11.486854 11.982573 2.6290381 45 12
10.169358 10.600801 -1.2851986 13 5
11.513677 11.997961 3.2323046 59 13
11.331392 11.799762 -0.85736769 12 6
11.570539 12.040392 3.855211 43 14
11.356942 11.813982 -0.28604496 11 7
11.598391 12.056732 4.4827461 3 15
2.3555272 2.4358172 -0.90793723 52 0
11.446116 11.82799 0.28730151 4 8
2.7786129 2.8703096 -0.92229939 6 1
11.559257 11.932397 0.87066108 6 9
3.4230819 3.5311143 -0.95595312 5 2
11.448534 11.805726 1.4387671 5 10
4.2522259 4.3818331 -0.96707797 1 3
11.629173 11.975251 2.0495987 6 11
5.7717118 5.9393311 -1.0168779 44 4
11.516533 11.846842 2.6168361 43 12
10.180595 10.465287 -1.2773546 17 5
11.543085 11.857594 3.2166584 56 13
11.346604 11.65169 -0.8523435 12 6
11.589034 11.892331 3.833616 43 14
11.382555 11.672281 -0.28457895 12 7
11.624272 11.916003 4.4604878 8 15
2.3647802 2.4106245 -0.90483141 52 0
11.525611 11.744938 0.28723168 5 8
2.8031747 2.8545268 -0.92364907 7 1
11.554752 11.758204 0.86396205 6 9
3.4393904 3.4987316 -0.95366341 5 2
11.465653 11.655323 1.4304 5 10
4.2779293 4.3456616 -0.96582651 2 3
11.64563 11.825886 2.0378993 6 11
5.8172154 5.9031334 -1.0176091 31 4
11.555241 11.717712 2.6065114 33 12
10.207235 10.347151 -1.2716023 14 5
11.560765 11.711044 3.1987221 60 13
11.365125 11.504837 -0.84752852 12 6
11.599182 11.737663 3.8097711 46 14
11.392048 11.52002 -0.2827988 12 7
2.3842781 2.3967948 -0.90586674 56 0
11.504964 11.557291 0.28464878 4 8
2.8189108 2.8307436 -0.92229939 6 1
11.539282 11.579633 0.8567397 8 9
3.4615681 3.4712486 -0.95290023 3 2
11.550964 11.579225 1.430923 3 10
4.3304935 4.3380585 -0.97083241 2 3
11.640167 11.652367 2.0223 6 11
5.8624945 5.86659 -1.0183402 10 4
11.537585 11.537589 2.5842977 7 12
10.259876 10.252719 -1.2689875 21 5
11.58529 11.573169 3.1830759 57 13
11.382972 11.363127 -0.84292299 12 6
11.626312 11.597933 3.7913249 41 14
11.409893 11.37808 -0.28126299 12 7
11.554835 11.514566 4.3709359 56 15
2.3940928 2.3732908 -0.90327853 58 0
11.566894 11.458398 0.28419498 4 8
2.8441429 2.8164794 -0.92409897 6 1
11.584351 11.463671 0.85412294 4 9
3.4829257 3.4442368 -0.95213693 5 2
11.506831 11.37504 1.4155835 3 10
4.3424039 4.2896733 -0.96676511 2 3
11.560184 11.411837 1.9945139 7 11
5.9570003 5.8785038 -1.0276023 5 4
11.555965 11.395732 2.5705316 7 12
10.25599 10.106723 -1.2597491 12 5
11.595873 11.423117 3.163995 63 13
11.405092 11.227337 -0.83873612 12 6
11.638921 11.449525 3.7692797 46 14
11.422037 11.232249 -0.27962247 12 7
11.563285 11.363213 4.3440189 60 15
2.4133658 2.3592198 -0.9043138 58 0
11.648037 11.378765 0.2842299 5 8
2.8609481 2.7938321 -0.92319912 7 1
11.608347 11.32812 0.85004067 4 9
3.5125084 3.4253199 -0.95366341 3 2
11.644453 11.351459 1.4227303 1 10
4.3623414 4.2496047 -0.96457505 2 3
11.571296 11.264388 1.9828143 6 11
6.0334606 5.8713837 -1.0336958 4 4
11.59134 11.272086 2.5608325 8 12
10.240568 9.9515648 -1.2492903 17 5
11.607745 11.276221 3.1456771 56 13
11.425874 11.091794 -0.83454925 11 6
11.662621 11.313715 3.7512836 45 14
11.458543 11.111863 -0.27861023 16 7
11.572968 11.21499 4.3181367 57 15
2.4339492 2.3463373 -0.90586674 52 0
11.57886 11.154265 0.28063467 4 8
2.8719592 2.7656815 -0.92049968 6 1
11.691471 11.250952 0.85035473 8 9
3.5391662 3.4034362 -0.95442665 2 2
11.68033 11.228457 1.4175009 2 10
4.3947515 4.2217822 -0.96520072 2 3
11.575184 11.111852 1.97014 6 11
6.0657105 5.8208723 -1.0322334 3 4
11.682577 11.203199 2.5636482 10 12
10.190396 9.7654123 -1.2348225 16 5
11.629472 11.140591 3.1304123 63 13
11.430892 10.942698 -0.82931566 11 6
11.670913 11.164664 3.7287886 47 14
11.473694 10.972167 -0.27710932 10 7
11.603495 11.088541 4.3005376 42 15
2.4488702 2.3279569 -0.90534908 41 0
11.114223 10.558064 0.2675803 39 8
2.8940237 2.7482481 -0.92139953 6 1
11.152561 10.583381 0.8057645 60 9
3.5656877 3.3813486 -0.95518982 5 2
11.167045 10.58602 1.3462076 33 10
4.4312863 4.1977935 -0.96676511 2 3
6.1292667 5.8002186 -1.0361333 3 4
10.287286 9.7214012 -1.2383088 14 5
11.245998 10.623663 3.0071499 66 13
11.09454 10.473259 -0.7995888 54 6
11.275108 10.636287 3.5785215 48 14
11.122292 10.488449 -0.26684731 57 7
11.278518 10.628348 4.152493 64 15
2.4664731 2.312124 -0.90586674 13 0
11.206628 10.497993 0.26803407 60 8
2.9131408 2.7279756 -0.92139953 6 1
11.230545 10.509363 0.80607843 78 9
3.5806036 3.3483276 -0.95290023 5 2
11.252316 10.51869 1.3476021 48 10
4.454711 4.1613612 -0.96551365 2 3
11.280819 10.530579 1.8948246 50 11
6.1899295 5.776247 -1.0395457 3 4
11.300439 10.537827 2.4472611 48 12
10.293678 9.5923023 -1.2309877 10 5
11.338567 10.562287 3.0121109 69 13
11.189309 10.415967 -0.80115891 54 6
11.366217 10.573235 3.5839202 50 14
11.206953 10.421445 -0.26712653 66 7
11.384996 10.579591 4.1643987 71 15
2.4797163 2.2922266 -0.90483141 7 0
11.175352 10.32316 0.26555583 61 8
2.9321134 2.7075727 -0.92139953 6 1
11.199426 10.334537 0.79864681 71 9
3.5937903 3.3139303 -0.95022881 6 2
11.20242 10.326445 1.3329599 47 10
4.4851089 4.131496 -0.96582651 2 3
11.248899 10.354774 1.8772755 51 11
6.2271848 5.7302008 -1.0390581 3 4
11.247222 10.342356 2.4200413 44 12
10.254766 9.4231424 -1.2184372 14 5
11.274669 10.356706 2.9758573 65 13
11.13816 10.224146 -0.79236645 61 6
11.307635 10.372434 3.5425293 50 14
11.13942 10.21456 -0.26381058 58 7
11.309026 10.362811 4.1100469 59 15
2.4985144 2.2774622 -0.90586674 7 0
11.222019 10.221999 0.26496243 50 8
2.9567077 2.6922848 -0.92319912 6 1
11.247665 10.234591 0.79697204 63 9
3.6270051 3.298008 -0.95290023 3 2
11.268341 10.242624 1.3322626 37 10
4.4992185 4.0868039 -0.9626978 2 3
11.320914 10.275989 1.8772755 41 11
6.3052578 5.7212729 -1.0453953 3 4
11.344028 10.28614 2.4253602 35 12
10.379364 9.404829 -1.2254097 16 5
11.361248 10.290922 2.9796736 48 13
11.256656 10.189022 -0.79571593 37 6
11.417344 10.327232 3.5542266 39 14
11.287593 10.206279 -0.26562563 46 7
11.421227 10.319877 4.1245403 49 15
2.5200999 2.2651291 -0.90793723 9 0
11.397246 10.236941 0.26740578 42 8
2.9580314 2.6559546 -0.91780037 6 1
11.430336 10.255856 0.80482239 47 9
3.6411705 3.2647426 -0.95061046 5 2
11.461234 10.272752 1.3465562 30 10
4.5246973 4.0526581 -0.96207207 2 3
11.49444 10.288054 1.8940935 41 11
6.3332109 5.6665249 -1.0434453 4 4
11.539261 10.317293 2.4516413 36 12
10.351163 9.2485123 -1.2144281 17 5
11.560205 10.325134 3.0128741 50 13
11.436284 10.207278 -0.80335701 33 6
11.59533 10.341963 3.5870695 39 14
11.477973 10.233695 -0.26841801 45 7
11.609829 10.343986 4.1664696 51 15
2.5474172 2.2577324 -0.91207838 7 0
11.588196 10.26319 0.27019817 38 8
2.9881725 2.6455746 -0.92139953 6 1
11.610855 10.272417 0.81246346 40 9
3.672699 3.247045 -0.95290023 5 2
11.658075 10.303319 1.3611984 28 10
4.5780506 4.043201 -0.96739089 2 3
11.679099 10.307386 1.9126177 54 11
6.3934565 5.6405587 -1.0468577 3 4
11.733993 10.344909 2.4776094 32 12
10.324284 9.0956802 -1.2037951 16 5
11.727773 10.328517 3.0376794 67 13
11.535752 10.15226 -0.80534577 13 6
11.753585 10.33669 3.6136138 54 14
11.57617 10.17708 -0.26904631 10 7
11.778999 10.348108 4.2011509 67 15
2.55439 2.2322645 -0.9089725 7 0
11.725837 10.239915 0.27173397 11 8
3.0036345 2.6220839 -0.92049968 6 1
11.751519 10.251503 0.81727839 13 9
3.6775181 3.2058463 -0.94832075 3 2
11.785299 10.270109 1.3676479 9 10
4.6106324 4.0150352 -0.96832943 1 3
11.707346 10.187809 1.9055492 55 11
6.4296813 5.593184 -1.0463703 3 4
11.835745 10.288658 2.4838667 9 12
10.417615 9.0495138 -1.2072812 28 5
11.75364 10.206486 3.0258491 58 13
11.550534 10.023046 -0.8014729 13 6
11.781299 10.216076 3.600117 50 14
11.57592 10.034454 -0.26740578 10 7
11.785251 10.208698 4.1778569 50 15
2.5552769 2.2017667 -0.90379614 7 0
11.828856 10.185209 0.27246696 8 8
3.0248208 2.6035936 -0.92139953 6 1
11.862166 10.203081 0.81999987 9 9
3.7132103 3.1916101 -0.95175534 6 2
11.862751 10.192782 1.3683451 6 10
4.6085777 3.95701 -0.96207207 1 3
11.723949 10.059294 1.8967746 51 11
6.4896703 5.5662503 -1.0497826 3 4
11.736302 10.059228 2.4481997 16 12
10.339806 8.8560352 -1.1910703 22 5
11.751534 10.061616 3.0071499 66 13
11.580765 9.9084091 -0.79875147 15 6
11.794562 10.084195 3.5825706 43 14
11.594003 9.9092264 -0.26621902 12 7
11.803347 10.081013 4.1592226 57 15
2.5676403 2.1813736 -0.90276086 7 0
11.834125 10.046731 0.27096608 9 8
3.0429225 2.5824144 -0.92139953 7 1
11.863039 10.060596 0.81518495 9 9
3.7339039 3.1643395 -0.9513737 5 2
11.869772 10.055626 1.3610241 6 10
4.6391063 3.9272926 -0.9626978 2 3
11.739326 9.9310484 1.888 56 11
6.5384283 5.5273614 -1.0512451 3 4
11.801712 9.9732294 2.4472611 16 12
10.416606 8.796484 -1.1928135 23 5
11.767717 9.930418 2.9930301 58 13
11.576382 9.7654972 -0.79372716 13 6
11.818486 9.9626713 3.5686235 49 14
11.609562 9.779624 -0.26496243 10 7
11.820239 9.9535666 4.1405873 54 15
2.5920713 2.1703856 -0.90586674 7 0
11.830375 9.9022541 0.26929063 8 8
3.0523551 2.5530717 -0.9187001 6 1
11.845845 9.9011574 0.80911398 9 9
3.7679555 3.1482675 -0.95442665 5 2
11.771663 9.8286896 1.3416755 2 10
4.6686072 3.8952608 -0.96301067 2 3
11.744346 9.7954502 1.877763 52 11
6.6149821 5.5133505 -1.0573385 3 4
11.894027 9.9062204 2.4516413 6 12
10.427235 8.6814785 -1.1870612 17 5
11.783937 9.8040752 2.9796736 65 13
11.59528 9.6402769 -0.79027301 13 6
11.833797 9.8350792 3.5524271 51 14
11.634476 9.6625671 -0.2639851 12 7
11.842107 9.8280153 4.1235051 49 15
2.6131194 2.1571558 -0.90793723 7 0
11.885501 9.8046246 0.26894158 12 8
3.0640907 2.526741 -0.91690052 7 1
11.925468 9.8271074 0.8098467 14 9
3.7812941 3.1137359 -0.95213693 5 2
11.935366 9.8247747 1.3524828 9 10
4.6941605 3.8613205 -0.9626978 2 3
11.758933 9.6657791 1.8689884 55 11
6.6701818 5.4808969 -1.0600196 3 4
11.936941 9.8016319 2.4463224 4 12
10.445965 8.5712547 -1.1821805 20 5
11.801998 9.6804857 2.9670801 69 13
11.623688 9.5274353 -0.78765625 11 6
11.834524 9.6933441 3.5317316 52 14
11.652143 9.5405636 -0.26286814 11 7
11.862584 9.7059555 4.1069407 49 15
2.6266172 2.137641 -0.90741962 6 0
11.89781 9.6759882 0.267685 11 8
3.0892165 2.5114341 -0.91914994 7 1
11.937977 9.6982746 0.80607843 13 9
3.7907465 3.077363 -0.94908404 3 2
11.937145 9.6872196 1.3449874 7 10
4.7240715 3.8309433 -0.96332359 1 3
11.786028 9.5509558 1.8626511 58 11
6.7360458 5.4566922 -1.0644069 3 4
11.929846 9.6571569 2.4309919 3 12
10.39092 8.4053926 -1.1692814 13 5
11.821967 9.5595894 2.9552498 65 13
11.629333 9.3970976 -0.78357404 13 6
11.85945 9.5762138 3.5191343 52 14
11.659335 9.4112558 -0.26154178 12 7
11.868402 9.5731802 4.0857177 51 15
2.6309278 2.1107903 -0.90379614 7 0
11.745085 9.4163218 0.26276344 4 8
3.1173179 2.4983389 -0.92229939 6 1
11.816762 9.4636278 0.79341316 6 9
3.8075395 3.0471435 -0.94793916 5 2
11.813117 9.4505615 1.3235471 5 10
4.7476158 3.7954028 -0.9626978 2 3
11.808996 9.4337435 1.8558265 55 11
6.7925906 5.4243975 -1.0673318 4 4
11.870371 9.4725962 2.4053366 7 12
10.519442 8.3885498 -1.1771255 23 5
11.827015 9.4278669 2.9399853 66 13
11.655594 9.2845755 -0.78095722 11 6
11.871128 9.4494944 3.5029378 54 14
11.676242 9.2910357 -0.26045972 12 7
11.877485 9.4444008 4.0660477 66 15
2.6440856 2.091172 -0.90327853 6 0
11.835639 9.3539343 0.26332191 8 8
3.1316261 2.4740973 -0.92139953 6 1
11.871569 9.3722372 0.7926805 8 9
3.8333426 3.0241373 -0.94908404 3 2
11.8835 9.3715611 1.32407 6 10
4.7553763 3.7474957 -0.95894337 2 3
11.812181 9.3019514 1.846077 56 11
6.8521285 5.3940368 -1.0707442 2 4
11.920683 9.3772869 2.4022079 3 12
10.477501 8.2361031 -1.1659695 22 5
11.8416 9.3050461 2.9273918 73 13
11.668289 9.1622734 -0.77750307 13 6
11.88622 9.326684 3.488091 57 14
11.696765 9.1747379 -0.25948238 11 7
11.892962 9.3219166 4.0489655 64 15
2.6692853 2.0809762 -0.90690196 6 0
11.843859 9.2268429 0.26206535 8 8
3.1319098 2.4390035 -0.91645062 8 1
11.890996 9.2535639 0.78964496 9 9
3.8652112 3.0057361 -0.95175534 5 2
11.901442 9.2516918 1.3188407 6 10
4.792345 3.7226858 -0.96113342 2 3
11.826653 9.1803083 1.8382773 58 11
6.9037371 5.3570185 -1.0729378 2 4
11.932782 9.2526817 2.3915703 3 12
10.638689 8.2432966 -1.177474 15 5
11.850396 9.1788683 2.9136534 69 13
11.667214 9.030468 -0.77321154 11 6
11.906336 9.2089071 3.475044 51 14
11.708326 9.0524902 -0.25833052 13 7
11.919527 9.2091389 4.0360246 71 15
2.6898744 2.0670002 -0.9089725 7 0
11.852473 9.101306 0.26084366 6 8
3.156589 2.4230132 -0.9187001 6 1
11.887163 9.1180534 0.78514409 9 9
3.879868 2.973901 -0.95022881 5 2
11.911969 9.1271782 1.3129141 6 10
4.8088074 3.6819334 -0.95925629 2 3
11.830546 9.0516815 1.8290153 58 11
6.9567351 5.3207502 -1.0753752 3 4
11.940584 9.1259661 2.3803072 3 12
10.808403 8.2546854 -1.1898502 9 5
11.870496 9.0625563 2.9029682 71 13
11.695039 8.9221439 -0.77090871 11 6
11.902146 9.073576 3.4552481 52 14
11.728296 8.9378052 -0.25738809 15 7
11.923588 9.0800543 4.0158362 64 15
2.6980793 2.0435052 -0.90690196 7 0
11.882244 8.9929895 0.26011065 8 8
3.1796441 2.4056201 -0.92049968 6 1
11.904331 8.9999084 0.7821086 9 9
3.8864374 2.9360914 -0.94679433 5 2
11.927705 9.0077667 1.3076848 6 10
4.8517394 3.6613607 -0.9626978 2 3
11.855409 8.9401894 1.8231655 56 11
7.0190735 5.2911725 -1.0792749 2 4
11.9614 9.0102968 2.3718596 1 12
10.652464 8.018466 -1.1664925 9 5
11.889545 8.9464178 2.892283 71 13
11.712346 8.8066711 -0.76797789 15 6
11.91223 8.9504614 3.4399514 54 14
11.732846 8.8124743 -0.25613153 23 7
11.9357 8.9583216 3.9987545 67 15
2.6967988 2.0130632 -0.90172559 7 0
11.890239 8.8691654 0.25892389 8 8
3.1979234 2.3845286 -0.92094964 6 1
11.934841 8.8927135 0.78001517 9 9
3.9021149 2.9053717 -0.94564945 5 2
11.918377 8.8707457 1.2998407 7 10
4.859745 3.6144347 -0.95925629 2 3
11.8793 8.8287802 1.8173158 61 11
7.0781484 5.2586179 -1.0826874 2 4
11.966918 8.8841772 2.3605964 1 12
10.792991 8.0068169 -1.1757309 16 5
11.894947 8.8210888 2.8785446 73 13
11.739844 8.6997175 -0.76577979 13 6
11.939969 8.8415728 3.4300537 54 14
11.752295 8.6994152 -0.25522399 22 7
11.94048 8.8322754 3.9796016 70 15
2.7076757 1.9918962 -0.90069032 7 0
11.848747 8.7101431 0.25669 11 8
3.201931 2.3529112 -0.91735035 5 1
11.904868 8.7418003 0.77404886 11 9
3.9365489 2.8885124 -0.94908404 5 2
11.865948 8.7036629 1.2874646 6 10
4.8896399 3.5839224 -0.96019489 1 3
11.892602 8.7104425 1.8100036 59 11
7.1499252 5.2348742 -1.0880497 3 4
11.972851 8.7595911 2.3496459 14 12
10.727993 7.8430882 -1.1626576 10 5
11.902349 8.6984472 2.8655696 73 13
11.738997 8.5727911 -0.76180226 13 6
11.962054 8.7292767 3.4188061 57 14
11.777196 8.5912361 -0.2544561 28 7
11.956582 8.7156925 3.9645903 68 15
2.7277713 1.9774814 -0.90276086 7 0
11.991857 8.6870403 0.25847015 11 8
3.2182782 2.3305018 -0.91735035 5 1
12.009295 8.6900892 0.77687502 13 9
3.9582107 2.862108 -0.94946563 6 2
12.015232 8.6848049 1.2970518 7 10
4.901732 3.5404437 -0.95769191 1 3
11.891953 8.5830641 1.8007416 56 11
7.2056179 5.1987653 -1.0909745 2 4
11.979228 8.6365185 2.3390083 7 12
10.546468 7.5979667 -1.1372081 18 5
11.922953 8.586463 2.856029 101 13
11.75479 8.4591303 -0.7589761 11 6
11.961 8.601182 3.4012599 54 14
11.789799 8.4749575 -0.25344384 23 7
11.979481 8.6049585 3.9521668 68 15
2.750942 1.9651272 -0.90586674 7 0
12.047329 8.5996256 0.25836542 12 8
3.2344697 2.3079772 -0.91735035 6 1
12.069671 8.6060371 0.77687502 13 9
3.9732976 2.8309886 -0.94832075 5 2
12.072324 8.5983982 1.2967031 7 10
4.9424214 3.5175931 -0.96082056 1 3
11.906288 8.467618 1.7939168 59 11
7.2669058 5.1643186 -1.0946305 3 4
12.03601 8.5503902 2.3383827 9 12
10.955058 7.776722 -1.1753824 14 5
11.940855 8.4702549 2.8457255 73 13
11.766315 8.3433514 -0.75594062 13 6
11.973051 8.483674 3.3877628 54 14
11.804446 8.3580198 -0.2524665 27 7
11.999838 8.4932213 3.9392259 71 15
2.7475541 1.9331635 -0.90017265 7 0
11.932058 8.3922157 0.25463063 6 8
3.2588744 2.2903755 -0.91959995 6 1
11.978941 8.4126968 0.76714051 8 9
3.9929647 2.8031809 -0.94832075 5 2
12.060146 8.4603014 1.2888591 7 10
4.9642315 3.4798684 -0.96019489 2 3
11.929347 8.35923 1.7885547 68 11
7.3190417 5.1248498 -1.097068 3 4
12.064516 8.4413948 2.3321254 17 12
10.769076 7.5321918 -1.1497585 19 5
11.95464 8.355196 2.8350403 69 13
11.771682 8.2212019 -0.75248641 11 6
11.995235 8.3742237 3.3774152 57 14
11.82151 8.2467966 -0.25159389 33 7
12.003254 8.367363 3.9205911 71 15
2.7752721 1.92384 -0.90483141 7 0
12.06413 8.3567238 0.25616643 13 8
3.2763867 2.2686779 -0.92004979 5 1
12.103078 8.37432 0.77132744 14 9
4.0016174 2.7667208 -0.94564945 5 2
12.073023 8.3441811 1.2839783 9 10
4.9819026 3.4406362 -0.95894337 2 3
11.952916 8.2488461 1.7831924 61 11
7.3775172 5.0894098 -1.1004803 3 4
12.032076 8.294178 2.3146045 8 12
10.561814 7.2752323 -1.122043 21 5
11.970637 8.2425852 2.8251181 73 13
11.79917 8.1184473 -0.75060236 11 6
12.009891 8.2572594 3.3648179 57 14
11.81452 8.1198988 -0.25023261 25 7
12.015196 8.251646 3.9055796 68 15
2.7870393 1.90333 -0.9043138 7 0
12.066022 8.2339668 0.25497967 12 8
3.2889242 2.2435541 -0.91914994 5 1
12.082031 8.2356243 0.76630318 11 9
4.0289483 2.7442424 -0.94755751 5 2
12.005819 8.1744719 1.2707307 6 10
4.994369 3.397994 -0.95675331 2 3
11.964243 8.1339531 1.7763678 63 11
7.4309282 5.0500541 -1.1031613 3 4
12.025954 8.1666956 2.3024027 9 12
10.810184 7.335568 -1.1429603 23 5
11.974273 8.1224432 2.8125248 101 13
11.822494 8.013463 -0.74850893 11 6
12.01884 8.1404276 3.3513207 55 14
11.844426 8.0192823 -0.24967413 23 7
12.032508 8.1404991 3.8926387 70 15
2.8034658 1.8859818 -0.90534908 6 0
12.096659 8.1316805 0.25442117 13 8
3.3028908 2.2194502 -0.9187001 6 1
12.038085 8.0831585 0.75991815 9 9
4.0463772 2.7149565 -0.94717592 5 2
12.080795 8.102663 1.2726481 10 10
5.0393 3.3773432 -0.96082056 2 3
11.964662 8.0126667 1.7680806 66 11
7.4742484 5.0035791 -1.10438 3 4
12.090885 8.0880318 2.303967 18 12
11.005242 7.3562469 -1.1581255 21 5
11.989878 8.0113811 2.8029842 71 13
11.813369 7.8874788 -0.74442673 13 6
12.031605 8.0271273 3.3391736 54 14
11.861858 7.9108777 -0.24887131 22 7
12.040822 8.0241528 3.8771093 73 15
2.8213954 1.8695654 -0.90690196 7 0
12.113114 8.0205412 0.25358346 15 8
3.3069298 2.1888084 -0.91555077 5 1
12.125871 8.0198593 0.76190692 14 9
4.0635943 2.6855588 -0.94679433 5 2
12.067245 7.9720063 1.2653271 7 10
5.0396771 3.3268418 -0.95644045 2 3
11.973911 7.8983378 1.7612559 65 11
7.5338583 4.9676642 -1.1080362 3 4
12.105817 7.9762535 2.2961452 22 12
11.254355 7.4096198 -1.1788685 15 5
12.006156 7.9015775 2.7938256 71 13
10.83018 7.1222267 -0.67932075 1 6
12.046639 7.9161744 3.3279259 58 14
11.871667 7.7982368 -0.24792889 25 7
12.059399 7.9155207 3.8652039 75 15
2.8198173 1.8403215 -0.9022432 6 0
12.091763 7.8855333 0.25197786 11 8
3.3335564 2.1731193 -0.9187001 6 1
12.091193 7.876142 0.75625467 11 9
4.0657916 2.6464124 -0.94297814 5 2
12.087536 7.864749 1.2616665 9 10
5.0594678 3.2894237 -0.95581466 2 3
11.995464 7.7929292 1.7563812 63 11
7.5966587 4.9333267 -1.1121798 3 4
12.046865 7.8173556 2.2745574 7 12
11.32587 7.3438759 -1.1809603 12 5
12.028074 7.7962151 2.7861929 107 13
11.846909 7.6729102 -0.73971647 15 6
12.055803 7.8022337 3.3153286 60 14
11.872096 7.6804032 -0.24681193 22 7
12.073806 7.8049188 3.8522627 70 15
2.8342218 1.8216351 -0.90276086 7 0
12.02201 7.7209597 0.24939489 11 8
3.3388071 2.1434772 -0.91600066 6 1
12.051746 7.7311401 0.75039297 11 9
4.084167 2.6179655 -0.94297814 3 2
12.021368 7.7027717 1.2491161 7 10
5.0773168 3.2508285 -0.95487607 2 3
12.022822 7.6918778 1.7524813 63 11
7.6559973 4.8962178 -1.1158358 4 4
12.274259 7.8436861 2.3070958 3 12
11.205585 7.1552515 -1.1631805 20 5
12.034217 7.6814203 2.7751262 114 13
11.873243 7.5728321 -0.7380417 13 6
12.070539 7.6927419 3.3045309 58 14
11.890009 7.5747705 -0.24607892 18 7
12.08074 7.690352 3.8372514 79 15
2.8485026 1.8028374 -0.90327853 6 0
12.035057 7.6111903 0.24855718 11 8
3.3553376 2.1211572 -0.91645062 4 1
12.085161 7.6340222 0.74913698 11 9
4.102344 2.5893886 -0.94297814 5 2
12.037776 7.5952749 1.2452812 6 10
5.098217 3.2142496 -0.9545632 2 3
12.025841 7.5760121 1.7451692 66 11
7.6983919 4.847939 -1.1170545 4 4
11.272131 7.0874524 -1.1649235 21 5
12.041013 7.5679612 2.764441 69 13
11.888614 7.4663877 -0.73573893 15 6
12.090934 7.587575 3.2955329 60 14
11.905334 7.4681997 -0.24531102 14 7
12.091572 7.5791554 3.8237929 79 15
2.8610194 1.7829071 -0.90327853 7 0
12.06074 7.5100718 0.2479987 11 8
3.3651009 2.0945914 -0.91510093 6 1
12.073714 7.5093808 0.74515945 11 9
4.1319933 2.5679395 -0.94564945 5 2
12.105739 7.5205121 1.24685 7 10
5.1373158 3.188997 -0.95769191 1 3
12.02446 7.4583821 1.7373695 101 11
7.7489209 4.8045368 -1.1194919 4 4
12.068567 7.4769936 2.2485893 1 12
11.245102 6.9613981 -1.1570797 20 5
12.055156 7.4599533 2.7556636 71 13
11.887783 7.3506508 -0.73249412 13 6
12.103822 7.4783964 3.2847352 60 14
11.931658 7.3691473 -0.24478745 20 7
12.111313 7.4742579 3.8134401 77 15
2.8783362 1.7659205 -0.90483141 6 0
12.078779 7.4047861 0.24730061 11 8
3.3829648 2.0730836 -0.91600066 6 1
12.08156 7.3977904 0.74243796 11 9
4.1447954 2.5359585 -0.94450456 5 2
12.122254 7.4139853 1.2431895 7 10
5.1527128 3.1489315 -0.95644045 1 3
12.045736 7.3556371 1.7329822 65 11
7.7704153 4.7430787 -1.1177858 3 4
12.230088 7.4594216 2.2689257 6 12
11.233879 6.8464317 -1.1509787 21 5
12.075083 7.3562093 2.7484128 104 13
11.904691 7.2467089 -0.73040068 13 6
12.105792 7.3633275 3.2712383 63 14
11.948641 7.2648916 -0.24408937 28 7
12.125225 7.3664527 3.8015342 71 15
2.8839803 1.741788 -0.90276086 7 0
12.077102 7.2882562 0.24621855 9 8
3.3990242 2.0504224 -0.91645062 6 1
12.120934 7.3060536 0.74170524 13 9
4.1539907 2.5018938 -0.94259644 5 2
12.12592 7.3004065 1.2383088 7 10
5.1728773 3.1118665 -0.95612758 2 3
12.069573 7.2550001 1.7290823 65 11
7.8407707 4.7112112 -1.123148 3 4
12.225978 7.3403034 2.2586012 21 12
11.354867 6.8119173 -1.1584741 9 5
12.089103 7.249517 2.7400174 111 13
11.924158 7.1449389 -0.72851658 13 6
12.116772 7.2546144 3.2604406 63 14
11.935583 7.1432953 -0.24279788 15 7
12.134903 7.2568412 3.7885933 70 15
2.8910871 1.7186517 -0.90120792 7 0
12.108777 7.1925311 0.24583459 11 8
3.418282 2.0296292 -0.91780037 6 1
12.06515 7.1580663 0.73521554 9 9
4.1747341 2.4748349 -0.94335973 2 2
12.110996 7.1738482 1.2315106 7 10
5.2029748 3.080709 -0.95769191 1 3
12.085756 7.1503515 1.7242076 68 11
7.8845363 4.6610451 -1.1246104 3 4
12.253117 7.2407012 2.254221 23 12
11.40215 6.7324739 -1.1584741 24 5
12.10347 7.1408768 2.7316217 114 13
11.940566 7.0391483 -0.72642314 13 6
12.133545 7.1500597 3.2514424 62 14
11.95365 7.0384307 -0.24213469 13 7
12.1399 7.1423907 3.7740996 72 15
2.901644 1.6969444 -0.90069032 6 0
12.097781 7.0693779 0.24457803 11 8
3.4394488 2.0090482 -0.91959995 6 1
12.093636 7.058465 0.73385483 9 9
4.1906404 2.4439092 -0.94297814 3 2
12.137923 7.0729504 1.2290702 7 10
5.1992831 3.0284848 -0.95299888 2 3
12.09201 7.0377173 1.7178704 68 11
7.9245515 4.6084962 -1.1255853 3 4
12.263629 7.1290088 2.246712 20 12
11.508612 6.6847339 -1.1644007 20 5
12.115205 7.0314178 2.7228444 105 13
11.945709 6.9274726 -0.72370172 13 6
12.164166 7.0513225 3.2460437 58 14
11.979485 6.9386802 -0.24164602 14 7
12.157258 7.0359836 3.7637467 72 15
2.9237602 1.6819168 -0.90379614 7 0
12.094314 6.951735 0.24349597 4 8
3.4334617 1.9727328 -0.91420108 6 1
12.128246 6.9627943 0.73291278 9 9
4.2046156 2.4119051 -0.94221485 5 2
12.112681 6.9454288 1.2215749 7 10
5.2379613 3.0010221 -0.95612758 2 3
12.093823 6.9233937 1.7110457 101 11
7.9651461 4.5579906 -1.126804 3 4
12.154847 6.949882 2.2176151 6 12
11.50771 6.5745406 -1.15952 24 5
12.135016 6.9301147 2.716357 114 13
11.943471 6.815207 -0.72066617 16 6
12.160142 6.9332104 3.231647 65 14
11.998098 6.8380461 -0.24105263 13 7
12.182581 6.9375548 3.7564998 74 15
2.9421558 1.6652706 -0.90586674 7 0
12.231322 6.917336 0.24527612 12 8
3.4522386 1.9515933 -0.91555077 5 1
12.153954 6.8651838 0.73155206 11 9
4.2179313 2.3805625 -0.94145161 5 2
12.235495 6.9027872 1.2290702 10 10
5.2398558 2.953711 -0.95268601 2 3
12.117645 6.8251619 1.7076334 68 11
8.0106115 4.5100632 -1.1287539 3 4
12.242665 6.8871379 2.2248113 5 12
11.650592 6.5487056 -1.1692814 19 5
12.150578 6.8269615 2.7091062 119 13
11.96464 6.7169881 -0.71909612 13 6
12.167458 6.8252668 3.2208493 65 14
12.010661 6.7345572 -0.24035454 24 7
12.197009 6.8334503 3.7461472 70 15
2.9368317 1.6352917 -0.90069032 7 0
12.141272 6.7549653 0.24251865 11 8
3.4657793 1.9274446 -0.91555077 5 1
12.215555 6.787921 0.73238945 14 9
4.2207155 2.3434358 -0.93839866 5 2
12.156216 6.7466202 1.2163455 6 10
5.284533 2.9304724 -0.95706618 1 3
12.137217 6.7250047 1.7037336 63 11
8.0418997 4.4540324 -1.1287539 2 4
12.228228 6.767067 2.2135479 8 12
11.800643 6.5250564 -1.1797401 24 5
12.160145 6.7210689 2.7007105 101 13
11.97977 6.6159148 -0.71721202 13 6
12.184094 6.7232141 3.2127509 65 14
12.006605 6.6225343 -0.2393423 14 7
12.203809 6.7257595 3.7337236 77 15
2.9363151 1.6082541 -0.89706683 6 0
12.256544 6.7074847 0.24387993 13 8
3.4894097 1.9088118 -0.9182502 5 1
12.208314 6.6727858 0.72914463 13 9
4.2369728 2.3139124 -0.93839866 3 2
12.243238 6.6835523 1.2203547 10 10
5.308331 2.8953996 -0.95769191 1 3
12.152498 6.6230025 1.6993462 65 11
8.1146364 4.4205723 -1.1346037 2 4
12.257826 6.6720834 2.2104194 6 12
11.875661 6.4587011 -1.1827034 51 5
12.182622 6.6228833 2.6953681 73 13
12.008112 6.5225921 -0.7161653 13 6
12.206757 6.6249757 3.2064524 60 14
12.024421 6.5233002 -0.23878384 12 7
12.202912 6.6146202 3.7192299 74 15
2.9576769 1.5932112 -0.90017265 9 0
12.144596 6.536459 0.2407385 11 8
3.4923527 1.8788666 -0.91555077 6 1
12.242286 6.5807734 0.72841191 14 9
4.2461061 2.280561 -0.93687224 3 2
12.233428 6.5677581 1.2147768 10 10
5.3005633 2.8433294 -0.95268601 1 3
12.159944 6.5173755 1.693984 101 11
8.2388096 4.4120603 -1.1475219 2 4
12.274497 6.5705023 2.2051005 9 12
11.71315 6.2647557 -1.1621346 17 5
12.200267 6.5198064 2.6888807 65 13
12.018123 6.4197803 -0.71407187 13 6
12.225206 6.5249081 3.199254 60 14
12.040796 6.4210916 -0.23819044 12 7
12.221519 6.5147204 3.7109475 72 15
2.9724164 1.5738136 -0.90120792 6 0
12.232352 6.4739642 0.24157622 12 8
3.5022628 1.8520057 -0.91465092 5 1
12.183108 6.4370184 0.72213155 13 9
4.2740755 2.2572796 -0.93954355 5 2
12.276588 6.4781899 1.2144281 10 10
5.2963109 2.7924287 -0.94830585 2 3
12.159488 6.4082608 1.6876467 65 11
8.2922449 4.3664589 -1.1506904 2 4
12.25302 6.446629 2.1928985 6 12
11.754836 6.1819024 -1.1619604 19 5
12.236794 6.429914 2.6869724 40 13
12.017776 6.3094773 -0.71135038 13 6
12.235947 6.4212956 3.1902559 60 14
12.051682 6.319231 -0.23752725 11 7
11.822905 6.194005 3.5763617 42 15
2.9901857 1.556592 -0.90327853 6 0
11.673407 6.0716124 0.22967367 46 8
3.5220234 1.8311059 -0.91645062 6 1
11.706666 6.0811267 0.69135809 69 9
4.2831488 2.2230198 -0.93801707 3 2
11.723743 6.0822053 1.1555108 43 10
5.3332143 2.7644763 -0.95143455 1 3
11.753778 6.0873775 1.6252496 101 11
8.3497229 4.3206935 -1.1543465 2 4
11.526194 5.956759 -1.1351163 43 5
11.792309 6.0890737 2.5797377 109 13
11.653328 6.0147338 -0.68727589 58 6
11.817409 6.0941992 3.0696821 63 14
11.666412 6.0111771 -0.22908029 54 7
11.82292 6.0892072 3.5634208 65 15
2.9892085 1.5289967 -0.89965498 7 0
11.717286 5.9908843 0.22970858 16 8
3.5280943 1.8023099 -0.91465092 5 1
11.748102 5.9962916 0.69125336 32 9
4.2793269 2.183249 -0.93381923 3 2
11.756316 5.9927268 1.154465 11 10
5.3528585 2.7262444 -0.95143455 1 3
8.3885288 4.2667999 -1.1555651 3 4
11.613544 5.8816986 -0.22723033 76 7
2.9926424 1.5051436 -0.8975845 6 0
11.742747 5.9008498 0.22939444 8 8
3.5489869 1.7826283 -0.91690052 6 1
11.801142 5.9224572 0.69198608 34 9
4.2856898 2.1489205 -0.93191117 5 2
11.807522 5.9179215 1.1555108 28 10
5.3712931 2.6897428 -0.95143455 1 3
11.876681 5.9422212 1.630612 55 11
8.4617653 4.2317963 -1.1616586 2 4
10.991463 5.4873295 -1.0748047 39 5
11.861086 5.9188976 2.5766847 61 13
11.710593 5.8310337 -0.22834729 54 7
2.9996138 1.4825025 -0.89654922 6 0
11.717316 5.7859674 0.22810295 66 8
3.5526078 1.7534956 -0.91465092 5 1
11.75801 5.7984066 0.6870665 86 9
4.309392 2.1232891 -0.93381923 3 2
11.762755 5.7930923 1.1471438 58 10
5.3651247 2.639971 -0.94705439 1 3
11.807428 5.8048553 1.6155001 114 11
8.4911013 4.1726232 -1.1616586 2 4
11.809404 5.7981515 2.0837073 58 12
11.548245 5.6649265 -1.1253549 17 5
11.810458 5.7909966 2.5568407 101 13
11.701406 5.7324595 -0.68287963 71 6
11.868927 5.8093987 3.050786 66 14
11.716887 5.732439 -0.2276841 68 7
11.852389 5.7936139 3.5349507 74 15
3.020318 1.4665867 -0.89965498 7 0
11.78081 5.7153764 0.22855672 42 8
3.5507364 1.7218471 -0.91105175 5 1
11.823366 5.7283769 0.68853194 42 9
4.3311791 2.0965738 -0.93534577 5 2
11.876442 5.7464161 1.1542907 21 10
5.3763103 2.5990121 -0.94580293 1 3
11.933467 5.7637229 1.6271995 33 11
8.5457716 4.1238337 -1.165071 3 4
11.991933 5.7842202 2.1087368 27 12
11.535459 5.5590878 -1.1202999 10 5
12.030251 5.7923613 2.5953841 39 13
11.827523 5.6922083 -0.68790388 20 6
12.098875 5.8175945 3.0993757 28 14
11.894596 5.7142587 -0.23033686 24 7
12.110235 5.8152523 3.5996554 32 15
3.0307345 1.4449377 -0.89965498 6 0
12.080372 5.7568693 0.23358302 27 8
3.5664852 1.6980717 -0.9119516 5 1
12.103932 5.7577319 0.70245332 29 9
4.327981 2.057853 -0.93152958 5 2
12.165609 5.7792625 1.1783456 15 10
5.4090476 2.5672498 -0.94830585 1 3
12.222709 5.7985454 1.6610793 54 11
8.5743532 4.0640726 -1.165071 3 4
12.284746 5.8174672 2.1528513 30 12
11.25704 5.3283963 -1.0896211 5 5
12.317096 5.824893 2.6484292 33 13
12.095489 5.7149339 -0.70109254 20 6
12.28545 5.8020582 3.1367173 49 14
12.142175 5.7292118 -0.23435092 25 7
12.321034 5.8083549 3.6498661 68 15
3.0494962 1.4278399 -0.9022432 6 0
12.248049 5.7295885 0.23602633 12 8
3.5782528 1.6731316 -0.9119516 5 1
12.266883 5.7305732 0.70957094 14 9
4.3372579 2.0243411 -0.93038476 3 2
12.279687 5.728725 1.1854924 13 10
5.4304194 2.5310941 -0.94893163 1 3
12.254891 5.7067432 1.6598606 112 11
8.5906162 3.9967499 -1.1633649 3 4
12.29998 5.7199054 2.1484711 16 12
11.280426 5.2409902 -1.0882267 5 5
12.370928 5.7423916 2.6511004 15 13
12.13328 5.6295118 -0.70098788 18 6
12.310742 5.7066212 3.1326683 65 14
12.150199 5.6270504 -0.23372263 19 7
12.333238 5.7092061 3.6415842 70 15
3.0491035 1.4011419 -0.89913744 6 0
12.304106 5.651454 0.23634049 11 8
3.5936759 1.6491086 -0.91285133 5 1
12.318469 5.6476412 0.710199 11 9
4.3566389 1.9964657 -0.93152958 3 2
12.347541 5.6531482 1.1881071 7 10
5.4483924 2.4921701 -0.94893163 2 3
12.279991 5.6144457 1.6579107 101 11
8.6038647 3.9300807 -1.161415 3 4
12.308252 5.6169748 2.1428397 18 12
12.344615 5.6257625 2.6369805 24 13
12.147803 5.5309567 -0.69952244 15 6
12.32545 5.6092362 3.1263697 65 14
12.165521 5.5313354 -0.23326886 21 7
12.33508 5.6032281 3.6301961 77 15
3.055289 1.3782321 -0.89810216 6 0
12.309592 5.5476518 0.2356773 8 8
3.6051013 1.6239799 -0.91285133 5 1
12.386738 5.5746188 0.71187371 11 9
4.3761845 1.9676563 -0.93267435 2 2
12.383072 5.5651751 1.1877584 9 10
5.447639 2.4459784 -0.94580293 1 3
12.280005 5.508554 1.6525484 101 11
8.6546421 3.8804724 -1.1645836 3 4
12.354374 5.5341463 2.1440909 26 12
11.487965 5.1412239 -1.1011256 8 5
12.408678 5.5506725 2.642323 36 13
12.160592 5.4346056 -0.69805706 15 6
12.351038 5.5145378 3.1227705 65 14
12.181927 5.4364901 -0.23285002 22 7
12.340373 5.5020289 3.6203611 83 15
3.0648363 1.3568686 -0.89810216 6 0
12.340704 5.4583502 0.23553768 9 8
3.6020925 1.5924685 -0.90925217 5 1
12.282846 5.4250717 0.70370936 8 9
4.3826313 1.9338846 -0.93114793 3 2
12.370577 5.4560823 1.1828777 6 10
5.4392734 2.3967383 -0.9414227 2 3
12.281826 5.406693 1.6476736 104 11
8.6815205 3.8199611 -1.1645836 2 4
12.385475 5.444582 2.1428397 20 12
11.280953 4.9543495 -1.0779423 15 5
12.454317 5.4670653 2.6438496 15 13
12.167145 5.3359342 -0.69627762 15 6
12.353534 5.4125419 3.1137726 62 14
12.201269 5.3432846 -0.23250096 14 7
12.355473 5.4056826 3.6136317 74 15
3.0830932 1.3392889 -0.90069032 7 0
12.360166 5.3641014 0.23518863 9 8
3.6381505 1.578141 -0.91555077 5 1
12.408387 5.3773036 0.70873362 9 9
4.3924227 1.9016811 -0.93038476 3 2
12.401055 5.366416 1.1821805 7 10
5.4848843 2.3712487 -0.9464286 1 3
12.291935 5.3090177 1.6440176 106 11
8.7316694 3.7694881 -1.1677521 3 4
12.466716 5.3767571 2.1503484 6 12
11.436033 4.9275017 -1.0894468 8 5
12.461528 5.3667831 2.637362 9 13
12.172909 5.2374482 -0.69449818 15 6
12.358793 5.312314 3.1056743 62 14
12.199689 5.2414017 -0.23176797 13 7
12.373383 5.3109117 3.6079376 78 15
3.0763731 1.3109164 -0.89603156 6 0
12.382597 5.271409 0.2349094 9 8
3.6383204 1.5481254 -0.91285133 5 1
12.366589 5.2569475 0.70423269 8 9
4.4055905 1.8709719 -0.93038476 3 2
12.390532 5.2594681 1.1776484 6 10
5.5049424 2.3344417 -0.94705439 1 3
12.315905 5.2176533 1.6423115 104 11
8.7559452 3.7076635 -1.1675085 3 4
12.469383 5.2749691 2.1444039 6 12
11.363712 4.8025579 -1.0793368 15 5
12.496881 5.2788901 2.6369805 9 13
12.194456 5.1461253 -0.69366086 15 6
12.37044 5.2153049 3.0993757 65 14
12.21387 5.1467862 -0.2313491 15 7
12.376328 5.2101579 3.5981026 74 15
3.0747557 1.2849365 -0.89292574 6 0
12.363733 5.161727 0.23386225 8 8
3.6634281 1.5286894 -0.91645062 5 1
12.423265 5.1789379 0.70538408 8 9
4.4040456 1.834131 -0.92733175 3 2
12.358891 5.1445084 1.1711988 6 10
5.4955692 2.2853367 -0.94267422 2 3
12.330034 5.1224003 1.6393865 68 11
8.7834473 3.6472108 -1.1677521 3 4
12.452992 5.1658382 2.1353307 7 12
11.154005 4.6224208 -1.0563276 10 5
12.448182 5.1562057 2.6190445 7 13
12.213476 5.0539932 -0.6927188 15 6
12.392138 5.1228662 3.0957766 66 14
12.229174 5.0529919 -0.23096514 16 7
12.376686 5.1088862 3.5877497 74 15
3.1033144 1.2714975 -0.89861977 7 0
12.393915 5.0730138 0.23375754 11 8
3.6523671 1.4942219 -0.91105175 5 1
12.407351 5.0709295 0.70245332 9 9
4.4221959 1.8055667 -0.92847663 3 2
12.409261 5.0641298 1.1725934 7 10
5.5040741 2.2439291 -0.9414227 1 3
12.339756 5.025713 1.6359742 66 11
8.8252449 3.5925333 -1.1699458 3 4
12.378962 5.0341258 2.1165586 7 12
11.71946 4.761167 -1.1067036 23 5
12.507523 5.0787773 2.6240056 9 13
12.216996 4.9558468 -0.69093937 15 6
12.409542 5.028903 3.0912774 69 14
12.245616 4.9599919 -0.23061611 14 7
12.392354 5.0143857 3.5820558 78 15
3.1103232 1.2490815 -0.89810216 7 0
12.317675 4.94169 0.23166324 6 8
3.6554744 1.4657879 -0.90925217 5 1
12.44245 4.9841862 0.70245332 11 9
4.4292259 1.7724596 -0.92733175 2 2
12.375867 4.9499969 1.1661439 4 10
5.5085998 2.2010512 -0.93954557 2 3
12.341353 4.9262023 1.6315869 66 11
8.8021717 3.5117085 -1.1636086 3 4
12.366092 4.9285722 2.1084239 7 12
11.430327 4.5509953 -1.0763733 28 5
12.420457 4.9427047 2.5984371 20 13
12.221604 4.8586245 -0.68926466 15 6
12.408125 4.9277596 3.0822794 67 14
12.261361 4.8669968 -0.23026705 16 7
12.410896 4.9213395 3.5773969 77 15
3.1243603 1.2294589 -0.89965498 6 0
12.357455 4.8577766 0.23176797 35 8
3.6710598 1.4423701 -0.91060191 6 1
12.383985 4.8607078 0.69721967 14 9
4.4579415 1.7479467 -0.93076634 5 2
12.404559 4.8612895 1.1656209 7 10
5.531188 2.1654234 -0.94079703 1 3
12.356957 4.8326931 1.6291496 101 11
8.8375654 3.4545128 -1.165071 3 4
12.378118 4.833498 2.1046696 7 12
12.094775 4.7179852 -1.1358136 24 5
12.461976 4.858726 2.5999634 6 13
12.22917 4.7630348 -0.68779916 15 6
12.413165 4.8297148 3.0750811 69 14
12.265221 4.7696815 -0.22970858 14 7
12.425141 4.8268857 3.571703 81 15
3.1256566 1.2048391 -0.8975845 7 0
12.437723 4.7893457 0.23264058 11 8
3.6792202 1.4160078 -0.9101519 5 1
12.499642 4.805675 0.70182526 14 9
4.4480429 1.708335 -0.92618686 3 2
12.497715 4.7974253 1.1711988 9 10
5.5572376 2.1309991 -0.94267422 2 3
12.36815 4.7377863 1.6262246 101 11
8.8564978 3.389056 -1.1643399 3 4
12.380198 4.7349629 2.0993509 6 12
11.068408 4.2288303 -1.0366304 14 5
12.47625 4.7617254 2.5957658 9 13
12.241595 4.6697187 -0.68664783 15 6
12.435654 4.7387733 3.0723815 64 14
12.261661 4.6675639 -0.22901048 13 7
12.433258 4.7304068 3.564456 85 15
3.1233537 1.1783485 -0.89447862 7 0
12.414723 4.681231 0.23159343 11 8
3.6874359 1.3889549 -0.90970206 6 1
12.516886 4.7097764 0.70088315 16 9
4.4488354 1.6730938 -0.92389715 2 2
12.514939 4.7015648 1.1696301 10 10
5.5538502 2.0842376 -0.93954557 1 3
12.386056 4.6457477 1.6242748 101 11
8.8892345 3.3306253 -1.1655585 3 4
12.387859 4.6365623 2.0949705 7 12
11.276805 4.2184701 -1.0533643 13 5
12.448501 4.6518302 2.5831723 8 13
12.270954 4.5806026 -0.68643844 15 6
12.439219 4.6409416 3.0651829 62 14
12.278955 4.5762663 -0.22873124 16 7
12.437822 4.6305313 3.5561738 78 15
3.135128 1.1578548 -0.89551395 6 0
12.4404 4.5895052 0.23145382 11 8
3.7080126 1.3672248 -0.9124015 6 1
12.543839 4.6202064 0.70056915 13 9
4.4828038 1.6493509 -0.92847663 3 2
12.519406 4.6037645 1.1670153 9 10
5.5868077 2.0522249 -0.94267422 1 3
12.392891 4.5474224 1.6208624 57 11
8.9296169 3.2730792 -1.1677521 3 4
12.408798 4.5458894 2.0930934 7 12
11.398384 4.1712184 -1.0619056 17 5
12.483314 4.5633054 2.583554 7 13
12.278247 4.4859138 -0.68507773 15 6
12.464789 4.5491376 3.0633836 62 14
12.298236 4.4834886 -0.22848691 16 7
12.451694 4.536972 3.5509973 81 15
3.1415162 1.1347344 -0.89499629 6 0
12.396901 4.4753823 0.23005761 9 8
3.695703 1.3327229 -0.90700263 6 1
12.555909 4.5228806 0.69941777 16 9
4.4942083 1.6180168 -0.92847663 3 2
12.542657 4.5106888 1.1661439 10 10
5.5753231 2.0028441 -0.93829399 1 3
12.396312 4.4507313 1.6172063 46 11
8.9541168 3.2113287 -1.1679959 3 4
12.418693 4.4489884 2.089339 8 12
11.295923 4.0445271 -1.0497037 16 5
12.490835 4.4674497 2.578593 15 13
12.294986 4.3925624 -0.68424034 15 6
12.46688 4.4515209 3.056185 65 14
12.314169 4.3921471 -0.22820766 16 7
12.471103 4.4432154 3.547374 77 15
3.1548262 1.1147056 -0.89654922 6 0
12.48518 4.4065237 0.23110476 12 8
3.7104311 1.3088325 -0.90835232 5 1
12.551388 4.4225025 0.697429 14 9
4.4945598 1.5819048 -0.92618686 3 2
12.549408 4.4144201 1.1638778 9 10
5.5817142 1.9612557 -0.93704253 2 3
12.420351 4.3592815 1.6162314 26 11
8.9519653 3.1402011 -1.1648273 3 4
12.430808 4.3556433 2.0862103 9 12
11.186611 3.9175017 -1.0369791 9 5
12.51616 4.3781934 2.5774479 9 13
12.302726 4.2987146 -0.68298429 15 6
12.475576 4.356667 3.050786 69 14
12.323763 4.2988262 -0.22782372 16 7
12.483575 4.3496923 3.5421977 74 15
3.1625321 1.0926522 -0.89654922 7 0
12.435496 4.2940311 0.22963877 11 8
3.7231624 1.2841679 -0.90925217 6 1
12.573646 4.3343678 0.69701034 16 9
4.4866614 1.5448807 -0.92237073 3 2
12.562962 4.3208747 1.1623089 10 10
5.6136169 1.9296354 -0.94017124 1 3
12.449735 4.2746439 1.6162314 23 11
8.9868155 3.0821321 -1.1665335 3 4
12.441482 4.2645297 2.0830817 11 12
11.330559 3.8793168 -1.0477864 8 5
12.527844 4.2843542 2.573632 18 13
12.307134 4.2064753 -0.68162352 15 6
12.483558 4.26191 3.0453875 70 14
12.330759 4.204946 -0.22740486 19 7
12.490952 4.2571335 3.5359859 74 15
3.1644051 1.0692463 -0.89499629 7 0
12.493593 4.2166963 0.23016234 13 8
3.7410491 1.2619113 -0.91150165 6 1
12.590352 4.2420115 0.69627762 17 9
4.4954762 1.5128963 -0.92198914 2 2
12.565645 4.2263627 1.1598686 10 10
5.6157146 1.8866259 -0.93829399 1 3
12.479273 4.187624 1.6162314 22 11
9.0433455 3.0328863 -1.1711645 3 4
12.474696 4.1788225 2.0837073 14 12
11.412158 3.8184533 -1.0528414 31 5
12.526924 4.1890244 2.5675259 6 13
12.321045 4.1153913 -0.68078619 15 6
12.490822 4.1672597 3.0399885 66 14
12.347716 4.1171145 -0.22719543 19 7
12.496538 4.1618967 3.5292566 81 15
3.1699581 1.0465229 -0.89447862 6 0
12.461952 4.1093383 0.22904538 9 8
3.7534695 1.2369831 -0.9124015 6 1
12.534287 4.1259155 0.69156742 13 9
4.5152535 1.4845411 -0.92389715 5 2
12.496415 4.1061993 1.1508044 10 10
5.621242 1.844911 -0.93704253 1 3
12.478024 4.0904999 1.6123315 14 11
9.0605259 2.9684417 -1.1706771 3 4
12.53736 4.1026831 2.089339 16 12
11.474519 3.7504549 -1.0561533 7 5
12.565197 4.1045103 2.5694342 24 13
12.332386 4.0237041 -0.67984414 15 6
12.508493 4.0763326 3.0372891 66 14
12.362848 4.0264759 -0.22695109 21 7
12.506918 4.0685768 3.52408 81 15
3.177187 1.024367 -0.89447862 6 0
3.7508836 1.2071667 -0.90970206 6 1
12.526659 4.0266957 0.68957865 13 9
4.5329852 1.4553831 -0.92542368 3 2
12.564617 4.031641 1.154465 10 10
5.6433907 1.8086368 -0.93860692 2 3
12.445777 3.9839272 1.6045319 8 11
9.0545578 2.896647 -1.1672646 3 4
12.565696 4.0150619 2.089339 24 12
11.067661 3.5321445 -1.0164102 10 5
12.571098 4.0095358 2.5648546 10 13
12.324018 3.9259911 -0.67785537 15 6
12.521793 3.9841747 3.03369 70 14
12.381127 3.9370449 -0.22677657 22 7
12.512925 3.9741399 3.5178688 85 15
3.191632 1.0044808 -0.89654922 6 0
2.9721463 0.93426353 0.054381698 38 8
3.7517831 1.178615 -0.90790248 6 1
12.642125 3.96665 0.69439352 13 9
4.533668 1.4207659 -0.92351556 3 2
12.58105 3.9402523 1.153419 7 10
5.6464529 1.7662457 -0.93704253 1 3
12.454339 3.8910229 1.6020945 10 11
9.0650854 2.8304057 -1.166046 2 4
12.538732 3.9101844 2.0802658 35 12
11.752133 3.6603849 -1.0768963 34 5
12.636275 3.9333453 2.5724869 12 13
12.349219 3.8392644 -0.67775071 15 6
12.523247 3.8885684 3.0273912 65 14
12.381573 3.8422151 -0.2262879 20 7
12.532984 3.8843985 3.5157981 83 15
3.1911798 0.97990626 -0.89447862 6 0
2.9938898 0.91818315 0.054660939 9 8
3.7580571 1.1518228 -0.90745258 6 1
12.994171 3.9776843 0.71218777 6 9
4.5284562 1.3844883 -0.92046267 2 2
12.568235 3.8401039 1.1497585 2 10
5.6586461 1.7267829 -0.93704253 1 3
12.469807 3.800508 1.6006321 11 11
9.0884228 2.7682071 -1.1665335 3 4
12.510918 3.8058803 2.0711925 37 12
11.16356 3.3917451 -1.020768 5 5
12.561984 3.8142302 2.5518796 9 13
12.364255 3.7494736 -0.67712265 16 6
12.531437 3.7954025 3.0228922 63 14
12.390871 3.7504623 -0.22597377 28 7
12.545001 3.7923412 3.511657 81 15
3.1923907 0.95594269 -0.89292574 7 0
3.0078907 0.89954996 0.054800555 12 8
3.7753417 1.1283506 -0.90970206 6 1
4.5511818 1.3567662 -0.92313397 5 2
12.470625 3.7152853 1.1384282 3 10
5.6629901 1.6849828 -0.93579108 1 3
12.482715 3.7094078 1.5989259 11 11
9.1208467 2.7086463 -1.1682396 3 4
12.503092 3.7083397 2.0655608 47 12
11.339792 3.3590007 -1.0347129 48 5
12.663604 3.7487345 2.5671444 9 13
12.386298 3.661937 -0.67691332 15 6
12.550152 3.7056167 3.0210927 60 14
12.401407 3.6593447 -0.22569451 25 7
12.545228 3.6970229 3.50441 81 15
3.1952775 0.93254989 -0.89189047 6 0
2.9948995 0.87293327 0.054451507 12 8
3.777514 1.1003312 -0.90835232 5 1
3.0166376 0.87755603 0.16464894 51 9
4.5530014 1.3227712 -0.92160755 3 2
12.568968 3.6492434 1.1450521 2 10
5.667026 1.6432089 -0.93453962 2 3
12.496868 3.6188524 1.5974635 13 11
9.1509752 2.6482203 -1.1697021 3 4
12.52678 3.6204071 2.065248 49 12
11.40508 3.2919075 -1.0385478 12 5
12.623446 3.641185 2.5537877 11 13
12.388531 3.5687408 -0.67565727 16 6
12.571971 3.616832 3.0201929 63 14
12.415121 3.5693622 -0.2254851 28 7
12.559591 3.6061521 3.5013041 81 15
3.2258673 0.91708601 -0.89861977 6 0
3.0028441 0.85255128 0.054486416 12 8
3.786979 1.0744624 -0.90880221 6 1
3.0073173 0.8521201 0.16381156 93 9
4.5772371 1.2952294 -0.92466044 5 2
12.647817 3.5765927 1.1499329 9 10
5.6859636 1.6057528 -0.93579108 2 3
12.49508 3.5239761 1.5940511 13 11
9.1310263 2.5734997 -1.1648273 3 4
12.542243 3.5301893 2.0636837 51 12
11.211042 3.1512818 -1.0188506 19 5
12.684471 3.5630555 2.5610385 12 13
12.393912 3.4767706 -0.67461056 15 6
12.574397 3.5226667 3.0147939 65 14
12.426257 3.4788275 -0.22524075 11 7
12.569577 3.5142202 3.4971633 78 15
3.2154343 0.88990676 -0.89396101 6 0
3.0125778 0.83263206 0.054556224 12 8
3.7831171 1.0448872 -0.9061029 6 1
3.0016406 0.82791793 0.16318353 84 9
4.5710268 1.2590697 -0.92160755 5 2
12.6744 3.4887362 1.1501071 7 10
5.6798935 1.5613034 -0.93297523 2 3
12.507891 3.4335051 1.5925888 13 11
9.1549511 2.5096681 -1.1655585 3 4
12.547531 3.4373233 2.060555 57 12
11.296186 3.0902922 -1.0246029 18 5
12.690704 3.4670224 2.5572224 9 13
12.410175 3.3880622 -0.67419189 16 6
12.572362 3.4276192 3.0084953 66 14
2.9945285 0.8152793 -0.05417227 0 7
12.590076 3.4253678 3.4961278 78 15
3.2179887 0.86587095 -0.89292574 6 0
3.7923799 1.0182925 -0.90655273 5 1
3.0017011 0.8048656 0.16286951 100 9
4.5645342 1.2230623 -0.91855454 2 2
3.004426 0.80391043 0.27210024 32 10
5.7023702 1.5236812 -0.93485248 2 3
12.52772 3.345082 1.5921013 13 11
9.1856766 2.4492691 -1.1672646 3 4
12.541265 3.3393147 2.0555491 57 12
11.55046 3.0733383 -1.0456946 7 5
12.705112 3.3758192 2.5553141 9 13
12.422519 3.296097 -0.67356384 15 6
12.588449 3.3377659 3.0066957 66 14
12.595589 3.3302495 3.4909515 78 15
3.2183485 0.84191734 -0.89137286 7 0
3.0085692 0.78591734 0.054276984 94 8
3.7975106 0.9913016 -0.9061029 6 1
3.0091796 0.78439397 0.16297418 86 9
4.5807691 1.1923459 -0.92008096 3 2
2.9945393 0.7789036 0.27070573 16 10
5.7109575 1.4833348 -0.93453962 2 3
12.539806 3.2523594 1.5906389 13 11
9.173728 2.3776104 -1.1636086 3 4
12.568095 3.2526748 2.056175 57 12
11.304023 2.9213181 -1.0214653 14 5
12.716964 3.2840993 2.5530245 9 13
12.445227 3.2092912 -0.67356384 15 6
12.608238 3.2466278 3.005796 72 14
3.0036833 0.77289116 -0.054137368 39 7
12.597949 3.2369463 3.4852574 74 15
3.2241478 0.8194285 -0.89137286 7 0
3.7986715 0.96332872 -0.90475315 4 1
3.0184543 0.76434886 0.16318353 78 9
4.5889807 1.1603392 -0.92008096 3 2
2.9941092 0.75651312 0.27018279 11 10
5.7020197 1.438599 -0.93141097 2 3
12.544882 3.1603713 1.5884452 10 11
9.2055025 2.3173892 -1.1655585 3 4
12.579002 3.1619642 2.0542977 57 12
11.25844 2.8258331 -1.0155387 13 5
12.731964 3.1933277 2.5514979 27 13
12.451831 3.1184413 -0.67272645 20 6
12.619251 3.1556962 3.0030966 71 14
3.0051258 0.75093299 -0.054067552 12 7
12.605244 3.1451817 3.4811163 77 15
3.2391675 0.7992152 -0.89396101 9 0
2.9978912 0.73857242 0.05389303 13 8
3.8015192 0.93585563 -0.9038533 5 1
3.0159593 0.74134898 0.16276483 78 9
4.6007833 1.1292099 -0.92084426 5 2
3.0031874 0.73654246 0.27053142 77 10
5.7215171 1.4011055 -0.93297523 2 3
9.2060299 2.2492969 -1.1636086 4 4
12.585418 3.0703237 2.0517945 57 12
11.177231 2.722651 -1.0064745 7 5
12.736782 3.1001792 2.5480635 9 13
12.446126 3.0248375 -0.67126101 16 6
12.622038 3.0629246 2.9985976 66 14
3.0122383 0.73040766 -0.054102462 14 7
12.621261 3.0557401 3.4795632 78 15
3.2352743 0.77433372 -0.89137286 6 0
3.0088091 0.71901953 0.053997744 12 8
3.8174379 0.91155452 -0.9061029 6 1
