# .PCD v0.7 - Point Cloud Data file format
VERSION 0.7
FIELDS x y z intensity ring
SIZE 4 4 4 4 2
TYPE F F F F U
COUNT 1 1 1 1 1
WIDTH 198
HEIGHT 1
VIEWPOINT 0 0 0 1 0 0 0
POINTS 198
DATA ascii
2.8675871 -0.50666511 -0.15261166 1 6
2.8168364 -0.51800269 -0.15009953 61 6
2.793534 -0.5339058 -0.14905281 8 6
2.7740657 -0.55028617 -0.14821544 9 6
2.7519891 -0.56440175 -0.24577919 2 5
2.783751 -0.57294118 -0.14894815 9 6
2.7757764 -0.59152871 -0.1487388 8 6
2.8296964 -0.6045683 -0.050507262 44 7
2.7126007 -0.5964039 -0.24299021 68 5
2.7793808 -0.61261225 -0.14915749 10 6
2.815644 -0.62215126 -0.05033274 65 7
2.7200284 -0.61797523 -0.24403608 69 5
2.7614048 -0.62889647 -0.14842479 53 6
2.8287778 -0.64579844 -0.050646886 74 7
2.7195275 -0.63785934 -0.24438471 69 5
2.7569468 -0.64815921 -0.14842479 8 6
2.7033887 -0.65401852 -0.24333882 69 5
2.7523549 -0.66739041 -0.14842479 9 6
2.7806227 -0.6757865 -0.049948789 9 7
2.8463209 -0.70175773 0.051170457 57 8
2.7495661 -0.68707317 -0.14852946 8 6
2.7855363 -0.69761127 -0.050123312 8 7
2.8258469 -0.71767372 0.050891217 70 8
2.6710265 -0.68431246 -0.33855307 6 4
2.6939936 -0.69169998 -0.24333882 9 5
2.7524395 -0.70824271 -0.14894815 10 6
2.7843454 -0.71852547 -0.050193124 8 7
2.8227026 -0.73788995 0.050926123 78 8
2.6681037 -0.70344901 -0.33879682 74 4
2.6890991 -0.71049058 -0.24333882 9 5
2.726064 -0.7222935 -0.14779675 8 6
2.823143 -0.75962842 0.051030833 71 8
2.6458843 -0.7173835 -0.33660313 76 4
2.689714 -0.73128325 -0.24386176 8 5
2.7248089 -0.74235731 -0.1480061 9 6
2.7759707 -0.75785756 -0.050228026 80 7
2.8235531 -0.78091812 0.051135551 72 8
2.8658977 -0.79424506 0.15585649 36 9
2.6446359 -0.73690319 -0.33709061 74 4
2.7330232 -0.76513094 -0.1487388 67 6
2.7629108 -0.77505845 -0.050088406 105 7
2.8141856 -0.79951811 0.051065743 74 8
2.889097 -0.82243568 0.15742657 8 9
2.6469288 -0.75799477 -0.33806559 78 4
2.6600904 -0.76327121 -0.24211864 65 5
2.7333734 -0.78584772 -0.14905281 13 6
2.7553723 -0.79425555 -0.0500535 85 7
2.7931774 -0.81466597 0.050786503 57 8
2.8812208 -0.84252781 0.1573219 9 9
2.6491904 -0.77869439 -0.33904055 76 4
2.7161872 -0.80199361 -0.14842479 10 6
2.7968547 -0.83750069 0.050961025 78 8
2.8657033 -0.85975212 0.15679854 64 9
2.6322865 -0.79373157 -0.33757812 83 4
2.6661987 -0.80598849 -0.24368747 8 5
2.7028759 -0.81862074 -0.1480061 10 6
2.7497549 -0.83439106 -0.050158214 8 7
2.8004978 -0.85994071 0.051135551 71 8
2.8462689 -0.87562662 0.15606584 90 9
2.9017036 -0.89434385 0.26565069 8 10
2.5821598 -0.79684329 -0.42800474 9 3
2.6681194 -0.82694161 -0.24438471 7 5
2.6970952 -0.83747029 -0.1480061 8 6
2.794426 -0.87947077 0.051135551 69 8
2.8362768 -0.89427465 0.15585649 89 9
2.8839903 -0.91097897 0.26460484 11 10
2.5859511 -0.81782883 -0.42956907 74 3
2.6133783 -0.82800847 -0.33660313 9 4
2.6472366 -0.84026134 -0.24299021 8 5
2.7045054 -0.86051798 -0.1487388 9 6
2.7454581 -0.87513161 -0.050297838 77 7
2.780762 -0.89601815 0.050995931 84 8
2.8491311 -0.91969502 0.15690321 78 9
2.866348 -0.92691022 0.26355895 6 10
2.5746865 -0.83358657 -0.4286305 47 3
2.626564 -0.85190213 -0.33904055 9 4
2.6319816 -0.85518265 -0.24211864 9 5
2.7280314 -0.89007735 -0.050088406 79 7
2.7651029 -0.91179425 0.050821409 74 8
2.8637557 -0.94765109 0.26390758 7 10
2.5539517 -0.8461225 -0.42612755 72 3
2.6073654 -0.86583889 -0.33733436 37 4
2.6353996 -0.87668079 -0.24299021 8 5
2.7076991 -0.90230656 -0.14957617 84 6
2.7255442 -0.91036773 -0.050158214 76 7
2.7605648 -0.93171525 0.050856311 40 8
2.8360124 -0.95938551 0.15690321 7 9
2.8625619 -0.97003758 0.26443052 7 10
2.5497022 -0.86501104 -0.42644039 80 3
2.605016 -0.88529795 -0.33782184 86 4
2.6518481 -0.90276271 -0.24508193 61 5
2.670929 -0.91133958 -0.14790143 75 6
2.7285836 -0.932607 -0.05033274 82 7
2.7632771 -0.95471048 0.051030833 8 8
2.814146 -0.97393537 0.15606584 8 9
2.8557203 -0.98999828 0.26443052 7 10
2.5491998 -0.88473314 -0.42737901 84 3
2.8914499 -1.0046467 0.37584507 50 11
2.58549 -0.89935112 -0.33611569 77 4
2.6359131 -0.91843796 -0.24421038 8 5
2.662616 -0.92930573 -0.14779675 28 6
2.7161775 -0.95012748 -0.050228026 79 7
2.7640865 -0.97664326 0.051170457 17 8
2.8127527 -0.99604803 0.15637985 10 9
2.8654628 -1.0164024 0.26599932 23 10
2.5465264 -0.90427399 -0.42800474 84 3
2.9161649 -1.036106 0.37998864 71 11
2.5922406 -0.92203581 -0.33782184 35 4
2.6181762 -0.93280542 -0.24316452 8 5
2.6709454 -0.95370811 -0.14863414 9 6
2.7019467 -0.96637303 -0.050088406 105 7
2.7457433 -0.99231935 0.050961025 77 8
2.8339474 -1.0275532 0.2637333 7 10
2.536438 -0.92068195 -0.42737901 81 3
2.9030788 -1.0549132 0.37925744 10 11
2.5837107 -0.93988311 -0.33757812 8 4
2.613306 -0.95219874 -0.24333882 8 5
2.6792321 -0.97780931 -0.14947151 11 6
2.7005963 -0.9877435 -0.050193124 85 7
2.7406247 -1.0121568 0.050995931 84 8
2.8058832 -1.0384845 0.15679854 48 9
2.8339944 -1.0505761 0.26443052 7 10
2.5186729 -0.93468493 -0.42550179 84 3
2.5845289 -0.96066427 -0.33855307 9 4
2.6065948 -0.9704197 -0.24333882 7 5
2.695508 -1.007273 -0.050228026 79 7
2.7299294 -1.029377 0.050926123 81 8
2.7970657 -1.0563651 0.15669388 9 9
2.8344183 -1.0721682 0.26512775 7 10
2.5216553 -0.95486635 -0.42706612 47 3
2.5725327 -0.97567248 -0.33782184 11 4
2.6036539 -0.98955536 -0.24368747 7 5
2.6580291 -1.0118145 -0.14905281 88 6
2.6943738 -1.027265 -0.05033274 82 7
2.7784419 -1.0715544 0.15606584 9 9
2.8268642 -1.0919298 0.26512775 7 10
2.5545518 -0.98930693 -0.33635944 10 4
2.6397312 -1.0260049 -0.14842479 83 6
2.6852732 -1.0453248 -0.050297838 101 7
2.7264574 -1.0717818 0.051135551 7 8
2.778327 -1.093852 0.15648453 9 9
2.8173189 -1.1109076 0.26495346 7 10
2.5623515 -1.0129551 -0.33830932 14 4
2.5766172 -1.0206751 -0.24246727 65 5
2.6399298 -1.0473547 -0.14884347 83 6
2.6704764 -1.0610921 -0.050158214 101 7
2.7263322 -1.0937681 0.051275171 9 8
2.7669163 -1.1117322 0.15627518 9 9
2.8168879 -1.1335241 0.26565069 23 10
2.5644219 -1.0345321 -0.33952799 97 4
2.5749705 -1.0408784 -0.24299021 67 5
2.6362562 -1.0672581 -0.14905281 73 6
2.7056751 -1.1074722 0.051030833 10 8
2.7775676 -1.1385972 0.1573219 9 9
2.8089058 -1.1531619 0.26565069 65 10
2.5718229 -1.0584538 -0.34147793 13 4
2.6176651 -1.0810622 -0.14842479 49 6
2.6664884 -1.1028602 -0.050367646 13 7
2.7015684 -1.1278751 0.051100649 34 8
2.7640233 -1.1556492 0.15700789 59 9
2.8044627 -1.1742824 0.26599932 52 10
2.5675328 -1.0798187 -0.24368747 9 5
2.6229389 -1.1047373 -0.14915749 86 6
2.7009883 -1.149841 0.051240265 73 8
2.7540507 -1.1741341 0.15690321 8 9
2.571111 -1.1019796 -0.24473332 7 5
2.6004806 -1.1167171 -0.14832011 89 6
2.6581779 -1.1431426 -0.050507262 77 7
2.7569861 -1.1976275 0.15753125 9 9
2.6019683 -1.1383948 -0.14884347 85 6
2.6464698 -1.1600667 -0.050437454 76 7
2.6921937 -1.1902064 0.051379886 10 8
2.7449055 -1.2152284 0.1573219 9 9
2.5976059 -1.1581587 -0.14905281 83 6
2.6330342 -1.1756078 -0.05033274 70 7
2.6674097 -1.2015803 0.051065743 10 8
2.7436373 -1.2376468 0.15774059 9 9
2.589457 -1.1762651 -0.14905281 83 6
2.6807656 -1.2301812 0.051484596 9 8
2.7385595 -1.2584387 0.15794992 9 9
2.572119 -1.1901205 -0.14852946 79 6
2.6236212 -1.2156188 -0.05047236 7 7
2.68117 -1.2530997 0.051659122 10 8
2.7224717 -1.2741402 0.15753125 74 9
2.5727816 -1.2123048 -0.14905281 49 6
2.616879 -1.2347586 -0.050507262 8 7
2.6813848 -1.2760837 0.051833645 15 8
2.7135103 -1.2931155 0.15753125 90 9
2.6063931 -1.2521318 -0.05047236 10 7
2.6634126 -1.2904125 0.051659122 42 8
2.715198 -1.3172584 0.15815927 69 9
2.6364043 -1.3001307 0.051310074 7 8
2.7041452 -1.3352973 0.15805461 20 9
2.5973816 -1.293309 -0.050646886 77 7
2.6362 -1.3229892 0.051484596 9 8
2.6337888 -1.3454583 0.05162422 9 8
2.6332033 -1.3684231 0.051798742 9 8
2.6094425 -1.379297 0.051519506 38 8
