# .PCD v0.7 - Point Cloud Data file format
VERSION 0.7
FIELDS x y z intensity ring
SIZE 4 4 4 4 2
TYPE F F F F U
COUNT 1 1 1 1 1
WIDTH 1259
HEIGHT 1
VIEWPOINT 0 0 0 1 0 0 0
POINTS 1259
DATA ascii
19.622248 -31.051321 3.2136066 34 10
2.8507805 -4.5147209 -0.84568483 13 3
19.585979 -31.041899 4.5067291 22 11
3.5253479 -5.5895 -0.8114062 6 4
19.533978 -30.995428 5.8027806 30 12
4.6993113 -7.4594927 -0.77132833 4 5
19.507788 -30.989832 7.117939 37 13
7.2375488 -11.506387 -0.7123971 3 6
19.465704 -30.958931 8.4428625 29 14
16.023222 -25.503635 -0.52573627 38 7
19.413218 -30.923338 9.7833605 30 15
1.7286463 -2.7696378 -0.87480837 29 0
18.721567 -30.007362 0.61736143 36 8
1.9897218 -3.1916523 -0.86831105 25 1
19.393959 -31.121368 1.9217765 33 9
2.3505032 -3.7747726 -0.8643648 16 2
19.336576 -31.077595 3.2022762 29 10
2.8314602 -4.5524726 -0.8491264 10 3
19.316603 -31.081764 4.4933233 22 11
3.4820514 -5.6072292 -0.81043118 6 4
19.26004 -31.026974 5.784009 30 12
4.6282163 -7.4616413 -0.76819068 5 5
19.228907 -31.025143 7.0950422 36 13
7.1664219 -11.567269 -0.71312982 3 6
19.18961 -30.997969 8.4167681 29 14
19.138273 -30.95125 9.7507496 33 15
1.7077304 -2.7780485 -0.87377316 18 0
18.44673 -30.031689 0.6151973 32 8
1.9587737 -3.190176 -0.86426198 28 1
19.109381 -31.147051 1.9150776 33 9
2.3251195 -3.7927637 -0.86474639 12 2
19.060043 -31.10317 3.1914687 34 10
2.7892938 -4.5552826 -0.84599775 10 3
19.031803 -31.105795 4.4774799 22 11
3.4448917 -5.634789 -0.81091869 6 4
18.979095 -31.056171 5.7646108 30 12
4.5801663 -7.5005722 -0.76888794 4 5
18.948444 -31.05472 7.0713816 36 13
7.060535 -11.576096 -0.71061772 1 6
18.913914 -31.034666 8.3906746 29 14
17.283926 -28.382408 -0.58004814 2 7
18.858444 -30.980141 9.7181377 33 15
1.6918073 -2.7968092 -0.87584364 22 0
18.178675 -30.06391 0.61324263 32 8
1.9328725 -3.1991069 -0.86291224 21 1
18.826138 -31.183823 1.9090065 33 9
2.3026421 -3.8156276 -0.86627293 13 2
18.780407 -31.144924 3.1818819 34 10
2.7484703 -4.5615892 -0.84349471 10 3
18.745558 -31.12397 4.4611497 21 11
3.3993289 -5.6484962 -0.80945623 5 4
18.703442 -31.103159 5.7483416 30 12
4.5194798 -7.5187044 -0.76749349 5 5
18.671539 -31.08695 7.0488663 36 13
6.9610724 -11.598922 -0.70894295 1 6
18.63464 -31.062346 8.3627806 28 14
16.963015 -28.298279 -0.57589447 22 7
18.581682 -31.023144 9.6896687 33 15
1.6752056 -2.8135321 -0.87739658 28 0
17.912983 -30.109015 0.61153233 34 8
1.9104912 -3.212523 -0.86291224 24 1
18.544718 -31.20804 1.9025168 33 9
2.2692657 -3.8218782 -0.86398321 12 2
18.507607 -31.182753 3.1724689 34 10
2.7165573 -4.5806661 -0.84349471 9 3
18.471762 -31.171925 4.4489627 23 11
3.3345203 -5.6293921 -0.80336279 19 4
18.429508 -31.137779 5.7308211 29 12
4.4587636 -7.5363541 -0.76609892 5 5
18.399107 -31.123592 7.0278773 36 13
6.8657064 -11.623162 -0.70747751 1 6
18.357882 -31.091002 8.3357868 28 14
16.58824 -28.116337 -0.56982106 18 7
18.31167 -31.062246 9.6617155 33 15
1.6496629 -2.8151579 -0.87429082 14 0
17.652037 -30.135345 0.60961252 34 8
1.8939233 -3.2358735 -0.86561167 28 1
18.281433 -31.247355 1.8972833 33 9
2.2431982 -3.8372359 -0.86398321 12 2
18.231174 -31.21142 3.1623588 33 10
2.6793392 -4.5888152 -0.84161752 10 3
18.203136 -31.200916 4.4353132 21 11
3.3071356 -5.6731133 -0.80628765 55 4
18.152483 -31.151564 5.7104845 32 12
4.4060416 -7.5672975 -0.76609892 4 5
18.130043 -31.16304 7.0080328 36 13
6.7844248 -11.666173 -0.70726818 1 6
18.08555 -31.124043 8.3105917 28 14
16.398577 -28.243561 -0.57006538 21 7
18.043571 -31.089258 9.6316919 32 15
1.632393 -2.8296683 -0.87532604 19 0
17.388294 -30.166025 0.60776258 34 8
1.8776913 -3.2588208 -0.86831105 28 1
18.013018 -31.287674 1.8920496 33 9
2.2183123 -3.8562064 -0.86474639 15 2
17.964674 -31.241518 3.1529462 33 10
2.6393652 -4.5937066 -0.83911461 13 3
17.939405 -31.248043 4.4241014 21 11
3.256587 -5.6748323 -0.80336279 42 4
17.879541 -31.181568 5.6929636 32 12
4.3385782 -7.5694561 -0.76330996 5 5
17.85994 -31.185207 6.9855175 36 13
6.7186866 -11.740987 -0.70894295 3 6
17.826834 -31.165234 8.2889967 28 14
16.22381 -28.38578 -0.57069367 21 7
17.771479 -31.118847 9.6021872 32 15
1.6106915 -2.8376355 -0.87429082 24 0
17.126308 -30.184547 0.60577303 31 8
1.8452842 -3.2548974 -0.86381203 24 1
17.746458 -31.315729 1.8863975 33 9
2.1881435 -3.8643827 -0.86321992 13 2
17.691187 -31.269068 3.1431847 33 10
2.5905321 -4.580615 -0.83348292 11 3
17.665747 -31.26228 4.4089894 21 11
3.2159142 -5.6956997 -0.803119 43 4
17.618336 -31.216526 5.67732 32 12
4.2836704 -7.5960898 -0.76296139 5 5
17.586857 -31.211639 6.9637656 36 13
6.6150889 -11.744683 -0.70643085 3 6
17.55913 -31.200619 8.2656021 28 14
15.964478 -28.390284 -0.56852955 23 7
17.500559 -31.134682 9.5700932 32 15
1.5941653 -2.8535926 -0.87584364 22 0
16.869356 -30.221308 0.60413247 7 8
1.8173888 -3.2571719 -0.86111259 20 1
17.470995 -31.337675 1.8803264 33 9
2.1697111 -3.8950007 -0.86665452 15 2
17.435287 -31.31217 3.135515 33 10
2.5623322 -4.605494 -0.83473444 11 3
17.394981 -31.291159 4.3958278 23 11
3.1944261 -5.7486916 -0.80750632 7 4
17.356827 -31.261053 5.6632414 29 12
4.2228041 -7.6118722 -0.76156688 5 5
17.326395 -31.244778 6.944684 34 13
6.5348711 -11.794072 -0.70664018 1 6
17.305956 -31.259361 8.2489548 21 14
15.656608 -28.291832 -0.56441081 21 7
17.382799 -31.436993 9.6254807 14 15
1.5797874 -2.8748105 -0.87894952 16 0
15.764814 -28.711697 0.57174087 6 8
1.7946056 -3.2697799 -0.86111259 21 1
15.760363 -28.739241 1.7177709 26 9
2.1386924 -3.9031663 -0.86512804 15 2
17.16267 -31.335272 3.1257536 28 10
2.5263243 -4.6163378 -0.83348292 10 3
17.147535 -31.359579 4.3885155 19 11
3.1437418 -5.7516918 -0.80482519 6 4
17.238525 -31.565231 5.6964054 13 12
4.1771951 -7.655159 -0.76296139 5 5
17.283642 -31.687281 7.016047 12 13
6.4428163 -11.821869 -0.70559341 1 6
17.380871 -31.918524 8.3906746 9 14
15.397532 -28.288038 -0.56217694 18 7
17.485949 -32.151566 9.806654 11 15
1.5504935 -2.8687744 -0.87377316 21 0
15.377753 -28.476185 0.56489944 19 8
1.7791399 -3.2959478 -0.86471182 21 1
15.450313 -28.646412 1.7057338 22 9
2.1048715 -3.9059041 -0.86245668 12 2
17.145697 -31.829699 3.1630559 8 10
2.4921625 -4.6303844 -0.83285719 10 3
17.217766 -32.01701 4.4635873 7 11
3.1082113 -5.7822413 -0.80604392 9 4
17.314968 -32.238213 5.795898 10 12
4.1123457 -7.6630673 -0.76086962 5 5
17.384962 -32.409229 7.1488504 12 13
6.3544674 -11.855997 -0.70496535 1 6
17.473166 -32.62833 8.5449905 6 14
15.180795 -28.359585 -0.56147879 18 7
17.560823 -32.833309 9.9769564 12 15
1.5322416 -2.8829405 -0.87480837 15 0
15.108237 -28.450392 0.56228167 22 8
1.7579143 -3.3117306 -0.86561167 21 1
15.271468 -28.794157 1.7081411 19 9
2.0711172 -3.90836 -0.85978532 11 2
17.22896 -32.526112 3.2202303 8 10
2.4505358 -4.6302099 -0.82972854 10 3
17.288921 -32.694469 4.5410957 7 11
3.0575635 -5.7844949 -0.80336279 22 4
17.395752 -32.938221 5.8997698 10 12
4.0513086 -7.6774936 -0.75947517 5 5
17.461456 -33.104591 7.275166 9 13
6.26968 -11.896538 -0.70475608 1 6
17.558203 -33.344398 8.7002068 7 14
14.807337 -28.132198 -0.55491674 17 7
17.682766 -33.623646 10.179354 8 15
1.5084987 -2.8867188 -0.87273788 29 0
15.012909 -28.753704 0.56619096 9 8
1.730243 -3.3152845 -0.86336219 16 1
15.192902 -29.135609 1.7220626 22 9
2.0510387 -3.9366534 -0.86283833 16 2
17.315287 -33.24818 3.2796705 9 10
2.4072092 -4.6261773 -0.82597405 10 3
17.380743 -33.43082 4.6264043 10 11
3.0225985 -5.816268 -0.80482519 25 4
17.517664 -33.737328 6.0208507 7 12
3.9939415 -7.6985149 -0.75877786 5 5
6.1736116 -11.915191 -0.70329064 3 6
17.658264 -34.109943 8.8675709 10 14
14.578411 -28.172728 -0.55369508 20 7
17.75281 -34.336597 10.357421 8 15
1.4918401 -2.904053 -0.87480837 22 0
14.789893 -28.815113 0.56535327 26 8
1.7026079 -3.3186135 -0.86111259 18 1
2.0208211 -3.9456339 -0.8616935 13 2
17.405975 -33.999622 3.3417256 9 10
2.3766534 -4.6463871 -0.82659984 12 3
14.378089 -28.133568 3.8793452 14 11
2.9828229 -5.8389959 -0.80506897 27 4
17.574465 -34.432384 6.1228461 7 12
3.9491501 -7.7439594 -0.76052105 6 5
17.725983 -34.774193 7.5869474 3 13
6.0975285 -11.972238 -0.70412803 1 6
17.737875 -34.857639 9.0295353 7 14
14.43396 -28.377193 -0.55571949 15 7
17.859261 -35.141693 10.562406 4 15
1.470659 -2.912673 -0.87429082 20 0
14.804529 -29.346155 0.57373041 3 8
1.6811534 -3.333899 -0.86201245 18 1
1.9852813 -3.9438629 -0.8582589 17 2
2.3406086 -4.6558061 -0.82534832 12 3
2.9535661 -5.88274 -0.80823755 12 4
1.7493087 -3.4872053 0.61791623 2 12
3.890528 -7.7624345 -0.75964946 1 5
1.7508283 -3.4948001 0.75980145 7 13
1.7441791 -3.4876049 0.90025413 8 14
1.7436535 -3.4911218 1.0456289 26 15
1.4434198 -2.9090245 -0.87014967 19 0
1.743531 -3.5169423 0.068518147 18 8
1.6656247 -3.3612695 -0.86606157 15 1
1.7377945 -3.5099888 0.20526163 16 9
1.9524772 -3.9470682 -0.85596919 16 2
1.7299581 -3.4987664 0.3414762 10 10
1.7480974 -3.5385604 -0.62511224 10 3
1.7326096 -3.5102956 0.48065275 11 11
1.7381455 -3.5230591 -0.4823589 12 4
1.7144401 -3.478071 0.61416179 12 12
1.7306218 -3.5139911 -0.34269637 15 5
1.7255206 -3.5051763 0.75941986 12 13
1.7294813 -3.5163188 -0.20536631 14 6
1.7137725 -3.4874535 0.8971048 9 14
1.7235756 -3.50895 -0.068238907 15 7
1.711579 -3.4876015 1.0409703 42 15
1.4196895 -2.9120846 -0.86807907 20 0
1.7145574 -3.5200398 0.068343624 13 8
1.6404121 -3.3693116 -0.86516178 12 1
1.7132484 -3.5220351 0.20526163 16 9
1.7154806 -3.5297568 -0.7628544 11 2
1.7002667 -3.5000052 0.34043032 13 10
1.7130004 -3.5293527 -0.62135774 10 3
1.7054627 -3.516947 0.47992152 11 11
1.71091 -3.5297489 -0.48162767 12 4
1.6866734 -3.4828436 0.61291033 12 12
1.6965017 -3.506259 -0.34077895 15 5
1.6924604 -3.4994631 0.75560367 12 13
1.7031525 -3.5247102 -0.20515697 11 6
1.6893842 -3.4993327 0.8971048 9 14
1.6972988 -3.5172954 -0.068169102 14 7
1.6754431 -3.4751031 1.0337234 33 15
1.4034972 -2.9306364 -0.87066728 16 0
1.6804471 -3.5120819 0.067959674 13 8
1.6160098 -3.3789232 -0.86471182 13 1
1.6860349 -3.5285039 0.20494762 17 9
1.6907969 -3.541647 -0.7628544 11 2
1.6689261 -3.4974051 0.33903584 14 10
1.6832186 -3.5305274 -0.61948055 11 3
1.671478 -3.5090539 0.47724038 11 11
1.686226 -3.5416074 -0.48162767 12 4
1.6614689 -3.4927502 0.61259741 12 12
1.6719825 -3.5180171 -0.34077895 15 5
1.661249 -3.4970067 0.75255072 12 13
1.6725092 -3.5238843 -0.20442426 13 6
1.6649131 -3.5110416 0.8971048 9 14
1.6692761 -3.5218313 -0.068029478 16 7
1.6486619 -3.481477 1.0321704 7 15
1.3797144 -2.9333708 -0.86859673 18 0
1.6499337 -3.511059 0.067715339 15 8
1.5865816 -3.3777759 -0.86156255 16 1
1.6579661 -3.5329564 0.20452894 17 9
1.6593634 -3.5391438 -0.75980145 11 2
1.6444691 -3.5089712 0.33903584 14 10
1.6551797 -3.5350361 -0.61822909 11 3
1.6368463 -3.4990604 0.47431552 12 11
1.6513703 -3.5317142 -0.47870281 12 4
1.6353726 -3.5006845 0.61197168 12 12
1.6454686 -3.5239007 -0.34025604 14 5
1.6326448 -3.4996235 0.75064266 12 13
1.6402738 -3.5191822 -0.20348223 14 6
1.6311002 -3.5010958 0.89170599 9 14
1.6404299 -3.5243344 -0.067854956 17 7
1.6194288 -3.4823918 1.0290645 10 15
1.360822 -2.9464393 -0.86963201 16 0
1.6243205 -3.5185769 0.067645527 14 8
1.5613292 -3.3852308 -0.86066276 19 1
1.6238461 -3.5223944 0.20327288 18 9
1.6286641 -3.5360913 -0.7567485 11 2
1.6199317 -3.5203662 0.33903584 13 10
1.6261268 -3.5354524 -0.6163519 11 3
1.6096755 -3.5029061 0.47334057 11 11
1.6217049 -3.5323322 -0.47724038 12 4
1.6040915 -3.4955771 0.60915589 12 12
1.6216582 -3.5371132 -0.34043032 16 5
1.6040856 -3.5020115 0.74873453 12 13
1.6171128 -3.5320814 -0.20358689 15 6
1.5968913 -3.4911315 0.88630718 9 14
1.6116298 -3.5266068 -0.067680433 21 7
1.5988983 -3.5003631 1.0311351 25 15
1.339937 -2.9538743 -0.8691144 19 0
1.5964153 -3.5225456 0.067505911 18 8
1.5430756 -3.4064307 -0.86336219 13 1
1.5983919 -3.5318253 0.2031682 19 9
1.5974672 -3.5330644 -0.75369561 11 2
1.5901884 -3.5186019 0.33781564 15 10
1.6005921 -3.5449188 -0.61603898 12 3
1.5892632 -3.5231056 0.47455928 13 11
1.5959916 -3.5396698 -0.47675291 13 4
1.5853279 -3.5192981 0.61134595 11 12
1.5830245 -3.5174618 -0.33746704 15 5
1.5906812 -3.5361247 0.75369561 11 13
1.5924156 -3.5432844 -0.20358689 16 6
1.5852511 -3.5306389 0.89350557 8 14
1.5810374 -3.5228999 -0.067401193 21 7
1.5752126 -3.5132031 1.0316528 11 15
1.3153535 -2.9543326 -0.86652619 16 0
1.5807246 -3.5537026 0.067889862 15 8
1.5184649 -3.4153395 -0.86291224 11 1
1.5858582 -3.5702772 0.20473827 21 9
1.5695779 -3.5369525 -0.75216907 11 2
1.5712401 -3.5423667 0.33903584 13 10
1.5846088 -3.5758724 -0.61948055 11 3
1.5742722 -3.5558968 0.47748414 11 11
1.5824879 -3.5761397 -0.48016527 12 4
1.561519 -3.5320861 0.61165881 12 12
1.571309 -3.5575881 -0.34025604 14 5
1.5627844 -3.5399592 0.75216907 12 13
1.5756999 -3.5725894 -0.20463361 15 6
1.5613497 -3.5434036 0.89395547 9 14
1.5676889 -3.5594723 -0.067889862 16 7
1.5490912 -3.5205777 1.0306175 11 15
1.2954701 -2.9652135 -0.86704385 14 0
1.550277 -3.5518224 0.067645527 15 8
1.4938051 -3.4240711 -0.86246234 13 1
1.5585006 -3.5757687 0.20442426 15 9
1.544847 -3.5478239 -0.75216907 11 2
1.5448821 -3.5495954 0.33868721 13 10
1.5548797 -3.5759783 -0.61760336 10 3
1.5438726 -3.5540555 0.47577798 12 11
1.5566924 -3.5852795 -0.47992152 11 4
1.530534 -3.528404 0.60915589 12 12
1.542302 -3.5572333 -0.33921015 15 5
1.5341312 -3.5417757 0.75026101 12 13
1.5467541 -3.574338 -0.20411025 15 6
1.5364211 -3.5521603 0.89350557 9 14
1.5364552 -3.5556448 -0.067610621 17 7
1.5214125 -3.5242124 1.0285469 11 15
1.2770211 -2.9795122 -0.86859673 15 0
1.5237023 -3.5567782 0.06754081 13 8
1.4652641 -3.423667 -0.85976297 13 1
1.5262698 -3.5679312 0.20337754 16 9
1.5206623 -3.5582571 -0.75216907 11 2
1.5177165 -3.5547972 0.33816427 15 10
1.5289526 -3.5828454 -0.61697763 10 3
1.5118605 -3.5462213 0.47334057 12 11
1.5207344 -3.5704911 -0.47650915 10 4
1.5111243 -3.5496449 0.61103308 12 12
1.5158707 -3.5642469 -0.33886153 13 5
1.506297 -3.545172 0.74873453 12 13
1.5138011 -3.5645616 -0.20295887 13 6
1.5039737 -3.5448604 0.88900656 9 14
1.5147163 -3.5736494 -0.067750245 19 7
1.4936211 -3.5255926 1.0259588 11 15
1.2574599 -2.9899163 -0.8691144 14 0
1.4965107 -3.5617979 0.067436099 17 8
1.4404167 -3.4299676 -0.85886312 13 1
1.4935974 -3.5600822 0.20233083 20 9
1.4866772 -3.5470588 -0.74758971 11 2
1.4904058 -3.5576949 0.33746704 15 10
1.496276 -3.5752099 -0.61384892 10 3
1.4855348 -3.5530264 0.47285309 11 11
1.4940996 -3.5752649 -0.47577798 12 4
1.4817401 -3.549171 0.60915589 9 12
1.4923421 -3.5763209 -0.33903584 15 5
1.4806204 -3.5517182 0.7479713 11 13
1.4904146 -3.5787306 -0.2031682 15 6
1.4715724 -3.5352254 0.88405764 8 14
1.4811426 -3.5617201 -0.067331389 16 7
1.4682307 -3.5341496 1.0254411 11 15
1.2350825 -2.9950504 -0.86807907 14 0
1.4653735 -3.5552628 0.067121953 12 8
1.4156948 -3.4381378 -0.85841322 12 1
1.4662895 -3.5627787 0.20191215 16 9
1.4580193 -3.5462015 -0.74529999 11 2
1.4572051 -3.5477402 0.33554959 9 10
1.473406 -3.5889666 -0.61447465 9 3
1.4575498 -3.5538726 0.47163439 10 11
1.4608245 -3.5654027 -0.47309685 10 4
1.4463185 -3.5317538 0.6044628 10 12
1.4605486 -3.5700562 -0.33746704 11 5
1.4505894 -3.549247 0.74529999 11 13
1.4592232 -3.5721519 -0.20222615 12 6
1.4468564 -3.5454125 0.88405764 8 14
1.4426525 -3.5386426 -0.066703096 9 7
1.4361216 -3.5243826 1.0197471 10 15
1.2095971 -2.9908516 -0.86445564 21 0
1.4367723 -3.5561359 0.06694743 12 8
1.3886105 -3.4386599 -0.85616374 13 1
1.4361508 -3.5599627 0.20117943 13 9
1.4310259 -3.5508306 -0.74415511 12 2
1.4240896 -3.5353999 0.33345786 9 10
1.4424154 -3.5845048 -0.61197168 9 3
1.428261 -3.5529106 0.47017199 10 11
1.436638 -3.5773563 -0.47334057 10 4
1.4142686 -3.523433 0.60133415 10 12
1.4259496 -3.5561252 -0.335201 11 5
1.4192053 -3.5428855 0.7418654 12 13
1.4305375 -3.5729811 -0.20170279 13 6
1.4148324 -3.5373333 0.87955862 8 14
1.4245906 -3.5653403 -0.067017242 19 7
1.4057503 -3.5199699 1.015606 11 15
1.19101 -3.0066147 -0.86652619 18 0
1.4030771 -3.5437684 0.066528574 17 8
1.3675526 -3.4575691 -0.85841322 12 1
1.4091717 -3.5664334 0.20097008 21 9
1.4083649 -3.5662127 -0.74529999 11 2
1.3965608 -3.5399399 0.33293492 15 10
1.4022428 -3.5579789 -0.60571432 10 3
1.3946918 -3.5406318 0.4672471 12 11
1.4058136 -3.5725207 -0.47139066 11 4
1.3868513 -3.5279477 0.60039556 11 12
1.3930742 -3.5455949 -0.33328354 14 5
1.3901334 -3.5417418 0.73957568 12 13
1.4027464 -3.577548 -0.20138879 17 6
1.3908142 -3.5489388 0.88000852 9 14
1.3901892 -3.5509915 -0.06656348 18 7
1.378415 -3.5245414 1.0140531 12 15
1.1706901 -3.0166569 -0.86704385 14 0
1.377683 -3.5537176 0.066528574 18 8
1.3370441 -3.4506781 -0.8543641 14 1
1.3777508 -3.5594208 0.20002805 19 9
1.3799775 -3.5688751 -0.74377352 11 2
1.3696594 -3.544028 0.332412 13 10
1.3745234 -3.5603099 -0.6044628 10 3
1.3650346 -3.5394084 0.46578467 11 11
1.3751265 -3.5674303 -0.46944076 12 4
1.3614783 -3.5357001 0.6000827 12 12
1.3668565 -3.5515151 -0.33293492 14 5
1.3646688 -3.5495276 0.7391941 12 13
1.3734398 -3.5760672 -0.20076075 17 6
1.3604171 -3.5440073 0.87640929 9 14
1.3675126 -3.5662117 -0.06666819 18 7
1.3551576 -3.5376868 1.0150883 12 15
1.1496017 -3.0247564 -0.86704385 14 0
1.3527515 -3.5611434 0.066493668 18 8
1.3156872 -3.4672163 -0.85616374 13 1
1.349241 -3.5575116 0.19940001 22 9
1.3514799 -3.5671699 -0.74148381 11 2
1.3469998 -3.5590937 0.33293492 16 10
1.351655 -3.5732791 -0.60508859 11 3
1.3395079 -3.5449035 0.46529719 16 11
1.3508886 -3.5788007 -0.46968448 13 4
1.3345909 -3.5374925 0.59883118 16 12
1.3434342 -3.5646999 -0.33328354 14 5
1.3357054 -3.5479443 0.73690438 15 13
1.3476601 -3.5815942 -0.20055141 20 6
1.3308426 -3.5406497 0.87326002 10 14
1.3383648 -3.5644395 -0.066458762 24 7
1.3296888 -3.5432117 1.0140531 13 15
1.1296599 -3.0343223 -0.86756152 15 0
1.3257664 -3.5648777 0.066388957 42 8
1.2920561 -3.4760916 -0.85616374 13 1
1.3257627 -3.5705891 0.19960935 53 9
1.3217643 -3.563633 -0.73881245 12 2
1.3220503 -3.5663116 0.3327606 30 10
1.3273623 -3.5844803 -0.60540146 12 3
1.3161045 -3.5578926 0.46578467 23 11
1.3203022 -3.5711555 -0.46749085 14 4
1.3078095 -3.5411644 0.59789258 16 12
1.3123088 -3.5571687 -0.33171475 22 5
1.3142409 -3.564322 0.73843086 14 13
1.3219327 -3.589041 -0.20044672 35 6
1.3087838 -3.5571697 0.8750596 10 14
1.314762 -3.5753436 -0.066493668 43 7
1.3042539 -3.550595 1.0135354 15 15
1.1024972 -3.0257983 -0.8629027 19 0
1.3028984 -3.5796838 0.066493668 47 8
1.2677574 -3.4850268 -0.85616374 13 1
1.3021673 -3.5835116 0.1998187 46 9
1.295514 -3.5690827 -0.73804927 12 2
1.2923642 -3.5623436 0.33154044 21 10
1.3009596 -3.5899456 -0.60477573 12 3
1.2939365 -3.57446 0.46675962 22 11
1.2987156 -3.5896192 -0.46870953 18 4
1.2864126 -3.5594974 0.59945697 17 12
1.2908257 -3.5756137 -0.33258632 24 5
1.2879932 -3.5697165 0.73766762 14 13
1.2968442 -3.5981822 -0.20044672 33 6
1.2852389 -3.5698872 0.87595946 11 14
1.2850301 -3.571264 -0.066249333 43 7
1.2742077 -3.5450697 1.0093943 13 15
1.0826435 -3.0370607 -0.86393797 15 0
1.2745217 -3.5792735 0.066319145 45 8
1.2433968 -3.4937925 -0.85616374 13 1
1.278456 -3.5962791 0.20002805 39 9
1.2705656 -3.5780404 -0.73804927 13 2
1.2701286 -3.5787902 0.33223769 15 10
1.2752056 -3.5970783 -0.6044628 14 3
1.2749146 -3.6002474 0.46895328 15 11
1.2756104 -3.6042125 -0.46944076 14 4
1.2635065 -3.5739784 0.60039556 12 12
1.2664578 -3.5843172 -0.33258632 23 5
1.2597735 -3.569365 0.7357595 12 13
1.2650523 -3.5883119 -0.19940001 17 6
1.2628524 -3.5840666 0.87730908 9 14
1.2627221 -3.5876932 -0.066388957 20 7
1.2494274 -3.553879 1.0093943 13 15
1.0639584 -3.0518417 -0.86600858 13 0
1.2428917 -3.5670938 0.065935194 16 8
1.2125697 -3.4839833 -0.85166472 13 1
1.2500106 -3.5935795 0.19940001 19 9
1.2448927 -3.5828965 -0.73728597 12 2
1.2444596 -3.5856876 0.33206338 11 10
1.2468079 -3.5944774 -0.60258561 11 3
1.2380311 -3.5732038 0.46432224 12 11
1.2458732 -3.5998988 -0.46773461 13 4
1.2404418 -3.5862298 0.60102129 11 12
1.243356 -3.5987208 -0.33310926 18 5
1.2348243 -3.5780728 0.7357595 12 13
1.2373419 -3.5873992 -0.19887665 16 6
1.233992 -3.5817409 0.87460971 9 14
1.2389464 -3.6002028 -0.066458762 21 7
1.2252079 -3.5623012 1.0093943 12 15
1.0444078 -3.06267 -0.86704385 15 0
1.2256958 -3.5983987 0.066354051 18 8
1.1976194 -3.517983 -0.85796332 13 1
1.2197483 -3.5870912 0.19856264 19 9
1.2173237 -3.5840645 -0.7357595 12 2
1.2174624 -3.5865285 0.33136615 14 10
1.2229519 -3.6068356 -0.60321134 11 3
1.2130554 -3.5817597 0.46432224 12 11
1.2187951 -3.6007743 -0.46675962 12 4
1.2103134 -3.5798316 0.59851831 12 12
1.2150046 -3.5957751 -0.33206338 20 5
1.2104405 -3.5863948 0.7357595 12 13
1.2103537 -3.5902722 -0.19856264 17 6
1.2039833 -3.5734365 0.87056059 8 14
1.2093093 -3.5933909 -0.066179529 20 7
1.1996934 -3.5689368 1.0088767 11 15
1.0187258 -3.0570574 -0.86342037 15 0
1.1973827 -3.5952747 0.066144623 14 8
1.172415 -3.5244093 -0.85751343 13 1
1.1965641 -3.5991011 0.19877198 12 9
1.190425 -3.5848145 -0.73423308 12 2
1.1886307 -3.5835943 0.33032027 9 10
1.1958867 -3.6075761 -0.60195988 10 3
1.1873994 -3.5861647 0.46383476 12 11
1.1942506 -3.6110799 -0.46700338 11 4
1.1778597 -3.5636044 0.59445107 10 12
1.1892475 -3.6022778 -0.33188906 15 5
1.184144 -3.5910289 0.73499632 12 13
1.1833864 -3.5908401 -0.19814396 12 6
1.1808345 -3.5873079 0.87191027 9 14
1.1773237 -3.5808494 -0.065795571 13 7
1.1687388 -3.5568318 1.0031826 11 15
0.99490237 -3.0547364 -0.86083221 16 0
1.1666869 -3.586432 0.065830477 13 8
1.1477958 -3.5304544 -0.85706353 12 1
1.1664735 -3.5921698 0.1979346 13 9
1.1611292 -3.5799654 -0.73156172 11 2
1.1568385 -3.5688584 0.32822853 9 10
1.1670213 -3.6045611 -0.6000827 9 3
1.1598911 -3.5868115 0.46285981 10 11
1.1659806 -3.6077917 -0.46554092 11 4
1.1493113 -3.5604613 0.59257382 10 12
1.1542883 -3.5801523 -0.32910007 13 5
1.1536521 -3.5803194 0.73118013 12 13
1.1564536 -3.5933104 -0.19782993 12 6
1.1515875 -3.5824776 0.868761 8 14
1.1516992 -3.5849724 -0.065725766 15 7
1.1415185 -3.5575464 1.0011121 11 15
0.97413754 -3.0634487 -0.86134982 19 0
1.1343566 -3.571619 0.06541162 14 8
1.1195831 -3.5272369 -0.8543641 12 1
1.1377461 -3.5888028 0.19730657 14 9
1.1372935 -3.591728 -0.73232496 11 2
1.1294909 -3.5692489 0.32753128 12 10
1.1382562 -3.6013191 -0.59820545 10 3
1.1294448 -3.5777845 0.46066615 13 11
1.1365844 -3.6025922 -0.46383476 12 4
1.1238331 -3.5665145 0.59226096 13 12
1.1274716 -3.5824218 -0.32857716 17 5
1.1239161 -3.5733039 0.72812718 13 13
1.1301427 -3.5974853 -0.1976206 18 6
1.1218817 -3.5755551 0.86516178 10 14
1.1236521 -3.583385 -0.065551244 22 7
1.1137675 -3.556211 0.99852395 13 15
0.95100927 -3.0646396 -0.85979694 16 0
1.1117628 -3.5870914 0.065551244 20 8
1.0897419 -3.5182137 -0.85031497 13 1
1.110893 -3.590934 0.19699256 22 9
1.1116116 -3.5977042 -0.73194337 13 2
1.102194 -3.5694327 0.32683402 14 10
1.1090119 -3.5959644 -0.59601539 12 3
1.1015178 -3.576097 0.45944747 14 11
1.1084862 -3.6009531 -0.46261609 14 4
1.0983269 -3.5723848 0.59194809 14 12
1.1024342 -3.5902059 -0.32857716 19 5
1.0995191 -3.5829396 0.72850877 14 13
1.0991472 -3.5861919 -0.19657388 18 6
1.0963223 -3.5814364 0.86471182 10 14
1.1021179 -3.6026154 -0.065760665 27 7
1.0872197 -3.5583575 0.99697101 13 15
0.9312706 -3.076751 -0.86134982 19 0
1.0832212 -3.5832808 0.065341808 20 8
1.0674087 -3.5331974 -0.85211456 10 1
1.0794506 -3.5775685 0.19584116 21 9
1.0842023 -3.5978577 -0.73041683 12 2
1.0778226 -3.578948 0.32700834 15 10
1.0833113 -3.6017275 -0.59570253 12 3
1.0753829 -3.5798974 0.45896 17 11
1.0793242 -3.5952947 -0.46090987 13 4
1.0705237 -3.5705047 0.59038377 15 12
1.0750568 -3.5901802 -0.32787988 18 5
1.069976 -3.5754819 0.72545588 13 13
1.075228 -3.5976052 -0.19678321 19 6
1.0662764 -3.572197 0.86066276 10 14
1.0695089 -3.5853105 -0.065306902 22 7
1.0640064 -3.5714149 0.99852395 15 15
0.90976804 -3.0831776 -0.86134982 20 0
1.0604398 -3.5984278 0.065481432 35 8
1.0443679 -3.5461712 -0.85346431 12 1
1.0550117 -3.5869336 0.19594584 38 9
1.0579516 -3.601572 -0.7296536 13 2
1.0533718 -3.5882974 0.32718265 24 10
1.0586963 -3.6110981 -0.59601539 12 3
1.0503644 -3.5873177 0.45896 20 11
1.0530835 -3.598932 -0.4604224 17 4
1.0439085 -3.5722029 0.58944511 17 12
1.0516418 -3.6033354 -0.32840282 25 5
1.0455379 -3.5847492 0.72583747 14 13
1.049527 -3.6031063 -0.19667853 29 6
1.044578 -3.590781 0.86336219 10 14
1.0427779 -3.5869291 -0.065202191 32 7
1.0379704 -3.5750456 0.99748862 15 15
0.88341719 -3.0727439 -0.85669106 18 0
1.0347409 -3.6038218 0.065446526 32 8
1.0217354 -3.560869 -0.85526395 11 1
1.0299444 -3.5942116 0.19594584 33 9
1.0306219 -3.60132 -0.72812718 12 2
1.0266516 -3.589817 0.32665971 20 10
1.0345453 -3.6222 -0.59664112 12 3
1.0291064 -3.6079257 0.46066615 20 11
1.0306535 -3.6157413 -0.4616411 17 4
1.0227306 -3.5927029 0.59163523 17 12
1.0242809 -3.6029241 -0.32770559 24 5
1.0215594 -3.5957382 0.72660065 13 13
1.0248932 -3.612267 -0.19678321 22 6
1.0232028 -3.6111107 0.86651146 10 14
1.0204359 -3.6037416 -0.065376714 30 7
1.0108839 -3.574769 0.99541807 13 15
0.86298543 -3.082557 -0.85772634 21 0
1.006326 -3.5994022 0.065237097 32 8
0.99265599 -3.5529001 -0.85166472 11 1
1.0080485 -3.6128569 0.19657388 31 9
1.0054547 -3.6084273 -0.72812718 12 2
1.0021002 -3.5988162 0.32683402 17 10
1.007116 -3.6217215 -0.59538966 12 3
1.0038936 -3.6150222 0.46066615 20 11
1.0075095 -3.6304998 -0.46261609 15 4
0.9992066 -3.6054664 0.59257382 18 12
0.99973315 -3.6098125 -0.32770559 23 5
0.99695528 -3.6046746 0.7269823 14 13
1.001245 -3.6251094 -0.19709724 25 6
0.99963641 -3.6217487 0.86741126 10 14
0.996315 -3.6146336 -0.065446526 26 7
0.98897892 -3.5929146 0.99852395 13 15
0.8424601 -3.0922344 -0.85876161 23 0
0.98285294 -3.6100278 0.065306902 21 8
0.96220434 -3.5390582 -0.84671575 11 1
0.98290956 -3.6177073 0.1964692 26 9
0.97881329 -3.6076088 -0.72660065 13 2
0.9790355 -3.6134164 0.32753128 15 10
0.98244029 -3.6284931 -0.59538966 12 3
0.97667354 -3.6121905 0.45944747 19 11
0.9800694 -3.6297791 -0.4616411 15 4
0.97258347 -3.6045558 0.59132236 13 12
0.97398919 -3.6147797 -0.32753128 19 5
0.9676851 -3.59638 0.72392935 13 13
0.97084212 -3.6106243 -0.19594584 19 6
0.96977931 -3.6117003 0.86336219 10 14
0.97105581 -3.621501 -0.065446526 22 7
0.96350014 -3.5958309 0.99748862 13 15
0.82089728 -3.0960302 -0.858244 24 0
0.95865035 -3.6206675 0.065376714 21 8
0.93809235 -3.5455258 -0.84671575 11 1
0.9555884 -3.6167572 0.19605052 26 9
0.95160061 -3.606761 -0.72507423 13 2
0.95340121 -3.6161437 0.32718265 15 10
0.9580909 -3.6390834 -0.59601539 12 3
0.94991767 -3.6131608 0.45871624 18 11
0.95180911 -3.6229267 -0.45993495 14 4
0.94839859 -3.6150789 0.59194809 13 12
0.95226389 -3.6349828 -0.32875144 22 5
0.94417715 -3.6066818 0.72469258 12 13
0.94611663 -3.6192465 -0.19605052 19 6
0.94158852 -3.6070693 0.86066276 10 14
0.9413355 -3.6086771 -0.065097481 20 7
0.93593818 -3.5931225 0.99490041 13 15
0.79588914 -3.0885899 -0.85462052 23 0
0.93285161 -3.6253355 0.065341808 23 8
0.91477293 -3.5576506 -0.8480655 13 1
0.93130928 -3.6272092 0.19625986 26 9
0.92347246 -3.6019058 -0.72278452 15 2
0.92664951 -3.6169214 0.32665971 13 10
0.93217242 -3.64377 -0.59570253 12 3
0.92663515 -3.6273978 0.4596912 12 11
0.92649311 -3.6294832 -0.45993495 14 4
0.91777039 -3.6005559 0.58850652 11 12
0.92145789 -3.6203034 -0.32683402 22 5
0.92139482 -3.6226988 0.72660065 12 13
0.92377621 -3.637378 -0.19667853 14 6
0.91590434 -3.6116657 0.8602128 9 14
0.91562808 -3.6132226 -0.065062575 18 7
0.90798771 -3.5883322 0.99179465 11 15
0.77149343 -3.0828269 -0.8515147 22 0
0.90412581 -3.6181793 0.065097481 12 8
0.89038646 -3.5658405 -0.84851533 13 1
0.9040311 -3.6258707 0.19584116 14 9
0.89925259 -3.6120756 -0.72354776 13 2
0.89560419 -3.600101 0.32456797 10 10
0.90575939 -3.6463547 -0.5950768 10 3
0.89937705 -3.6260719 0.45871624 12 11
0.90208703 -3.6397164 -0.4604224 12 4
0.89023864 -3.5972877 0.5869422 10 12
0.89296794 -3.6110184 -0.32543954 17 5
0.89090431 -3.608077 0.72240293 12 13
0.89549148 -3.6321034 -0.19605052 13 6
0.88757038 -3.6026793 0.85661358 9 14
0.88942534 -3.6156433 -0.064992763 15 7
0.87830657 -3.5758226 0.98661828 12 15
0.74949652 -3.0862603 -0.85099703 24 0
0.87334669 -3.5989866 0.064643718 13 8
0.86317605 -3.5624998 -0.84626585 12 1
0.87698019 -3.6222343 0.1953178 15 9
0.87372285 -3.614296 -0.72278452 15 2
0.86764407 -3.594645 0.32352212 10 10
0.87628728 -3.6332321 -0.59194809 10 3
0.8714214 -3.6186004 0.45701009 12 11
0.87294275 -3.6304846 -0.45847249 12 4
0.86527109 -3.6013434 0.58662933 12 12
0.8663426 -3.6113522 -0.3249166 15 5
0.8624922 -3.6008441 0.71973157 12 13
0.86702895 -3.6225758 -0.19521314 13 6
0.86420912 -3.6163695 0.85841322 10 14
0.86230564 -3.6139839 -0.064853139 15 7
0.85394639 -3.5817182 0.98661828 13 15
0.73113066 -3.1025724 -0.85410291 20 0
0.84957409 -3.6108356 0.064748429 25 8
0.83623141 -3.5569108 -0.84356648 13 1
0.8516708 -3.6282687 0.1953178 25 9
0.85026085 -3.6279535 -0.72431099 15 2
0.8449735 -3.6082273 0.32421938 16 10
0.84865248 -3.6296437 -0.59038377 12 3
0.83936852 -3.5955992 0.453354 20 11
0.84550548 -3.6247435 -0.45701009 17 4
0.84010786 -3.6072965 0.58662933 16 12
0.84399873 -3.6268685 -0.32578817 23 5
0.83751816 -3.6047189 0.71934998 15 13
0.83765602 -3.6110296 -0.19427109 22 6
0.83605343 -3.6069806 0.85481399 11 14
0.83723527 -3.6178217 -0.064818241 30 7
0.8289209 -3.5875926 0.98661828 15 15
0.71074271 -3.1132517 -0.85565579 23 0
0.82408673 -3.6126354 0.064678617 24 8
0.81137908 -3.5626621 -0.84356648 12 1
0.82385242 -3.6203492 0.1945851 28 9
0.82293713 -3.62217 -0.72202128 15 2
0.81976271 -3.6140385 0.32421938 18 10
0.82218051 -3.6276302 -0.58913231 13 3
0.81575119 -3.6051013 0.45384148 21 11
0.81930447 -3.6266851 -0.45652261 17 4
0.81379485 -3.6052234 0.58537781 19 12
0.81559211 -3.6190667 -0.32456797 25 5
0.80931544 -3.5970707 0.71667862 12 13
0.81349516 -3.6185966 -0.19437577 23 6
0.80701065 -3.5956163 0.85076487 10 14
0.80977237 -3.6138217 -0.064643718 25 7
0.80574787 -3.5988071 0.9881711 15 15
0.68661535 -3.1048133 -0.8520323 25 0
0.79927725 -3.6202533 0.064713523 27 8
0.78753012 -3.5700052 -0.84401631 13 1
0.79726887 -3.6201608 0.19427109 31 9
0.79299217 -3.6067352 -0.71782345 15 2
0.79428911 -3.6156423 0.32387072 18 10
0.79725802 -3.6352112 -0.58944511 14 3
0.79226124 -3.6184652 0.45481643 20 11
0.7954483 -3.6360562 -0.45701009 19 4
0.78396946 -3.5895884 0.5819363 15 12
0.78924024 -3.6167479 -0.32387072 24 5
0.78731996 -3.6140056 0.71896833 13 13
0.78821319 -3.6241875 -0.19437577 23 6
0.78500062 -3.612452 0.85346431 11 14
0.78345925 -3.6114328 -0.064504094 29 7
0.77896816 -3.5967922 0.98610061 15 15
0.66330707 -3.1019745 -0.84996176 24 0
0.77461684 -3.6256099 0.064713523 19 8
0.76218116 -3.5735104 -0.84356648 12 1
0.77469003 -3.6352708 0.19479445 27 9
0.7708751 -3.6235707 -0.72011316 15 2
0.76613092 -3.6074569 0.32265055 15 10
0.77372593 -3.6463506 -0.59038377 12 3
0.77049273 -3.637368 0.45652261 17 11
0.76963377 -3.6395786 -0.45676634 15 4
0.76319313 -3.6122358 0.58475208 15 12
0.76191545 -3.612422 -0.32299918 20 5
0.76126128 -3.6155717 0.71820509 12 13
0.76517087 -3.6372864 -0.19479445 19 6
0.76216489 -3.6292872 0.85616374 10 14
0.75863791 -3.6187718 -0.064539 22 7
0.75248772 -3.592557 0.9835124 13 15
0.64256865 -3.1083095 -0.85047942 23 0
0.748074 -3.6250541 0.064608812 19 8
0.73783928 -3.5786157 -0.84356648 12 1
0.74889052 -3.6386347 0.19468978 24 9
0.74358344 -3.6192486 -0.71820509 13 2
0.74316055 -3.6203952 0.32334781 15 10
0.74666464 -3.6439228 -0.58913231 12 3
0.74348956 -3.6348786 0.45554763 16 11
0.74539733 -3.6506979 -0.45749757 13 4
0.73914093 -3.6232824 0.58569074 14 12
0.74065304 -3.6371763 -0.32474229 21 5
0.73795754 -3.6304176 0.72011316 12 13
0.73975921 -3.6425397 -0.19479445 19 6
0.73835784 -3.6421592 0.85796332 10 14
0.73732227 -3.6435795 -0.064888045 23 7
0.7296856 -3.6090841 0.98661828 13 15
0.62144226 -3.1185117 -0.8520323 19 0
0.72430998 -3.6380332 0.064748429 22 8
0.71259266 -3.5857151 -0.84401631 13 1
0.72477698 -3.6536956 0.19521314 24 9
0.71867985 -3.6262777 -0.71858674 16 2
0.72071475 -3.6432109 0.3249166 18 10
0.72324896 -3.6627383 -0.59132236 12 3
0.71540576 -3.626348 0.45384148 21 11
0.72027647 -3.6577606 -0.45774129 17 4
0.71548074 -3.6401086 0.58756793 17 12
0.71716273 -3.6520338 -0.32561383 22 5
0.7133497 -3.6393342 0.7208764 15 13
0.71329141 -3.6457803 -0.19468978 26 6
0.71216601 -3.6434 0.85706353 10 14
0.71148431 -3.6466751 -0.064853139 32 7
0.70568776 -3.6236944 0.98920643 15 15
0.60147774 -3.1322598 -0.85462052 22 0
0.69825828 -3.6431231 0.064748429 28 8
0.68607676 -3.5829465 -0.84221673 13 1
0.69700205 -3.6468959 0.1945851 36 9
0.6934486 -3.6351843 -0.71934998 16 2
0.69638181 -3.6540251 0.32543954 19 10
0.69692272 -3.6638169 -0.59069663 13 3
0.68980807 -3.6333246 0.4540852 22 11
0.69509327 -3.66465 -0.45798501 20 4
0.68747848 -3.6314285 0.58537781 20 12
0.69201952 -3.6589093 -0.32578817 27 5
0.6875608 -3.6422966 0.72049481 13 13
0.68782163 -3.650671 -0.19468978 26 6
0.6841895 -3.6348774 0.8539142 11 14
0.68527001 -3.6476231 -0.064783335 30 7
0.68037283 -3.6285326 0.98920643 13 15
0.57854265 -3.1306837 -0.85306764 20 0
0.67344451 -3.6477914 0.064748429 32 8
0.66069329 -3.5857325 -0.84176683 13 1
0.67035478 -3.6417344 0.19406174 37 9
0.66727012 -3.6320965 -0.71782345 15 2
0.67013627 -3.6548781 0.32509091 22 10
0.6716122 -3.6665328 -0.59038377 13 3
0.66791713 -3.6535575 0.45603511 22 11
0.66877967 -3.6655076 -0.45749757 19 4
0.66168189 -3.6301937 0.58443922 16 12
0.66503274 -3.6558104 -0.32509091 25 5
0.66281742 -3.650871 0.72125804 13 13
0.66331315 -3.6572332 -0.19479445 25 6
0.65879667 -3.6395652 0.8539142 11 14
0.65836704 -3.6444468 -0.064643718 30 7
0.65462911 -3.6273763 0.98765355 16 15
0.55485284 -3.1212349 -0.84944409 22 0
0.64796221 -3.6524038 0.064748429 21 8
0.636271 -3.5901465 -0.84176683 13 1
0.648045 -3.664026 0.19500379 26 9
0.64121449 -3.6327999 -0.71706021 16 2
0.64039952 -3.6318851 0.32265055 11 10
0.64565629 -3.6691866 -0.59007084 12 3
0.64205092 -3.6561766 0.45579138 13 11
0.64347118 -3.6680195 -0.45725381 14 4
0.63530034 -3.6288872 0.58350062 11 12
0.63773036 -3.6465142 -0.32387072 15 5
0.63423878 -3.6340241 0.71706021 11 13
0.63810784 -3.6637428 -0.19489913 16 6
0.63267183 -3.6362855 0.85211456 9 14
0.63183385 -3.6389925 -0.064469188 17 7
0.62566131 -3.6109197 0.98195946 12 15
0.53434831 -3.1326499 -0.8515147 22 0
0.62006253 -3.6389885 0.064434282 16 8
0.61086494 -3.5925801 -0.84131694 13 1
0.62275529 -3.6663835 0.19489913 18 9
0.61712849 -3.6409514 -0.71782345 16 2
0.61635768 -3.6441259 0.32334781 14 10
0.61605912 -3.6462276 -0.58569074 12 3
0.61648953 -3.6565471 0.45530388 12 11
0.6175186 -3.6704652 -0.45701009 13 4
0.61091232 -3.6350753 0.58381349 12 12
0.61192822 -3.6489127 -0.32369643 15 5
0.60788095 -3.6325543 0.71591538 12 13
0.61183798 -3.6601212 -0.19448043 16 6
0.60791171 -3.6444583 0.85301441 9 14
0.60707062 -3.6472602 -0.064539 18 7
0.60075164 -3.613189 0.98144192 12 15
0.51426047 -3.1438403 -0.85358524 22 0
0.59367692 -3.6373079 0.064329572 15 8
0.58388811 -3.5812681 -0.83771771 13 1
0.59425849 -3.6528993 0.19395708 22 9
0.59169483 -3.6451709 -0.71782345 17 2
0.58962566 -3.6364362 0.32230192 12 10
0.59185052 -3.6582396 -0.5869422 12 3
0.58651811 -3.6333258 0.45189157 12 11
0.58999252 -3.658905 -0.45506018 12 4
0.58520603 -3.6373014 0.58350062 12 12
0.58518022 -3.6411903 -0.32265055 16 5
0.58345217 -3.6385462 0.71629703 13 13
0.58311516 -3.6445816 -0.1934337 16 6
0.58124572 -3.6369658 0.85031497 11 14
0.58380532 -3.6611814 -0.064713523 59 7
0.57490504 -3.6134789 0.98040658 15 15
0.4922998 -3.1473541 -0.85358524 22 0
0.56921345 -3.6432402 0.064364478 42 8
0.55767173 -3.5775549 -0.83591807 14 1
0.56784332 -3.6469922 0.1934337 44 9
0.56626689 -3.6452341 -0.71706021 15 2
0.56605554 -3.6522775 0.32334781 24 10
0.56602979 -3.6563272 -0.5860036 13 3
0.56268257 -3.6431193 0.45262277 24 11
0.5629226 -3.6531253 -0.45384148 20 4
0.55863154 -3.6294861 0.58162344 20 12
0.56246734 -3.6629107 -0.32421938 25 5
0.55803603 -3.6425307 0.71629703 17 13
0.55889839 -3.652415 -0.19364306 32 6
0.5549584 -3.6351554 0.84896529 12 14
0.55552131 -3.6473758 -0.064399377 57 7
0.55145812 -3.6249483 0.98247713 15 15
0.46917465 -3.1430714 -0.8515147 22 0
0.543423 -3.6491978 0.064399377 44 8
0.53354228 -3.5871437 -0.83726782 15 1
0.54202515 -3.6529381 0.19353838 48 9
0.53844243 -3.6375406 -0.71477056 17 2
0.5393784 -3.6482561 0.32265055 22 10
0.54129189 -3.6700552 -0.58756793 13 3
0.53717697 -3.65098 0.45311025 22 11
0.53855968 -3.6648221 -0.45481643 20 4
0.5320726 -3.629482 0.58099771 17 12
0.53370655 -3.6450629 -0.32230192 27 5
0.53316075 -3.6502233 0.71706021 14 13
0.5338999 -3.6642263 -0.19406174 35 6
0.52928609 -3.6370127 0.84851533 11 14
0.52832103 -3.6392915 -0.064189956 47 7
0.52495116 -3.6249778 0.98144192 15 15
0.4458611 -3.1367073 -0.84892654 25 0
0.5185715 -3.6528122 0.064399377 44 8
0.51039934 -3.6042874 -0.84041709 13 1
0.51770759 -3.6604979 0.19374773 47 9
0.51367038 -3.6411214 -0.71477056 16 2
0.51334041 -3.6479871 0.32230192 26 10
0.51574862 -3.6697421 -0.5869422 15 3
0.51258868 -3.656518 0.453354 25 11
0.51296175 -3.6684926 -0.45481643 23 4
0.50680876 -3.6291065 0.58037198 15 12
0.50742161 -3.6427803 -0.32177898 22 5
0.50550342 -3.6382997 0.71400726 11 13
0.50867134 -3.6657972 -0.19395708 23 6
0.50468445 -3.6464102 0.84986508 10 14
0.50426841 -3.6527956 -0.064364478 30 7
0.49920869 -3.6208119 0.97937131 13 15
0.42553556 -3.1473269 -0.85099703 20 0
0.4930574 -3.6563435 0.064399377 17 8
0.48585379 -3.6076782 -0.84041709 13 1
0.49213988 -3.6640232 0.19374773 18 9
0.48980248 -3.6562936 -0.71706021 16 2
0.48929039 -3.657321 0.32282487 12 10
0.49037766 -3.6752114 -0.58725506 12 3
0.48731115 -3.6619751 0.45359772 17 11
0.48980975 -3.685674 -0.45652261 13 4
0.48379633 -3.6501806 0.58318776 13 12
0.4835448 -3.6580851 -0.32282487 15 5
0.48046961 -3.6397099 0.71362567 12 13
0.48306733 -3.6692591 -0.19395708 15 6
0.48124489 -3.665302 0.85346431 10 14
0.47991282 -3.660109 -0.064434282 14 7
0.4746708 -3.6299555 0.98092425 12 15
0.40478006 -3.1598022 -0.85358524 16 0
0.46777269 -3.6616805 0.064434282 15 8
0.46040949 -3.6090491 -0.83996725 16 1
0.46730429 -3.6733131 0.19406174 19 9
0.46377108 -3.6557286 -0.71629703 17 2
0.46424633 -3.6646008 0.32317349 15 10
0.4659467 -3.6883442 -0.58881938 11 3
0.4607414 -3.6574099 0.45262277 14 11
0.46406698 -3.6890037 -0.45652261 12 4
0.46026891 -3.6691494 0.58569074 14 12
0.4599736 -3.6771877 -0.32421938 14 5
0.45772511 -3.6644046 0.71782345 12 13
0.45645186 -3.6646144 -0.19353838 13 6
0.45492396 -3.6627707 0.85211456 10 14
0.45582595 -3.6752772 -0.064643718 17 7
0.4514513 -3.6504357 0.98558295 13 15
0.38271099 -3.1625509 -0.85358524 18 0
0.44315702 -3.6727982 0.064573906 18 8
0.43543544 -3.61411 -0.84041709 14 1
0.44117236 -3.6725202 0.19385241 22 9
0.43753755 -3.6530292 -0.71515214 18 2
0.44054455 -3.683579 0.32456797 21 10
0.44205701 -3.7071993 -0.59132236 11 3
0.43589976 -3.666451 0.453354 21 11
0.43783438 -3.6882105 -0.45603511 19 4
0.43394563 -3.666388 0.58475208 20 12
0.43685916 -3.7020743 -0.32613677 20 5
0.43373975 -3.6811595 0.72049481 16 13
0.43202242 -3.6776297 -0.19406174 26 6
0.4297953 -3.6697288 0.85301441 11 14
0.42992431 -3.6763835 -0.064608812 29 7
0.4261792 -3.6554174 0.98610061 12 15
0.36018553 -3.1613071 -0.85254997 16 0
0.41863364 -3.6857367 0.064748429 24 8
0.40975484 -3.6131892 -0.8395173 14 1
0.41686922 -3.6874185 0.19448043 34 9
0.41180411 -3.6540444 -0.71477056 16 2
0.41459477 -3.6845849 0.32439366 22 10
0.4159449 -3.7082319 -0.5910095 12 3
0.4100723 -3.6674318 0.45311025 24 11
0.41251567 -3.6951232 -0.45652261 13 4
0.40724647 -3.659512 0.58318776 19 12
0.40880689 -3.6852314 -0.32439366 20 5
0.40802982 -3.6840978 0.72049481 13 13
0.40721387 -3.6884973 -0.19448043 24 6
0.40416571 -3.6726396 0.85301441 12 14
0.40381148 -3.6753199 -0.064539 38 7
0.40064961 -3.6583037 0.98610061 16 15
0.3374908 -3.1579816 -0.85099703 19 0
0.39310393 -3.690558 0.064783335 37 8
0.38534433 -3.6237133 -0.84131694 13 1
0.39111602 -3.6902387 0.19448043 37 9
0.38669649 -3.6607347 -0.71553379 16 2
0.3873992 -3.6735194 0.32317349 22 10
0.38963345 -3.7071161 -0.59038377 12 3
0.38611373 -3.6859996 0.45506018 22 11
0.38753462 -3.7058103 -0.45749757 18 4
0.38148442 -3.660301 0.58287489 11 12
0.38330045 -3.6839654 -0.32404503 22 5
0.38088259 -3.673187 0.71782345 10 13
0.38186446 -3.6952236 -0.19468978 20 6
0.3793574 -3.6772442 0.85346431 10 14
0.37773448 -3.6740711 -0.064469188 24 7
0.37372178 -3.6475592 0.98247713 12 15
0.31581983 -3.1641054 -0.8520323 24 0
0.36559525 -3.66927 0.064364478 12 8
0.36042169 -3.6301935 -0.84221673 13 1
0.36520079 -3.6848652 0.19406174 17 9
0.36215597 -3.6671894 -0.71629703 16 2
0.3595975 -3.6543238 0.32125604 9 10
0.36246023 -3.6900232 -0.58725506 12 3
0.35966137 -3.6747129 0.453354 13 11
0.36030549 -3.6945956 -0.45579138 10 4
0.35598651 -3.6569149 0.5819363 13 12
0.35641807 -3.6746528 -0.32299918 14 5
0.35353085 -3.6581693 0.71438891 12 13
0.35593581 -3.6897848 -0.19427109 12 6
0.3531177 -3.6739833 0.85211456 10 14
0.35169417 -3.6726375 -0.064399377 16 7
0.34814963 -3.6423261 0.98040658 12 15
0.29481179 -3.1719525 -0.85358524 21 0
0.33923253 -3.6637683 0.064224854 14 8
0.33462778 -3.6209197 -0.8395173 14 1
0.33836806 -3.6753919 0.1934337 18 9
0.33690438 -3.6735384 -0.71706021 17 2
0.33489698 -3.6586709 0.32143039 12 10
0.33579332 -3.6826279 -0.58569074 11 3
0.33130518 -3.64748 0.44969791 12 11
0.33371499 -3.6811464 -0.45384148 10 4
0.3300924 -3.655376 0.58131051 11 12
0.33139762 -3.6769938 -0.32299918 11 5
0.32721785 -3.6448479 0.71133596 12 13
0.32749966 -3.6623399 -0.19270101 13 6
0.32671517 -3.6607735 0.84851533 9 14
0.32597888 -3.6669788 -0.06425976 18 7
0.32271376 -3.6446676 0.98040658 12 15
0.27381766 -3.1874068 -0.85720873 20 0
0.31360334 -3.6580229 0.064085238 20 8
0.30884397 -3.6173425 -0.83816761 15 1
0.31249523 -3.6676598 0.19291034 30 9
0.31122759 -3.6679215 -0.71553379 17 2
0.31018525 -3.6708465 0.32230192 22 10
0.31022111 -3.6789229 -0.58475208 12 3
0.30680206 -3.6536069 0.45018539 20 11
0.30684966 -3.6695392 -0.45213532 17 4
0.30438247 -3.6476958 0.57974619 19 12
0.30505937 -3.6712759 -0.32230192 20 5
0.30225018 -3.6529129 0.71248084 14 13
0.3020702 -3.6585128 -0.19238698 22 6
0.29987368 -3.647428 0.84491616 11 14
0.30020785 -3.6671722 -0.064224854 32 7
0.29805464 -3.6487055 0.98092425 15 15
0.2512022 -3.1776416 -0.85410291 19 0
0.28884235 -3.6700907 0.06425976 37 8
0.28528264 -3.6329606 -0.84131694 14 1
0.28703818 -3.6717432 0.19301502 42 9
0.28530887 -3.6660907 -0.71477056 16 2
0.28442061 -3.6629407 0.32143039 21 10
0.28498656 -3.6869075 -0.58569074 13 3
0.28174448 -3.6615973 0.45091662 25 11
0.28156129 -3.6675844 -0.45164782 18 4
0.27830729 -3.6418533 0.57849473 18 12
0.27854842 -3.6534009 -0.32055882 25 5
0.27826995 -3.6666317 0.71477056 14 13
0.27727389 -3.6704905 -0.19291034 25 6
0.27445358 -3.6416116 0.84311652 11 14
0.27464089 -3.6611545 -0.064085238 41 7
0.27214396 -3.644918 0.97937131 16 15
0.22887316 -3.1773911 -0.85358524 21 0
0.26356789 -3.6679828 0.064189956 44 8
0.25991282 -3.6348634 -0.84131694 13 1
0.26260757 -3.6815805 0.1934337 48 9
0.26062635 -3.6718643 -0.71553379 16 2
0.25813967 -3.6548996 0.32055882 22 10
0.25932902 -3.6808798 -0.58443922 16 3
0.25723109 -3.6693711 0.45164782 24 11
0.25691718 -3.6833224 -0.453354 21 4
0.25460878 -3.6594281 0.58099771 17 12
0.25248569 -3.647306 -0.31986156 26 5
0.25226098 -3.6626091 0.71362567 13 13
0.25269425 -3.6782706 -0.19322437 30 6
0.25008672 -3.6589925 0.84671575 11 14
0.24853231 -3.6550024 -0.063945621 45 7
0.24667384 -3.6370487 0.9767831 13 15
0.20724039 -3.1788754 -0.85358524 21 0
0.23691899 -3.6537695 0.063910715 15 8
0.2352912 -3.6384931 -0.84176683 13 1
0.23574516 -3.6653862 0.19249167 18 9
0.23536153 -3.6794722 -0.71667862 18 2
0.23338279 -3.6585603 0.32073313 11 10
0.23287536 -3.6707721 -0.58256203 12 3
0.23223272 -3.6809831 0.45286649 12 11
0.23196423 -3.6869669 -0.45359772 12 4
0.22930163 -3.6650596 0.58162344 10 12
0.22889444 -3.6688251 -0.32160467 14 5
0.22732452 -3.6642413 0.71362567 10 13
0.22664002 -3.6739647 -0.19291034 14 6
0.22613253 -3.6761706 0.85031497 10 14
0.22425807 -3.666589 -0.064120144 15 7
0.22209771 -3.6521802 0.98040658 13 15
0.1857159 -3.1918161 -0.85669106 21 0
0.21285412 -3.6692717 0.064155042 14 8
0.20909877 -3.6264284 -0.8386175 13 1
0.2113637 -3.6768758 0.19301502 16 9
0.21087104 -3.690789 -0.71858674 17 2
0.20907803 -3.6819816 0.32265055 11 10
0.20855406 -3.6841054 -0.58443922 11 3
0.20672606 -3.6745508 0.45189157 11 11
0.20644076 -3.6924605 -0.4540852 12 4
0.20522882 -3.6823142 0.58412635 12 12
0.20404686 -3.6842592 -0.32282487 13 5
0.20249291 -3.6794608 0.71629703 12 13
0.20206487 -3.6833994 -0.19332905 13 6
0.20067462 -3.6815515 0.85121477 9 14
0.19930427 -3.6800458 -0.064329572 17 7
0.19869083 -3.680614 0.98765355 12 15
0.16398592 -3.1930065 -0.85669106 16 0
0.18784378 -3.6826508 0.064364478 15 8
0.18500359 -3.6394453 -0.84131694 13 1
0.18649472 -3.6942194 0.19385241 17 9
0.18441123 -3.6784453 -0.71591538 18 2
0.18460761 -3.6952591 0.32369643 13 10
0.18419932 -3.713093 -0.58881938 11 3
0.18165381 -3.6878006 0.453354 14 11
0.18130258 -3.6937802 -0.4540852 13 4
0.17970872 -3.6876028 0.58475208 16 12
0.17880279 -3.6955445 -0.32369643 15 5
0.17829412 -3.6984026 0.71973157 13 13
0.1768228 -3.694695 -0.19385241 17 6
0.17524554 -3.6887021 0.85256451 11 14
0.17462851 -3.689307 -0.064469188 21 7
0.17335311 -3.6896303 0.98972404 15 15
0.14169054 -3.1940734 -0.85669106 22 0
0.16274536 -3.6978567 0.064608812 40 8
0.15984699 -3.6464887 -0.84266669 15 1
0.16122073 -3.7074037 0.19448043 40 9
0.15906478 -3.6874893 -0.71744186 17 2
0.15897638 -3.700439 0.32404503 22 10
0.15844074 -3.7182357 -0.58944511 14 3
0.15632278 -3.6988955 0.45457271 20 11
0.15592809 -3.7048728 -0.45530388 22 4
0.1537129 -3.6828465 0.58381349 17 12
0.15324628 -3.7026746 -0.32421938 24 5
0.15247005 -3.6995573 0.71973157 12 13
0.15126975 -3.7018263 -0.19416642 28 6
0.14972593 -3.6956773 0.8539142 11 14
0.14878833 -3.6884382 -0.064434282 32 7
0.14735927 -3.6849594 0.9881711 15 15
0.11895542 -3.1834016 -0.85358524 18 0
0.13707343 -3.7028997 0.064678617 16 8
0.13488805 -3.6611478 -0.84581596 13 1
0.13526142 -3.7064428 0.19437577 21 9
0.13303415 -3.6806617 -0.71591538 17 2
0.13270928 -3.6895115 0.32299918 19 10
0.13283074 -3.7291219 -0.5910095 12 3
0.13084656 -3.709816 0.45579138 20 11
0.13040754 -3.7157905 -0.45652261 13 4
0.12827331 -3.6917269 0.58506501 21 12
0.12732452 -3.701663 -0.32404503 21 5
0.1265047 -3.6966071 0.71896833 14 13
0.12609857 -3.7227533 -0.19521314 23 6
0.12418275 -3.704423 0.85571378 11 14
0.12356774 -3.7053759 -0.064713523 27 7
0.12150239 -3.6820371 0.98713589 17 15
0.09684626 -3.1880164 -0.85462052 18 0
0.11079928 -3.6897748 0.064434282 30 8
0.10874362 -3.6425216 -0.84131694 13 1
0.10979503 -3.7212718 0.19510846 36 9
0.10762113 -3.691313 -0.71782345 16 2
0.10683341 -3.6863651 0.32265055 15 10
0.10634104 -3.7141616 -0.58850652 12 3
0.10455111 -3.6967487 0.4540852 18 11
0.10474256 -3.7265317 -0.45774129 16 4
0.10249706 -3.6925323 0.58506501 13 12
0.1011514 -3.6905117 -0.32299918 20 5
0.10042766 -3.687588 0.71706021 12 13
0.099783711 -3.7115636 -0.1945851 20 6
0.098525189 -3.7129922 0.85751343 11 14
0.097432852 -3.6961532 -0.064539 21 7
0.095794402 -3.6827955 0.98713589 13 15
0.07454218 -3.1866837 -0.85410291 20 0
0.085129216 -3.6944566 0.064504094 22 8
0.083000369 -3.629554 -0.83816761 12 1
0.083543189 -3.7099669 0.19448043 25 9
0.081805207 -3.6900117 -0.71744186 18 2
0.081270382 -3.694989 0.32334781 15 10
0.080238171 -3.7069139 -0.58725506 12 3
0.078698136 -3.6954043 0.45384148 18 11
0.078556232 -3.7192335 -0.45676634 16 4
0.076838903 -3.6990829 0.5860036 14 12
0.075710654 -3.7070637 -0.32439366 20 5
0.074760482 -3.6921248 0.71782345 13 13
0.073750474 -3.7061789 -0.19427109 22 6
0.072373115 -3.7018991 0.85481399 11 14
0.071820155 -3.7067399 -0.064713523 23 7
0.069897994 -3.673717 0.98454767 13 15
0.052388195 -3.1929212 -0.85565579 16 0
0.059367526 -3.6969604 0.064539 22 8
0.057875935 -3.6436846 -0.84131694 13 1
0.057516608 -3.7024715 0.19406174 24 9
0.056220934 -3.702271 -0.71973157 18 2
0.055412699 -3.6914818 0.32299918 15 10
0.054472912 -3.7152843 -0.58850652 12 3
0.052784234 -3.6879239 0.45286649 19 11
