# .PCD v0.7 - Point Cloud Data file format
VERSION 0.7
FIELDS x y z intensity ring
SIZE 4 4 4 4 2
TYPE F F F F U
COUNT 1 1 1 1 1
WIDTH 221
HEIGHT 1
VIEWPOINT 0 0 0 1 0 0 0
POINTS 221
DATA ascii
3.0110357 -0.055186287 0.052566648 7 8
3.0892107 -0.05823715 0.16192746 7 9
2.668215 -0.052629948 -0.42268598 47 3
2.7348869 -0.055855118 -0.33587193 72 4
2.7907255 -0.05845736 -0.24421038 56 5
2.8554225 -0.061308343 -0.14968085 8 6
2.9468272 -0.065329134 -0.051449694 7 7
3.0225713 -0.076509379 0.05277608 7 8
3.0887151 -0.080341399 0.16192746 51 9
2.7344301 -0.074946709 -0.33587193 66 4
2.8121572 -0.078550659 -0.24612781 37 5
2.870882 -0.082196862 -0.15051822 8 6
2.9462991 -0.085900106 -0.051449694 7 7
3.0259438 -0.09826611 0.052845888 54 8
3.1080406 -0.10256127 0.16297418 58 9
2.7417762 -0.094307616 -0.33684689 66 4
2.8055494 -0.098462209 -0.24560487 7 5
2.8842103 -0.10273491 -0.15125093 7 6
2.937634 -0.10617797 -0.051310074 7 7
3.0291803 -0.11954632 0.052915696 56 8
3.1272054 -0.12505488 0.1640209 59 9
2.7529514 -0.1139389 -0.33830932 64 4
2.8127565 -0.1183812 -0.24630213 7 5
2.8953958 -0.12337802 -0.15187897 7 6
2.954802 -0.12745941 -0.05162422 25 7
3.024277 -0.1405053 0.052845888 47 8
2.7738993 -0.13421047 -0.34099045 38 4
2.8238254 -0.1381081 -0.24734798 6 5
2.8944638 -0.14358851 -0.15187897 8 6
2.9658232 -0.14868526 -0.051833645 63 7
2.8248093 -0.15743679 -0.24752231 7 5
2.8914251 -0.16317448 -0.15177429 34 6
3.0540214 -0.18358201 0.053404365 7 8
2.8494916 -0.1787755 -0.24978836 66 5
2.9002137 -0.18348236 -0.15229765 6 6
2.9774606 -0.19045648 -0.052077983 7 7
3.0626414 -0.20556806 0.053578887 7 8
2.8461864 -0.19852556 -0.24961405 64 5
2.9127727 -0.20521355 -0.15303035 8 6
2.9760585 -0.21123827 -0.052077983 7 7
3.0750513 -0.22851577 0.053823221 66 8
2.8506525 -0.21934576 -0.25013697 11 5
2.9212258 -0.22631474 -0.15355371 7 6
2.9864728 -0.23294275 -0.052287407 7 7
3.0693951 -0.24965374 0.053753413 61 8
2.9295254 -0.2475439 -0.15407708 8 6
2.9987216 -0.25497234 -0.052531745 32 7
3.0815206 -0.27230805 0.053997744 56 8
2.9317036 -0.26835376 -0.15428641 8 6
3.0227551 -0.27828419 -0.052985508 63 7
2.9337342 -0.28920606 -0.15449576 46 6
3.0087986 -0.2981967 -0.05277608 15 7
3.0026667 -0.31877246 -0.052706268 6 7
3.0222249 -0.34220195 -0.053090218 7 7
3.0236695 -0.36429796 -0.05316003 7 7
3.0587413 -0.3902061 -0.053823221 47 7
2.6844604 0.48688111 -0.14298184 10 6
2.7095203 0.471425 -0.14413324 61 6
2.7068355 0.45151168 -0.14381923 7 6
2.713866 0.43323439 -0.14402856 8 6
2.6951053 0.41096562 -0.14287716 8 6
2.6753538 0.39029232 -0.23654069 24 5
2.7197192 0.39482573 -0.14402856 8 6
2.6563692 0.36812943 -0.23462325 70 5
2.7263663 0.37637514 -0.14423791 8 6
2.7695103 0.38085362 -0.048796929 42 7
2.6549237 0.34905738 -0.23427464 63 5
2.7408094 0.35888952 -0.14486594 44 6
2.7958965 0.36461124 -0.049215786 63 7
2.6711361 0.33223414 -0.23549481 60 5
2.7491946 0.34048146 -0.14517996 33 6
2.6773479 0.31404221 -0.23584343 60 5
2.741586 0.32012197 -0.1446566 6 6
2.8066738 0.32623258 -0.049320504 7 7
2.6933377 0.29687241 -0.2370636 29 5
2.7477245 0.30141118 -0.14486594 8 6
2.8188224 0.30771673 -0.049495026 7 7
2.8854506 0.30531034 0.050646886 30 8
2.6991005 0.28035274 -0.33319083 1 4
2.6854353 0.27703986 -0.23619205 5 5
2.7477746 0.28201717 -0.14476126 7 6
2.8029974 0.28620198 -0.04918088 7 7
2.8995018 0.28583178 0.050856311 64 8
2.6516848 0.2557959 -0.32709733 53 4
2.6873491 0.25781623 -0.23619205 7 5
2.7755694 0.26481336 -0.14612199 8 6
2.8189557 0.26696575 -0.049425215 7 7
2.8894784 0.26448879 0.050646886 65 8
2.6593375 0.23780787 -0.32782856 83 4
2.7009909 0.24010725 -0.23723793 7 5
2.7694354 0.24424322 -0.14570332 8 6
2.8247349 0.24762987 -0.049495026 30 7
2.8932896 0.2439734 0.050681788 60 8
2.660933 0.21923766 -0.32782856 72 4
2.710583 0.22142212 -0.23793517 61 5
2.7591288 0.22393356 -0.14507528 44 6
2.8543 0.23015355 -0.049983691 55 7
2.6544809 0.20005749 -0.3268536 69 4
2.7279572 0.20368135 -0.23932965 56 5
2.7785509 0.20599476 -0.14601734 8 6
2.924341 0.2055167 0.051170457 7 8
2.9906197 0.20860118 0.15711255 7 9
2.6676955 0.18233302 -0.32831606 67 4
2.7193737 0.18395799 -0.2384581 65 5
2.7878923 0.18712682 -0.14643602 7 6
2.8372822 0.18894976 -0.049634643 7 7
2.9316914 0.18547332 0.051275171 8 8
3.0059564 0.18859161 0.15784526 61 9
2.6768289 0.16419066 -0.32929099 71 4
2.8030863 0.16849798 -0.14716873 8 6
2.8385322 0.16913721 -0.049634643 7 7
2.9269252 0.16466616 0.051170457 21 8
3.0231531 0.16849062 0.15868263 79 9
2.6233068 0.14391094 -0.41611573 18 3
2.6937673 0.14636175 -0.33124092 68 4
2.7276456 0.14629149 -0.23898104 7 5
2.8061888 0.14903057 -0.14727339 8 6
2.8596134 0.15036644 -0.049983691 7 7
2.9280035 0.14422835 0.051170457 54 8
3.0302405 0.14767404 0.15899664 69 9
2.6084623 0.12483786 -0.41361275 71 3
2.6927407 0.12745827 -0.33099717 43 4
2.7345715 0.12752512 -0.23950398 7 5
2.7971852 0.12897742 -0.14675003 8 6
2.8745768 0.1310377 -0.050228026 8 7
2.952914 0.12479676 0.051589314 66 8
3.0232155 0.12618221 0.15857796 53 9
2.6290076 0.1074296 -0.41674146 9 3
2.6697631 0.10769488 -0.32807231 11 4
2.7533121 0.10914133 -0.24107277 7 5
2.8060005 0.10975849 -0.14716873 8 6
2.9417229 0.10375699 0.051379886 9 8
3.1202476 0.10678096 0.27314609 6 10
2.6375909 0.089341789 -0.41799295 8 3
2.6902897 0.089716703 -0.33050969 63 4
2.7559986 0.08998064 -0.24124709 71 5
2.8126869 0.090357281 -0.14748274 37 6
2.966362 0.08389435 0.051798742 7 8
3.0586226 0.084901005 0.16035739 8 9
3.1109588 0.084723718 0.27227452 49 10
2.6401248 0.07097885 -0.41830578 68 3
2.7106946 0.071455851 -0.33294708 69 4
2.7386341 0.070279256 -0.23967829 54 5
2.8172424 0.070820548 -0.14769208 6 6
2.8846869 0.071004726 -0.050367646 7 7
2.9508815 0.062842578 0.051519506 6 8
3.0711222 0.063794598 0.16098543 27 9
3.1174507 0.063124076 0.27279747 50 10
2.638581 0.052506272 -0.41799295 86 3
2.7170815 0.052645266 -0.33367831 71 4
2.7569861 0.051493123 -0.24124709 65 5
2.8396344 0.051549532 -0.14884347 8 6
2.8971088 0.051075574 -0.050577074 7 7
2.9752421 0.042583428 0.051938362 11 8
3.0615072 0.042214885 0.16046207 61 9
3.1337531 0.041570045 0.27419198 45 10
2.6428339 0.034136511 -0.41861868 69 3
2.7173829 0.033676475 -0.33367831 71 4
2.8299394 0.03161234 -0.14832011 7 6
2.9173903 0.031061593 -0.050926123 7 7
2.9594696 0.021695431 0.051659122 46 8
3.0677187 0.020882752 0.16077606 72 9
3.1459212 0.019767923 0.27523783 34 10
2.6509089 0.015730847 -0.41987014 67 3
2.7135816 0.014681967 -0.33319083 72 4
2.7833374 0.013117641 -0.24351314 7 5
2.8260968 0.011839483 -0.14811078 7 6
2.9235349 0.010716994 -0.051030833 7 7
2.9895446 0.0010443879 0.052182697 64 8
3.0578036 -0.00053368742 0.16025271 26 9
2.664782 -0.002790554 -0.42206025 76 3
2.7813685 -0.0063107354 -0.24333882 7 5
2.8480806 -0.0079533616 -0.14926216 8 6
2.9874792 -0.019814005 0.052147791 48 8
3.0677111 -0.021952456 0.16077606 7 9
2.6666725 -0.021409877 -0.42237309 67 3
2.7373424 -0.023410631 -0.33611569 8 4
2.7792645 -0.025709607 -0.24316452 7 5
2.8619359 -0.027973004 -0.14999487 9 6
2.9233997 -0.030104604 -0.051030833 43 7
2.9692726 -0.040424891 0.051833645 6 8
3.1054275 -0.043904871 0.16276483 6 9
2.660533 -0.03993715 -0.42143452 24 3
2.7450514 -0.042643495 -0.33709061 70 4
2.8029227 -0.045499813 -0.24525626 68 5
2.8676615 -0.048052624 -0.15030889 8 6
3.0069044 -0.0619356 0.052496839 7 8
3.1030483 -0.065541416 0.16266017 16 9
2.6740134 -0.058814108 -0.4236246 13 3
2.7347639 -0.061582927 -0.33587193 58 4
2.800545 -0.06502039 -0.24508193 59 5
2.8632627 -0.067976542 -0.15009953 8 6
2.948683 -0.071549304 -0.051484596 7 7
3.0383816 -0.083808266 0.053055316 9 8
3.0885398 -0.086810216 0.16192746 51 9
2.7322834 -0.080614984 -0.33562821 68 4
2.8279035 -0.085412234 -0.24752231 7 5
2.8786888 -0.088454798 -0.1509369 8 6
2.9521091 -0.092258021 -0.051554412 7 7
3.0357237 -0.10494886 0.05302041 63 8
3.1118109 -0.10921063 0.16318353 58 9
2.7554588 -0.10055653 -0.33855307 69 4
2.8192742 -0.10485627 -0.24682505 7 5
2.8879805 -0.1089259 -0.15146028 7 6
2.941402 -0.11248315 -0.051379886 7 7
3.0349171 -0.12613948 0.05302041 59 8
3.1249413 -0.1315202 0.16391623 50 9
2.7566733 -0.11987691 -0.33879682 66 4
2.8184733 -0.12453581 -0.24682505 7 5
2.8871496 -0.12908499 -0.15146028 7 6
3.0199811 -0.14664504 0.05277608 10 8
2.8274846 -0.14471848 -0.24769662 7 5
2.8941567 -0.14965034 -0.15187897 8 6
2.9694991 -0.15510517 -0.05190346 61 7
3.0488331 -0.16938868 0.053299651 8 8
2.8303831 -0.16468582 -0.24804525 7 5
2.895035 -0.16996861 -0.15198363 26 6
3.0615468 -0.1915433 0.053543981 7 8
2.8530226 -0.18599682 -0.25013697 68 5
2.897764 -0.19043741 -0.15219298 6 6
2.985002 -0.19774033 -0.052217599 7 7
