# .PCD v0.7 - Point Cloud Data file format
VERSION 0.7
FIELDS x y z intensity ring
SIZE 4 4 4 4 2
TYPE F F F F U
COUNT 1 1 1 1 1
WIDTH 1276
HEIGHT 1
VIEWPOINT 0 0 0 1 0 0 0
POINTS 1276
DATA ascii
4.3861475 1.3728547 0.89336777 28 13
4.3329778 1.3545523 -0.23791927 36 6
4.3974552 1.3730242 1.0635686 18 14
4.3466091 1.356316 -0.079478264 39 7
4.4024782 1.3720608 1.2356021 24 15
2.502979 0.77288663 -0.70191729 6 0
4.4217854 1.3637005 0.08076974 35 8
2.5085075 0.77315545 -0.60601819 2 1
4.4075656 1.3567884 0.24168746 32 9
4.4356179 1.3628818 0.40597141 28 10
4.4265418 1.3584 -0.73336488 21 3
4.4411974 1.3612014 0.57034856 21 11
4.4205565 1.3540311 -0.56766742 24 4
4.4730601 1.3684057 0.74087369 27 12
4.4301314 1.3535843 -0.40527418 29 5
4.5026517 1.3748807 0.91511995 25 13
4.4416685 1.3545673 -0.24336222 33 6
4.5001431 1.3706809 1.0860636 16 14
4.4401455 1.3515576 -0.081014074 33 7
4.5154552 1.3727618 1.2645899 24 15
2.5434594 0.76597941 -0.71175241 1 0
4.5365205 1.3644758 0.082689509 36 8
4.1113567 1.2358145 -0.99113435 1 1
4.5259671 1.3587182 0.24765378 35 9
4.5347276 1.3587579 0.4141641 33 10
4.5210781 1.3529484 -0.74744397 24 3
4.5647092 1.3642719 0.58497292 22 11
4.5383191 1.3555194 -0.58156055 29 4
4.5809374 1.3665097 0.7571429 28 12
4.5253997 1.3482202 -0.41311821 28 5
4.6175117 1.3747877 0.93649065 29 13
4.5582252 1.3554018 -0.24922384 33 6
4.6198201 1.3719624 1.1126078 15 14
4.5587444 1.3529587 -0.08300364 36 7
4.6138344 1.3675565 1.2894366 20 15
3.4533174 1.0137484 -0.96435976 1 0
4.6380444 1.3597736 0.084364928 36 8
4.089962 1.1983148 -0.98393589 2 1
4.6331034 1.3556912 0.25299203 27 9
4.6531153 1.3589025 0.42409983 29 10
4.6271267 1.3495624 -0.76340026 21 3
4.6846638 1.3645699 0.59910977 21 11
4.6486883 1.3532107 -0.59447873 23 4
4.7003832 1.3664793 0.7752893 25 12
4.643764 1.3482591 -0.42305395 29 5
4.7231574 1.3704163 0.95595312 24 13
4.6730852 1.3541197 -0.2549808 32 6
4.7509608 1.3748908 1.1418515 13 14
4.6737323 1.3516551 -0.084923409 35 7
4.7401962 1.3690863 1.3220477 24 15
3.4641984 0.99007285 -0.96539509 1 0
4.7591844 1.3583825 0.086389415 38 8
4.1134243 1.1732934 -0.98753518 1 1
4.7713833 1.3591632 0.26000506 35 9
4.7757907 1.3577157 0.4343842 31 10
4.7525821 1.3493274 -0.78248531 19 3
4.7859793 1.3570043 0.61080921 21 11
4.7862158 1.356169 -0.61080921 24 4
4.8316879 1.3672318 0.79531288 27 12
4.7683311 1.3475035 -0.43351269 29 5
4.8575401 1.3718007 0.9811399 30 13
4.7845364 1.3493785 -0.26052842 33 6
4.8694725 1.3714983 1.1679459 13 14
4.796854 1.3501415 -0.086982794 32 7
4.8670382 1.3680627 1.354659 21 15
3.4747481 0.96689975 -0.96643037 1 0
4.8976388 1.3609984 0.088728033 34 8
4.1252704 1.1455904 -0.98843491 1 1
4.8808346 1.3535763 0.26544797 29 9
4.9514546 1.3713 -0.9986943 1 2
4.913806 1.3599498 0.44606307 33 10
4.8837423 1.3497944 -0.80250889 20 3
4.9216309 1.3584148 0.6268959 24 11
4.9008169 1.3517523 -0.62421483 22 4
4.9668102 1.3680865 0.81596226 27 12
4.9120951 1.351171 -0.44571447 24 5
4.9957256 1.3732376 1.00709 30 13
4.924809 1.3518951 -0.2676461 38 6
5.0010886 1.3709601 1.1971895 12 14
4.9430966 1.3541325 -0.089461036 35 7
5.0069065 1.3697369 1.3908936 25 15
3.4888723 0.94463742 -0.96850091 1 0
5.0305657 1.3601775 0.090961948 33 8
4.1218805 1.1137129 -0.9857356 1 1
5.0155053 1.3532879 0.27225167 32 9
5.0291505 1.3550867 -1.0124326 1 2
5.0520802 1.3603194 0.45774195 30 10
5.0246725 1.3510587 -0.82409686 16 3
5.0690317 1.3610866 0.64444512 24 11
5.0328407 1.3504299 -0.63981414 22 4
5.1021724 1.3671218 0.83661157 21 12
5.0368881 1.3477473 -0.45617315 24 5
5.1360579 1.3733196 1.0334216 21 13
5.0518351 1.3489128 -0.27403107 32 6
5.1329312 1.3686447 1.2264332 14 14
5.0645008 1.3494545 -0.091485515 33 7
5.1544981 1.3715053 1.4291989 25 15
3.4841731 0.91730642 -0.96539509 1 0
5.1753173 1.360616 0.093405277 33 8
4.137094 1.0868902 -0.98753518 1 1
5.1619954 1.3542246 0.27968338 35 9
5.0916657 1.3338745 -1.0231179 1 2
5.1770997 1.3552904 0.46820062 31 10
5.171586 1.3519157 -0.84662342 18 3
5.2186232 1.3622686 0.66223812 23 11
5.1823654 1.3518353 -0.65760702 24 4
5.2415805 1.3653305 0.85788667 24 12
5.1676531 1.3441478 -0.46715477 23 5
5.2842283 1.3734856 1.0612797 25 13
5.2061195 1.3512436 -0.28188148 33 6
5.2876143 1.3704231 1.2610756 10 14
5.2015634 1.3471545 -0.093789227 35 7
5.2911291 1.368378 1.4643983 25 15
3.4755197 0.88912952 -0.961254 1 0
5.3067498 1.3556359 0.095604278 36 8
4.1181459 1.0512333 -0.98123646 1 1
5.3106699 1.3536756 0.28721976 36 9
5.321599 1.3534945 0.48040244 30 10
5.295773 1.3449554 -0.86539555 14 3
5.3646231 1.3604481 0.6795435 21 11
5.324451 1.3492715 -0.67442501 22 4
5.3946109 1.3650472 0.88135189 26 12
5.31213 1.3422009 -0.47935659 22 5
5.4231277 1.3692422 1.0872297 26 13
5.3587403 1.3509934 -0.28962722 38 6
5.4482346 1.3715363 1.2970678 11 14
5.3621058 1.3488563 -0.096511811 39 7
5.4448233 1.3676466 1.5042564 22 15
3.5041401 0.87043446 -0.96746564 1 0
5.4577703 1.3536943 0.098152332 34 8
4.1216016 1.0215222 -0.98033673 1 1
5.46346 1.3520696 0.29496548 29 9
5.487597 1.3549941 0.49452168 28 10
5.4642229 1.3471993 -0.89136374 7 3
5.5127726 1.3571309 0.69709271 20 11
5.4840951 1.3490534 -0.69343662 20 4
5.5593963 1.3655192 0.90669429 21 12
5.4761734 1.3430511 -0.49330151 17 5
5.5774736 1.3668635 1.1162328 23 13
5.5057812 1.3472569 -0.29705891 32 6
5.6091213 1.3704691 1.3330599 10 14
5.5306869 1.3502827 -0.099374004 39 7
5.6137748 1.3684918 1.5482556 25 15
3.5176442 0.84776026 -0.96953619 1 0
5.624568 1.3534538 0.10097963 33 8
4.1210537 0.9909007 -0.97853714 1 1
5.6281328 1.3511947 0.30333924 35 9
5.6480546 1.3528502 0.50811797 28 10
5.6804395 1.356415 0.71707928 20 11
5.6442242 1.345685 -0.71244824 23 4
5.724443 1.3637549 0.93203664 5 12
5.6521106 1.3444382 -0.50829226 17 5
5.7628431 1.3686525 1.1513416 18 13
5.670517 1.3456799 -0.30543268 31 6
5.7759409 1.3685688 1.3704019 9 14
5.6764269 1.3428973 -0.10181734 36 7
5.7886348 1.368376 1.5938078 25 15
3.5311453 0.82432353 -0.97160673 1 0
5.7799358 1.3482257 0.10359748 9 8
4.1508141 0.96668983 -0.98393589 1 1
5.7796688 1.343907 0.31098029 8 9
5.0695539 1.1778588 -1.0116693 1 2
5.8070359 1.347066 0.52153993 8 10
5.8541594 1.3547678 0.73779708 5 11
5.7115054 1.3196546 -0.71976036 8 4
2.1866016 0.50441587 0.35541913 16 12
5.8069696 1.3385097 -0.52136564 3 5
5.9521017 1.3697779 1.1872137 21 13
5.8376698 1.3412951 -0.31391108 8 6
5.9581928 1.3678923 1.4113429 10 14
5.822104 1.3345097 -0.10426068 9 7
5.97153 1.3665667 1.6414305 31 15
3.4991283 0.79113084 -0.961254 1 0
5.9688926 1.3473363 0.10680873 9 8
4.1688676 0.94026071 -0.98663533 1 1
5.9720664 1.344767 0.32081944 9 9
5.1353168 1.1544702 -1.0231179 1 2
5.9873667 1.3449188 0.53687936 9 10
6.0167375 1.3471049 0.75705242 4 11
5.9782276 1.3373901 -0.75217766 0 4
5.9700255 1.3311768 -0.53513628 8 5
6.1435666 1.3687469 1.2234674 17 13
6.0204072 1.3391023 -0.3232269 8 6
6.1523609 1.366202 1.4549835 10 14
6.0167394 1.3349808 -0.10757664 9 7
6.1582203 1.3641202 1.6900884 28 15
3.5121155 0.76833284 -0.96332449 1 0
6.1539807 1.3440366 0.10995016 10 8
4.1486759 0.90531504 -0.98033673 1 1
6.1764574 1.3455579 0.33128664 9 9
5.1394143 1.1177564 -1.0223546 1 2
6.1776757 1.3424357 0.55309033 9 10
6.1986656 1.3424629 0.77874517 1 11
6.2338223 1.3489411 -0.78313243 23 4
2.187639 0.47258434 0.35448053 81 12
6.1719861 1.3310508 -0.55239308 7 5
6.3314586 1.364283 1.2589579 19 13
6.2190108 1.3377849 -0.33338007 8 6
6.3751435 1.3690398 1.5053725 10 14
6.2292523 1.336576 -0.11120673 9 7
6.3678284 1.3639815 1.744958 28 15
3.5438542 0.74939203 -0.97057146 1 0
6.3647413 1.343583 0.11354536 2 8
4.1434536 0.87391865 -0.97763729 1 1
6.3909135 1.345613 0.3422772 36 9
6.4420319 1.3540248 -1.2795652 1 2
6.3974819 1.3434985 0.57191598 35 10
6.4206538 1.3460217 -1.0390378 1 3
2.2422223 0.46924213 0.28127447 5 11
6.4490542 1.348451 -0.80896878 23 4
2.1986194 0.45891574 0.35573202 79 12
6.3917823 1.3318225 -0.57121873 36 5
6.5541749 1.364466 1.3013173 17 13
6.4511232 1.3406633 -0.34531268 31 6
6.6058865 1.3704175 1.557561 10 14
6.4773169 1.3425695 -0.11546512 35 7
6.6098847 1.3676378 1.8086276 22 15
3.5073581 0.71613067 -0.95918339 1 0
6.6110544 1.3474416 0.11776884 31 8
4.1685495 0.84885913 -0.98213631 1 1
6.629148 1.3475114 0.35452381 37 9
6.636035 1.3464996 -1.3162005 1 2
6.6527414 1.3486806 0.59387922 33 10
6.6606798 1.3442398 -0.83431756 24 4
2.1940238 0.44199488 0.35448053 79 12
6.6528993 1.3378335 -0.59370488 30 5
6.7887416 1.3639208 1.3459667 18 13
6.6816101 1.3399677 -0.3571406 25 6
6.827394 1.3667288 1.6075002 7 14
6.6983056 1.3396683 -0.11923484 32 7
6.8503962 1.3676034 1.8717794 21 15
3.5691359 0.70282471 -0.97471261 1 0
6.8498726 1.3463752 0.1218527 37 8
4.1743741 0.81973642 -0.98213631 1 1
6.8657498 1.3457627 0.36666575 33 9
6.8841877 1.3468816 -1.3635212 1 2
6.8790426 1.3446286 0.61322778 7 10
2.2251737 0.43333644 0.27834961 46 11
6.8900886 1.3405467 -0.8618601 21 4
2.1815429 0.42365426 0.35197759 84 12
6.8928823 1.3360969 -0.61427367 34 5
7.0544481 1.366137 1.3967218 19 13
6.9339609 1.340293 -0.37011993 31 6
7.0797787 1.3659154 1.6646378 8 14
6.9509754 1.339807 -0.12356304 42 7
7.1329541 1.3723015 1.9463193 23 15
3.5473828 0.67285186 -0.96746564 1 0
7.05755 1.3360895 0.12537809 32 8
4.1991425 0.79419738 -0.98663533 1 1
7.0673118 1.3341051 0.37692359 22 9
5.0875888 0.95855141 -1.0063267 1 2
2.2517061 0.42383653 0.20045821 20 10
2.2379 0.41962042 0.27956831 9 11
7.1626854 1.3417549 -0.89476484 24 4
2.1766806 0.40696177 0.3507261 89 12
7.0528522 1.3160846 -0.62769562 13 5
7.3282242 1.3661464 1.4490036 16 13
7.1139784 1.323637 -0.37922639 6 6
7.3727074 1.3691142 1.7312233 9 14
7.3931031 1.3688978 2.0146475 18 15
3.5139847 0.64113343 -0.95711285 1 0
4.1854124 0.76137269 -0.98213631 1 1
7.3594332 1.3361086 0.39199635 6 9
2.2310836 0.40384775 0.19836646 28 10
7.4587917 1.3474287 -1.2004782 1 3
2.2192855 0.40011239 0.27688718 9 11
7.4495311 1.3403826 -0.92937571 9 4
2.1833568 0.39245465 0.35135183 85 12
7.3834867 1.3245088 -0.65628272 4 5
7.592906 1.3593408 1.4993771 4 13
7.4454799 1.3316065 -0.39639258 6 6
7.6583385 1.3669173 1.7960092 9 14
7.4456477 1.3262731 -0.13201 6 7
7.6877756 1.3680185 2.0922933 19 15
3.5375116 0.61930293 -0.96228927 1 0
7.6625156 1.3400823 0.13577972 7 8
4.186914 0.73073304 -0.98123646 1 1
7.7092071 1.3426986 0.4101046 1 9
2.2437313 0.38957632 0.19923802 12 10
7.7212715 1.3378625 -1.2411512 1 3
2.2063766 0.38190058 0.27493724 9 11
7.8636246 1.3582877 -0.97982955 0 4
7.7126026 1.3280435 -0.68469548 8 5
2.1554759 0.37037858 0.42512247 45 13
7.7914362 1.3360144 -0.41429147 18 6
7.984621 1.3677057 1.870243 15 14
7.8174095 1.3362551 -0.13843249 25 7
8.0058727 1.3655899 2.1761506 21 15
3.5531802 0.59651041 -0.96539509 1 0
7.9914074 1.3387393 0.1414343 25 8
4.1726933 0.69826871 -0.97673744 1 1
2.2674501 0.37862822 0.12047738 3 9
8.1625795 1.3600929 -1.6085199 0 2
2.2365696 0.37226811 0.19836646 69 10
8.0383148 1.3350583 -1.2905844 1 3
2.2090528 0.36610234 0.27493724 9 11
2.1847889 0.36090592 0.3507261 9 12
8.0580702 1.3282297 -0.71450275 23 5
2.1638203 0.35627836 0.42626733 62 13
8.117877 1.3337224 -0.43114361 27 6
8.3115101 1.3625518 1.9444768 18 14
8.1403198 1.3330328 -0.14398235 26 7
8.3469543 1.3638752 2.2662196 19 15
3.5687017 0.57353097 -0.96850091 1 0
8.361887 1.3408563 0.14782189 27 8
4.2005568 0.67282134 -0.98213631 1 1
2.2601769 0.36121321 0.11995402 69 9
2.2410817 0.35695827 0.19854078 99 10
8.3868971 1.3328546 -1.3450238 1 3
2.2154758 0.3512941 0.27542472 9 11
8.4033575 1.3309602 -1.0446641 8 4
2.1774993 0.34410375 0.34916177 10 12
8.3840075 1.3219006 -0.74256694 16 5
2.1701336 0.34177524 0.42703056 36 13
8.4111118 1.3216569 -0.44621637 10 6
8.6615849 1.3579166 2.0241096 19 14
8.4240389 1.3191693 -0.14883412 8 7
8.7189236 1.3622292 2.3645709 21 15
3.5382485 0.54332489 -0.95918339 1 0
4.1897411 0.64112133 -0.97853714 1 1
2.2665925 0.34602717 0.12016336 90 9
5.2034774 0.79252791 -1.0231179 1 2
2.2257915 0.33860588 0.19697197 75 10
10.163506 1.5352696 -1.2620791 1 4
2.1759422 0.32830414 0.34853604 10 12
10.130745 1.5248963 -0.89630961 23 5
2.1666989 0.32536274 0.42588571 12 13
10.16223 1.5241947 -0.53853709 12 6
9.0543833 1.3548059 2.1136403 18 14
10.175689 1.5189558 -0.17958528 47 7
9.1237421 1.3602962 2.4717219 23 15
2.6665699 0.38996151 -0.72210521 1 0
2.2873769 0.33410028 0.040349964 21 8
4.2482162 0.6189912 -0.99113435 1 1
2.27494 0.33066186 0.12047738 49 9
5.1816831 0.75223267 -1.0177752 1 2
2.2202702 0.3215287 0.19627473 72 10
2.2064118 0.31834245 0.27371857 76 11
10.205413 1.4688071 -1.2659788 1 4
2.1821463 0.31328651 0.34916177 11 12
2.9104908 0.41526034 -0.15407708 7 6
9.4822683 1.3512186 2.2112689 22 14
10.184065 1.4475926 -0.17955035 14 7
9.2805233 1.3158559 2.5115802 31 15
2.6156516 0.36388251 -0.70761132 33 0
2.2996128 0.31909788 0.040524486 19 8
2.6638036 0.36915973 -0.62086493 19 1
2.2692795 0.31367785 0.1200587 8 9
5.186933 0.7151342 -1.0177752 1 2
2.2244349 0.30629224 0.19644904 67 10
2.2007663 0.30146796 0.27274361 85 11
2.1862376 0.29831171 0.34947464 14 12
2.9869511 0.40650553 -0.2637333 31 5
2.151577 0.2924349 0.42206952 90 13
2.879673 0.3903701 -0.15229765 35 6
9.9764185 1.3488677 2.3241944 20 14
10.17807 1.3743186 -0.17927112 4 7
9.2913971 1.2512958 2.5120978 35 15
2.5740776 0.3397992 -0.69570565 50 0
2.2938542 0.30199173 0.04038487 10 8
2.6296053 0.34572864 -0.61231679 28 1
2.2694335 0.29756793 0.11995402 9 9
5.1723323 0.67635953 -1.0139591 1 2
2.2028177 0.28609529 0.27274361 85 11
3.1241739 0.40520537 -0.38681334 10 4
2.1843488 0.28253376 0.34884888 62 12
2.9699554 0.38309526 -0.26199016 46 5
2.1613548 0.27840912 0.42359596 87 13
2.8882711 0.37102151 -0.15261166 65 6
10.321924 1.3222716 2.4024773 50 14
2.3385832 0.29916519 -0.041152775 0 7
9.2979908 1.1861547 2.5115802 34 15
2.5610514 0.31990361 -0.6915645 61 0
2.2959065 0.28597024 0.04038487 27 8
2.6010137 0.32351235 -0.60511833 33 1
2.2496529 0.27901301 0.11880264 10 9
5.1496501 0.63686234 -1.0086164 1 2
2.2304716 0.27544835 0.19662334 9 10
2.204761 0.27071083 0.27274361 87 11
3.1269264 0.38338614 -0.38681334 56 4
2.1705816 0.26536059 0.34634593 11 12
2.8776257 0.35077962 -0.25362319 52 5
2.1632457 0.26331431 0.42359596 87 13
2.8610501 0.34723899 -0.15104158 62 6
10.673333 1.2916121 2.48211 19 14
9.3022099 1.120747 2.510545 33 15
2.5306065 0.29817328 -0.68276465 51 0
2.2899027 0.26900268 0.040245246 70 8
2.6051445 0.30557302 -0.60556823 39 1
2.2555132 0.26376569 0.11901198 12 9
2.9153185 0.33989221 -0.57051897 1 2
2.214529 0.25779766 0.19505455 10 10
2.9491956 0.3422769 -0.47024205 30 3
2.2065973 0.25531209 0.27274361 82 11
3.1137509 0.35972267 -0.38486344 47 4
2.170419 0.24997461 0.3460331 10 12
2.8602107 0.32840875 -0.25188008 51 5
2.1669817 0.24842919 0.42397761 92 13
2.8673732 0.32771018 -0.15125093 66 6
10.684025 1.2172923 2.4825597 4 14
2.3167026 0.26354569 -0.040699009 80 7
9.3078861 1.0555648 2.5100274 33 15
2.5384357 0.28069401 -0.68431759 49 0
2.2877936 0.25217146 0.040175438 87 8
2.5956419 0.2856442 -0.6028688 41 1
2.8318045 0.30963406 -0.55372775 13 2
2.2123559 0.24151182 0.19470593 10 10
2.9240766 0.31817403 -0.46586189 74 3
2.2004735 0.23865932 0.27176866 87 11
2.9485488 0.31875291 -0.36414564 53 4
2.170188 0.23422506 0.3457202 11 12
2.8406968 0.30558899 -0.24996266 57 5
2.1453199 0.23002613 0.41939822 92 13
2.3026648 0.24486476 -0.040419776 79 7
9.3152018 0.98893201 2.5100274 33 15
2.5480661 0.26331654 -0.68638813 48 0
2.2875094 0.23598829 0.040140536 93 8
2.5937426 0.2666643 -0.601969 41 1
2.259057 0.23145935 0.11901198 100 9
2.8260851 0.28905639 -0.55220127 23 2
2.2179918 0.22607739 0.19505455 10 10
2.894834 0.29404768 -0.46085599 49 3
2.1922112 0.22228998 0.27054995 68 11
2.8875008 0.29177547 -0.35634598 74 4
2.1737742 0.21888748 0.3460331 10 12
2.8427608 0.2857511 -0.24996266 60 5
2.1488268 0.21523902 0.41977981 84 13
2.1291742 0.21214461 0.49399251 87 14
2.3082979 0.22917828 -0.040489584 45 7
9.3258858 0.92262906 2.5110626 33 15
2.5902243 0.24941085 -0.69725859 39 0
2.287149 0.21942224 0.04010563 87 8
2.6013606 0.24910738 -0.60331875 37 1
2.2467 0.21435465 0.11827926 88 9
2.8300357 0.26901177 -0.55258286 50 2
2.2234828 0.21096484 0.19540317 10 10
2.8692842 0.27122682 -0.45647582 52 3
2.1957221 0.20678332 0.27079371 90 11
2.8835857 0.27054921 -0.35561478 59 4
2.1752493 0.20370635 0.3460331 12 12
2.8427491 0.26521641 -0.24978836 56 5
2.1092925 0.19493054 0.48904356 43 14
2.3078873 0.21247129 -0.040454678 8 7
9.3378696 0.8580299 2.5126152 34 15
2.5823214 0.230011 -0.69467032 39 0
2.6263704 0.23254859 -0.60871756 35 1
2.2441976 0.19792122 0.11806992 86 9
2.8338003 0.24941996 -0.55296451 57 2
2.2289052 0.19539656 0.19575179 29 10
2.8495045 0.24879906 -0.45303425 64 3
2.1951344 0.19127795 0.27054995 94 11
2.8596945 0.24818021 -0.35244617 50 4
2.166811 0.18728487 0.34446874 11 12
2.1575232 0.1853441 0.42092466 10 13
2.3362474 0.19987726 -0.12288483 11 6
2.1183689 0.18086326 0.49084321 10 14
2.2913818 0.19483037 -0.040140536 8 7
9.3514709 0.79183966 2.5146859 36 15
2.5954165 0.21292639 -0.69777614 45 0
2.2979944 0.18771859 0.040245246 10 8
2.6628911 0.21705842 -0.61681581 34 1
2.2514968 0.18273365 0.11838394 95 9
2.8237712 0.22818658 -0.5506748 73 2
2.2123415 0.17838988 0.19418299 85 10
2.841327 0.22810797 -0.45146993 52 3
2.2023835 0.17603956 0.27128118 90 11
2.8415697 0.22663015 -0.35000879 54 4
2.1700346 0.17231052 0.34478158 21 12
2.3576112 0.18637682 -0.20690772 57 5
2.162679 0.17058702 0.4216879 12 13
2.1234944 0.1660037 0.491743 11 14
2.3006608 0.17945078 -0.040280156 9 7
9.3490667 0.72593659 2.5126152 37 15
2.698941 0.20246089 -0.72521096 27 0
2.2813017 0.17033207 0.039931107 11 8
2.6915486 0.20048928 -0.62311447 38 1
2.2606847 0.16760147 0.11880264 91 9
2.8233373 0.20832424 -0.55029315 75 2
2.2254548 0.16381808 0.19522884 27 10
2.8054183 0.20552528 -0.44552541 60 3
2.1956394 0.16008236 0.27030623 90 11
2.8252635 0.20549205 -0.34781513 63 4
2.1633041 0.15658619 0.34353012 76 12
2.3489184 0.1691962 -0.20603617 71 5
2.1501095 0.15449955 0.41901657 12 13
2.3507638 0.16809201 -0.12351287 92 6
2.1246016 0.15117587 0.491743 13 14
9.3539066 0.66065454 2.5126152 36 15
2.8833919 0.19606441 -0.77438658 45 0
2.2764497 0.15399542 0.039826389 12 8
2.7239916 0.18379281 -0.63031286 38 1
2.2598071 0.15168107 0.11869796 84 9
2.8188465 0.18821616 -0.54914832 84 2
2.2265441 0.14827746 0.19522884 11 10
2.7949584 0.18515132 -0.44364822 60 3
2.1808572 0.1437058 0.26835632 87 11
2.798898 0.18394053 -0.34440279 30 4
2.1663158 0.14160852 0.34384301 94 12
2.3639598 0.15369953 -0.20725635 49 5
2.3160036 0.14936388 -0.12162878 81 6
2.3169112 0.14820434 -0.040524486 85 7
9.360219 0.59545857 2.5131328 35 15
2.9251838 0.17840077 -0.78525704 61 0
2.2814615 0.13834113 0.039896201 12 8
2.7602217 0.16688958 -0.6384111 61 1
2.8200917 0.16853233 -0.54914832 79 2
2.2136033 0.1319001 0.19400868 10 10
2.792239 0.1654007 -0.44302243 63 3
2.1857705 0.12871043 0.2688438 85 11
2.3879242 0.14019619 -0.29370514 67 4
2.1751397 0.12694168 0.34509447 94 12
2.3749204 0.13776916 -0.2081279 7 5
2.1402972 0.12378389 0.41672686 87 13
2.3090141 0.132733 -0.12121009 85 6
2.1089952 0.12049641 0.48769391 81 14
2.3019176 0.1311159 -0.040245246 98 7
9.3602905 0.52987903 2.5120978 25 15
2.9552939 0.15953542 -0.79302156 33 0
2.280375 0.12230307 0.039861299 12 8
2.7476981 0.14688604 -0.63526177 57 1
2.2357767 0.11873721 0.11733723 38 9
2.8074758 0.14811757 -0.54647696 67 2
2.2085013 0.11612915 0.19348574 10 10
2.7933254 0.14590451 -0.44302243 64 3
2.3848798 0.12331804 -0.29321766 24 4
2.1522996 0.11053743 0.34134007 98 12
2.3618958 0.12047528 -0.20690772 7 5
2.1528735 0.1094368 0.41901657 89 13
2.1058922 0.10557476 0.48679405 87 14
2.2947884 0.11464319 -0.04010563 94 7
9.3695498 0.46480611 2.5136507 5 15
2.7228391 0.12792917 -0.73038733 30 0
2.7583897 0.1281521 -0.63751125 54 1
2.2425365 0.10340272 0.11765125 100 9
2.7986355 0.12806404 -0.5445689 59 2
2.213239 0.10089059 0.19383438 10 10
2.8021698 0.1267556 -0.44427395 66 3
2.1933041 0.098446563 0.269575 12 11
2.3995645 0.10728496 -0.29492384 62 4
2.1569657 0.095683947 0.34196579 98 12
2.3527269 0.10354631 -0.20603617 7 5
2.3286006 0.10126298 -0.12215213 9 6
2.1143658 0.091206223 0.4885937 83 14
2.2875412 0.098277524 -0.039966013 85 7
2.6966414 0.10783765 -0.72314042 47 0
2.2798619 0.090373762 0.039826389 94 8
2.759217 0.1088931 -0.63751125 53 1
2.2432039 0.087744348 0.11765125 100 9
2.7955377 0.10837065 -0.54380566 61 2
2.2138894 0.085436821 0.19383438 57 10
2.7931166 0.10681224 -0.44270959 69 3
2.1919539 0.083057888 0.26933128 12 11
2.4696836 0.093148857 -0.30345467 46 4
2.165477 0.080919236 0.34321725 59 12
2.3533924 0.087117538 -0.20603617 7 5
2.1404581 0.078862123 0.41634527 12 13
2.3212674 0.084711358 -0.12173345 9 6
2.1188459 0.076583721 0.48949349 87 14
2.2941666 0.082519621 -0.040070724 88 7
2.0677021 0.073651202 0.55439043 80 15
2.7031212 0.089200057 -0.72469336 57 0
2.2744415 0.074258275 0.039721675 96 8
2.7482235 0.089247979 -0.63481188 53 1
2.2497504 0.072273001 0.11796526 100 9
2.796226 0.088852808 -0.54380566 59 2
2.2024832 0.069600239 0.1927885 85 10
2.7997174 0.087496452 -0.44364822 61 3
2.1904964 0.067691825 0.26908755 14 11
2.8095646 0.086331792 -0.34513399 57 4
2.1620402 0.065679424 0.34259152 14 12
2.3559349 0.070745438 -0.20621049 63 5
2.1331072 0.063682638 0.41481876 13 13
2.3198056 0.068444878 -0.12162878 8 6
2.1154332 0.061676946 0.4885937 89 14
2.3006837 0.066675097 -0.040175438 94 7
2.077821 0.05949156 0.55697864 35 15
2.2589121 0.057968553 0.039442439 30 8
2.4624081 0.062760673 -0.56867629 26 1
2.2302339 0.056064181 0.11691854 91 9
2.2108827 0.054419465 0.19348574 94 10
2.1829774 0.05220674 0.26811257 16 11
2.3655732 0.05574856 -0.29053652 20 4
2.3643389 0.054480907 -0.20690772 70 5
2.1393964 0.048550475 0.41596362 13 13
2.3182302 0.052204058 -0.1215241 9 6
2.1080191 0.046734169 0.48679405 94 14
2.080117 0.045025986 0.55749625 15 15
2.5070982 0.047263581 -0.67189431 2 0
2.2692587 0.042383678 0.039616965 10 8
2.4452586 0.044817086 -0.56462717 33 1
2.2405627 0.040283076 0.1174419 51 9
2.4674199 0.043930981 -0.47969386 6 2
2.2052391 0.038493037 0.1929628 84 10
2.4372587 0.041692033 -0.38608032 6 3
2.1872582 0.037033666 0.26860005 15 11
2.3718593 0.039331127 -0.29126775 30 4
2.1430016 0.034787908 0.33946282 99 12
2.3467324 0.037685465 -0.20533893 70 5
2.1494982 0.033766657 0.41787171 13 13
2.3125534 0.035520721 -0.12121009 9 6
2.108294 0.032015275 0.48679405 31 14
2.283401 0.033877157 -0.039861299 8 7
2.0861809 0.030223813 0.55904913 15 15
2.6676993 0.03166382 -0.71485823 50 0
2.2815011 0.026282361 0.039826389 11 8
2.4825354 0.028164914 -0.57317531 30 1
2.2407894 0.024640018 0.1174419 11 9
2.4794495 0.026398817 -0.48198354 30 2
2.1974852 0.023013176 0.19226557 90 10
2.8048913 0.028395105 -0.44427395 20 3
2.1874673 0.021381058 0.26860005 27 11
2.4991205 0.023554876 -0.30686703 28 4
2.1510935 0.019898159 0.34071434 91 12
2.3389726 0.020820731 -0.20464167 73 5
2.1437953 0.01833499 0.41672686 13 13
2.3367112 0.019577082 -0.12246615 23 6
2.114315 0.016975798 0.48814377 16 14
2.2975824 0.017644143 -0.04010563 21 7
2.0747502 0.015571794 0.55594331 18 15
2.6813803 0.012637127 -0.71848166 57 0
2.2656317 0.010281245 0.039547153 12 8
2.7515972 0.011527378 -0.63526177 49 1
2.2369137 0.008589332 0.11723255 12 9
2.4893899 0.0091255195 -0.48389161 21 2
2.193609 0.0072745327 0.19191694 90 10
2.8583574 0.0084812939 -0.45272139 61 3
2.1955037 0.0061313119 0.269575 18 11
2.8724201 0.0070191049 -0.35268989 86 4
2.1590822 0.0045213276 0.34196579 92 12
2.3350763 0.0044834651 -0.20429306 76 5
2.1262019 0.0033392599 0.41329232 13 13
2.3208132 0.0028359396 -0.12162878 70 6
2.1085358 0.0022075523 0.48679405 34 14
2.2676542 0.0015837108 -0.039582059 60 7
2.0728767 0.00072415289 0.5554257 18 15
2.683336 -0.0056199734 -0.71899933 51 0
2.7555094 -0.0072139218 -0.63616157 50 1
2.2389176 -0.0066430215 0.11733723 12 9
2.8388505 -0.0094140191 -0.55181968 94 2
2.2015769 -0.0076849838 0.19261418 84 10
2.6785913 -0.010285102 -0.42425033 9 3
2.1796124 -0.0091299918 0.26762509 13 11
2.8505657 -0.012438018 -0.35000879 23 4
2.1630135 -0.010193037 0.34259152 92 12
2.3390353 -0.011839023 -0.20464167 73 5
2.3227763 -0.012972965 -0.12173345 86 6
2.1084998 -0.012512237 0.48679405 88 14
2.2976072 -0.014035458 -0.04010563 82 7
2.0728338 -0.013385962 0.5554257 18 15
2.6967537 -0.02447563 -0.72262281 46 0
2.2735529 -0.021428363 0.039686773 90 8
2.765135 -0.026544208 -0.6384111 44 1
2.230828 -0.022193849 0.11691854 12 9
2.8838677 -0.029697513 -0.56059688 65 2
2.2174079 -0.023221487 0.19400868 48 10
2.6468499 -0.02864279 -0.41924441 28 3
2.1814804 -0.024368385 0.26786885 13 11
2.7749808 -0.031482507 -0.34074673 46 4
2.1549888 -0.025200952 0.34134007 91 12
2.3548334 -0.028360093 -0.20603617 42 5
2.1280091 -0.025999829 0.41367394 89 13
2.2966666 -0.028862283 -0.12037271 49 6
2.0927725 -0.02703057 0.48319483 95 14
2.2894552 -0.029970612 -0.039966013 85 7
2.0804164 -0.027960474 0.55749625 21 15
2.7139018 -0.043580946 -0.72728157 40 0
2.275347 -0.037332911 0.039721675 96 8
2.8135943 -0.046655435 -0.64965868 19 1
2.2266247 -0.037699673 0.11670919 12 9
2.8894794 -0.049931582 -0.56174171 48 2
2.2132077 -0.038631681 0.19366007 45 10
2.6604109 -0.047366593 -0.42143452 33 3
2.1812572 -0.039597269 0.26786885 12 11
2.7727084 -0.05081822 -0.34050298 58 4
2.1468599 -0.040097319 0.34008855 92 12
2.1317015 -0.040930763 0.41443717 89 13
2.2964094 -0.044895209 -0.12037271 10 6
2.104223 -0.041872729 0.48589426 98 14
2.2711966 -0.045591962 -0.039651867 42 7
2.734776 -0.063015863 -0.73297554 29 0
2.2710328 -0.053123262 0.039651867 99 8
2.2303007 -0.053338911 0.11691854 12 9
2.9420524 -0.071388416 -0.57204539 32 2
2.1929662 -0.053594939 0.19191694 99 10
2.6738386 -0.066281125 -0.4236246 29 3
2.19085 -0.055073664 0.26908755 13 11
2.7663326 -0.070023291 -0.33977175 54 4
2.3303075 -0.060614254 -0.20394444 13 5
2.1372516 -0.055965908 0.41558203 92 13
2.3160052 -0.061455734 -0.12141944 10 6
2.1038792 -0.056561839 0.48589426 94 14
2.2768197 -0.061608933 -0.039756581 8 7
9.3891373 -0.25734246 2.5167565 31 15
2.886817 -0.086687319 -0.77386898 43 0
2.2626116 -0.068733774 0.039512251 99 8
3.0425124 -0.092957169 -0.70274711 34 1
2.1885557 -0.068778135 0.19156833 87 10
2.6989779 -0.08576186 -0.42769188 15 3
2.190412 -0.070367202 0.26908755 14 11
2.787601 -0.090039 -0.34245288 33 4
2.1559627 -0.070390567 0.3416529 13 12
2.3557146 -0.077735499 -0.20621049 79 5
2.109338 -0.069973953 0.41023937 30 13
2.3115277 -0.077489041 -0.12121009 10 6
2.0995381 -0.071116246 0.48499447 98 14
2.2783329 -0.07757055 -0.039791487 9 7
9.3851805 -0.32281774 2.5162387 35 15
2.9324744 -0.10855396 -0.78629225 47 0
2.2580798 -0.084378615 0.039442439 99 8
3.0339999 -0.11390303 -0.70094746 74 1
2.2333302 -0.084624812 0.11712788 94 9
5.1340842 -0.19633424 -0.9986943 1 2
2.192004 -0.084208302 0.19191694 90 10
2.1759822 -0.085114211 0.26738134 17 11
2.1514711 -0.085283704 0.34102717 14 12
2.3352065 -0.093383364 -0.20446737 39 5
2.1205685 -0.085170828 0.41252908 16 13
2.1145673 -0.086408466 0.4885937 69 14
2.2897236 -0.093966253 -0.040000916 9 7
9.3865595 -0.38849005 2.5172741 35 15
2.9470847 -0.12970321 -0.79043341 61 0
2.2634292 -0.10040668 0.039547153 100 8
3.044812 -0.13560161 -0.7036469 24 1
2.2306898 -0.10012466 0.11702321 46 9
5.2031932 -0.23536561 -1.0124326 1 2
2.1993239 -0.099870712 0.19261418 87 10
2.1674032 -0.099937491 0.26640642 98 11
39.710945 -1.8379906 -4.8811111 3 4
2.1606894 -0.1007617 0.34259152 14 12
2.1336496 -0.10062037 0.41520041 13 13
2.3182003 -0.11013458 -0.12162878 96 6
10.775892 -0.51571816 2.490658 33 14
2.2830198 -0.1096613 -0.039896201 9 7
9.3932657 -0.4544774 2.5198622 36 15
3.0618682 -0.1561791 -0.82149172 43 0
2.2379148 -0.11610918 0.1174419 11 9
5.1700535 -0.27004623 -1.0063267 1 2
2.1945939 -0.1150138 0.19226557 84 10
18.730156 -0.98816198 -2.970691 1 3
2.1686351 -0.11517155 0.26665017 96 11
18.649294 -0.99368811 -2.2930937 1 4
2.1461256 -0.11510303 0.34040144 21 12
18.627621 -1.0055752 -1.6320785 4 5
2.1328952 -0.11551347 0.41520041 59 13
2.3014207 -0.1254462 -0.1207914 93 6
10.770083 -0.59082812 2.4902081 33 14
2.2722151 -0.12504755 -0.039721675 9 7
9.389864 -0.52004313 2.5198622 33 15
3.1031325 -0.18001232 -0.83287972 7 0
2.2677956 -0.13234881 0.039651867 13 8
4.215704 -0.24676725 -0.97493786 1 1
2.2210991 -0.13079058 0.11660452 12 9
5.1288466 -0.30381131 -0.9986943 1 2
2.185782 -0.12985939 0.19156833 39 10
13.599911 -0.81274766 -2.1578572 1 3
2.179667 -0.13102321 0.26811257 94 11
2.1413262 -0.12984379 0.33977571 80 12
13.298401 -0.81103534 -1.1656209 7 5
2.139852 -0.13125384 0.41672686 27 13
2.3164368 -0.14249097 -0.12162878 93 6
10.767641 -0.66612285 2.490658 33 14
2.275254 -0.14155221 -0.039791487 8 7
9.378293 -0.58510244 2.5177917 36 15
3.5605719 -0.23212402 -0.95607764 1 0
2.2548435 -0.14739501 0.039442439 42 8
4.2021627 -0.27616087 -0.97223842 2 1
2.2320638 -0.14747095 0.11723255 12 9
5.1657796 -0.34220511 -1.0063267 1 2
2.1867847 -0.14562944 0.19174263 11 10
13.495197 -0.90344757 -2.1422138 1 3
2.1846411 -0.14663567 0.2688438 95 11
13.162996 -0.88813132 -1.6198875 1 4
2.1403425 -0.14516333 0.33977571 99 12
13.1155 -0.89182538 -1.1501071 9 5
12.594342 -0.86080444 2.4538038 38 13
2.3034024 -0.15824193 -0.12100074 97 6
10.774393 -0.7420817 2.4933574 33 14
9.3738661 -0.65219653 2.5177917 36 15
3.5588646 -0.25697565 -0.95607764 2 0
2.2477477 -0.1630923 0.039337724 89 8
4.1729221 -0.30351138 -0.96593982 2 1
2.2269959 -0.16275881 0.11702321 12 9
5.1240392 -0.37628591 -0.9986943 1 2
2.1956499 -0.16162372 0.19261418 12 10
13.240342 -0.97928029 -2.1027923 1 3
2.1676989 -0.16108784 0.26689389 92 11
13.243579 -0.98649204 -1.630612 1 4
2.1530657 -0.16113402 0.34196579 91 12
13.273685 -0.99805337 -1.164575 18 5
12.337441 -0.92982239 2.4049568 23 13
2.2942753 -0.17371556 -0.12058206 93 6
10.772694 -0.81945753 2.4942572 33 14
2.2910008 -0.17467411 -0.04010563 89 7
9.3767891 -0.71821219 2.5198622 36 15
3.5531318 -0.28150955 -0.9550423 2 0
2.2525344 -0.17925631 0.039442439 96 8
4.1823568 -0.33356589 -0.96863925 1 1
5.1604257 -0.415198 -1.0063267 1 2
2.1984396 -0.17726846 0.1929628 12 10
13.284375 -1.0758365 -2.1109269 1 3
2.1645432 -0.17605628 0.26665017 100 11
13.311552 -1.0850533 -1.639874 1 4
13.294193 -1.0929817 -1.1670153 20 5
11.315161 -0.93226379 2.206897 27 13
2.2910163 -0.18956356 -0.12047738 89 6
10.756999 -0.89383763 2.4920077 15 14
2.2817545 -0.19000016 -0.039966013 85 7
9.3753967 -0.78397846 2.5208976 36 15
3.5914991 -0.30979449 -0.9659127 2 0
2.2651739 -0.19618532 0.039686773 100 8
4.1721606 -0.36208192 -0.96683967 1 1
2.2125683 -0.19279644 0.11639518 100 9
5.1182861 -0.44779196 -0.9986943 1 2
2.2011185 -0.19296001 0.19331144 12 10
10.891604 -0.95863861 -1.7317297 1 3
2.1731482 -0.1920369 0.26786885 71 11
10.883368 -0.96365666 -1.3415378 1 4
10.422471 -0.92651373 1.657267 14 12
10.738139 -0.95835334 -0.94319946 9 5
10.358027 -0.92625141 2.0214307 21 13
10.224521 -0.92150861 2.3700843 17 14
2.2564733 -0.2037669 -0.039547153 35 7
9.3735428 -0.84976017 2.5219328 37 15
3.5546257 -0.33162996 -0.95659518 2 0
2.2557852 -0.21124852 0.039547153 78 8
4.1850529 -0.3926563 -0.97043884 2 1
2.2211106 -0.20917454 0.11691854 100 9
5.1150351 -0.48351318 -0.9986943 1 2
2.1798825 -0.20644343 0.19156833 12 10
10.243563 -0.97371352 -1.6297344 1 3
2.1717544 -0.20720354 0.26786885 72 11
10.212411 -0.97614801 -1.2596416 2 4
9.6567373 -0.92643607 1.5364995 18 12
10.213568 -0.98345464 -0.89770412 11 5
9.5696354 -0.92313677 1.8687835 28 13
2.3000741 -0.22268748 -0.12110542 9 6
9.4885473 -0.92200089 2.2009211 17 14
2.2629569 -0.22028993 -0.039686773 7 7
9.3000879 -0.90860415 2.5038157 26 15
3.5330017 -0.35450888 -0.95141882 2 0
4.197721 -0.42342836 -0.97403812 1 1
2.2235703 -0.22507787 0.11712788 98 9
5.1623182 -0.52436912 -1.0086164 1 2
2.1803701 -0.22185841 0.19174263 12 10
9.0878191 -0.9311201 1.1216855 21 11
9.2495832 -0.94932544 -1.141672 1 4
8.974081 -0.92421514 1.4288726 13 12
9.1877899 -0.94946569 -0.80810803 6 5
8.8989983 -0.92119181 1.7390332 32 13
2.3183291 -0.24080288 -0.12215213 21 6
8.8151245 -0.91873002 2.0461547 17 14
2.2752862 -0.23753633 -0.039931107 9 7
8.701745 -0.91151935 2.344383 11 15
3.540045 -0.38019648 -0.95400703 2 0
2.2406867 -0.24143822 0.039337724 10 8
4.1714125 -0.45021409 -0.96863925 1 1
2.2219448 -0.24059571 0.11712788 95 9
8.8122473 -0.95731634 -1.7230054 0 2
8.6383638 -0.9430033 -1.3763106 1 3
8.5009489 -0.93100536 1.0500263 19 11
8.6448345 -0.94829023 -1.0678192 1 4
8.4038782 -0.92482764 1.3390791 14 12
8.6581221 -0.95586556 -0.76208979 12 5
8.3127966 -0.91920984 1.6256927 23 13
2.282845 -0.25323838 -0.12037271 53 6
8.2565107 -0.91882098 1.9179326 15 14
2.2815218 -0.25430092 -0.040070724 14 7
8.1787205 -0.9144997 2.2051384 18 15
3.5584171 -0.40731788 -0.95970106 2 0
2.2548399 -0.25889999 0.039616965 12 8
4.1449361 -0.47665325 -0.96324039 1 1
2.2122746 -0.25518635 0.11670919 91 9
8.2202759 -0.95111835 -1.6085199 0 2
8.0867882 -0.93710363 0.7122367 10 10
8.1410284 -0.94626898 -1.2980933 1 3
7.9815907 -0.93056077 0.98665434 15 11
7.8949537 -0.92465013 1.2589847 15 12
8.1090517 -0.95259464 -0.71432841 14 5
7.8187246 -0.91987258 1.5302882 25 13
2.3127573 -0.27291429 -0.12204745 60 6
7.7506056 -0.91734463 1.8018579 15 14
7.7021427 -0.91569823 2.0783172 18 15
3.5439801 -0.43075165 -0.95659518 2 0
2.2629025 -0.27584514 0.039791487 12 8
4.1569829 -0.50746763 -0.96683967 1 1
2.2064743 -0.27013919 0.11649985 95 9
7.6600275 -0.94053316 -1.5001404 1 2
7.6074276 -0.93542248 0.67057627 22 10
7.5099607 -0.92876029 0.92913198 8 11
7.4354734 -0.92350155 1.186712 13 12
7.6000175 -0.94663221 -0.6700533 18 5
7.3932586 -0.92218941 1.4482403 16 13
7.5348587 -0.94252288 -0.39796266 15 6
7.2934871 -0.91491598 1.6970307 8 14
2.2678285 -0.28488496 -0.039896201 85 7
7.2432208 -0.91246295 1.9561545 16 15
3.5217259 -0.45301786 -0.95141882 2 0
2.2569547 -0.29112467 0.039721675 12 8
4.1726656 -0.53897262 -0.97133869 1 1
2.2223613 -0.28784549 0.1174419 76 9
7.2561069 -0.94240361 -1.4222903 1 2
7.1383862 -0.92838144 0.62978739 20 10
7.105689 -0.92917407 0.8798967 8 11
7.1606388 -0.93763071 -0.88672143 17 4
7.0273385 -0.92267126 1.1225739 12 12
7.1665497 -0.9434942 -0.63240206 19 5
6.9915185 -0.92169219 1.3707719 15 13
7.1142678 -0.94040102 -0.37608621 21 6
6.9044166 -0.91511405 1.6079501 7 14
2.2657843 -0.30071035 -0.039896201 98 7
6.8517642 -0.91178638 1.8521091 22 15
3.5184774 -0.47759292 -0.95141882 2 0
2.2449603 -0.30552566 0.039547153 12 8
4.1649389 -0.56756371 -0.97043884 1 1
6.8152442 -0.93114883 0.36049011 23 9
6.8953443 -0.94454467 -1.3528358 1 2
6.76261 -0.9275648 0.59719115 23 10
6.7253962 -0.92724454 0.83358634 12 11
6.8019257 -0.93900555 -0.8430922 14 4
6.6450348 -0.91971064 1.062503 13 12
6.7808795 -0.94092476 -0.59893423 21 5
6.6193328 -0.91968596 1.2990277 13 13
6.7297006 -0.93741488 -0.35609388 22 6
6.5446682 -0.91396964 1.5256181 8 14
2.2616491 -0.3162441 -0.039861299 88 7
6.4913001 -0.90998226 1.7563461 19 15
3.5265322 -0.50378388 -0.9545247 2 0
2.2130802 -0.31693858 0.039023582 38 8
4.1493011 -0.59496677 -0.9677394 2 1
6.4804058 -0.93153167 0.34311455 26 9
6.4649682 -0.93161619 -1.2696431 1 2
6.4345388 -0.92837769 0.5687784 28 10
6.3636332 -0.92041498 -1.0183885 1 3
6.3710341 -0.923756 0.79044467 11 11
6.4473243 -0.93711543 -0.79995042 16 4
6.3276415 -0.92084742 1.0127568 13 12
6.4311008 -0.93819606 -0.56860405 22 5
6.2842846 -0.91901833 1.2345343 19 13
6.3949451 -0.93634146 -0.33871832 26 6
6.2257781 -0.91379201 1.4527339 9 14
2.2632854 -0.33300206 -0.039931107 91 7
6.1694369 -0.90882277 1.6709359 20 15
3.5304785 -0.53015357 -0.95659518 2 0
6.1875095 -0.93025041 0.10921716 21 8
4.1468649 -0.62493354 -0.96818936 2 1
6.1417985 -0.92776328 0.32552966 26 9
5.0800691 -0.7682882 -0.9986943 1 2
6.1223989 -0.92811191 0.54176009 30 10
6.0602403 -0.92193538 0.7526651 12 11
6.1325274 -0.93512255 -0.76168346 14 4
6.0045524 -0.9177531 0.96207207 13 12
6.1407909 -0.93967301 -0.54350317 24 5
5.9963346 -0.91971034 1.1791997 15 13
6.093945 -0.93685907 -0.32312223 25 6
5.9284124 -0.91246992 1.3847986 6 14
2.2648578 -0.34940431 -0.040000916 91 7
5.8821287 -0.90955049 1.594843 18 15
3.519058 -0.55358702 -0.9545247 2 0
5.9021778 -0.9305898 0.10429558 27 8
4.1327763 -0.65234947 -0.96593982 2 1
5.8550448 -0.92630053 0.31066626 26 9
5.074441 -0.80462044 -0.9986943 1 2
5.8186398 -0.92366415 0.51543909 24 10
5.7868829 -0.92276525 0.71951669 14 11
5.8396492 -0.93222439 -0.72609758 17 4
5.7288208 -0.91658288 0.91889614 17 12
5.850625 -0.93816561 -0.51840234 12 5
5.7319555 -0.9201628 1.1284446 20 13
5.8190775 -0.93623233 -0.30888686 27 6
5.642767 -0.90988648 1.3195629 8 14
2.2485445 -0.36297664 -0.039756581 85 7
5.6219974 -0.909558 1.5259972 19 15
3.5151074 -0.57814103 -0.9545247 2 0
5.6271996 -0.92754114 0.099548534 26 8
4.1569629 -0.68594468 -0.97268838 2 1
5.5922704 -0.92479163 0.29705891 22 9
5.0687003 -0.84002674 -0.9986943 1 2
5.5408077 -0.91926199 0.49138409 23 10
5.5394549 -0.92301166 0.68953681 15 11
5.5667057 -0.92855096 -0.69294918 16 4
5.4631529 -0.91323805 0.87728459 18 12
5.5570416 -0.93092698 -0.49295285 14 5
5.448513 -0.91372359 1.073873 16 13
5.5287719 -0.92916751 -0.29381409 22 6
5.3922248 -0.90815479 1.2624253 7 14
2.2321527 -0.3763383 -0.039512251 27 7
5.3526411 -0.90437061 1.4545631 16 15
3.5109856 -0.6026668 -0.9545247 2 0
5.3466525 -0.91968375 0.094696753 25 8
4.1271062 -0.71064979 -0.96683967 1 1
5.3376884 -0.92101955 0.28387025 23 9
5.0627127 -0.8753922 -0.9986943 1 2
5.2927809 -0.91612476 0.46994376 26 10
5.3504248 -0.92802596 -0.86007679 7 3
5.280581 -0.9178105 0.65809447 15 11
5.3430033 -0.9296208 -0.66589415 13 4
5.2309055 -0.91199839 0.8409918 15 12
5.3227382 -0.92992389 -0.47273275 20 5
5.2021971 -0.90980011 1.0265524 7 13
5.2939458 -0.92775041 -0.28167215 25 6
5.1496701 -0.90431941 1.2070874 4 14
5.2624965 -0.92507917 -0.09326566 25 7
5.1235971 -0.90250629 1.3939995 9 15
3.4971843 -0.62546265 -0.95193648 2 0
5.1137428 -0.91642237 0.0906827 22 8
4.1124539 -0.73772442 -0.96459007 2 1
5.1247244 -0.92115998 0.27287969 8 9
5.1221714 -0.92254698 -1.0116693 1 2
5.1156693 -0.92229772 0.45477867 14 10
5.161088 -0.93234646 -0.83066714 7 3
5.1080098 -0.92459935 0.63737667 9 11
5.1195683 -0.92761439 -0.63883913 7 4
5.1252871 -0.93049854 0.82503545 10 12
5.1024528 -0.92819279 -0.45373279 12 5
5.1242533 -0.93308258 1.0124326 13 13
5.0967522 -0.9299131 -0.27151898 22 6
5.1355634 -0.93884665 1.2052878 6 14
5.1064157 -0.93443912 -0.090612896 21 7
5.1228719 -0.93929863 1.3955523 9 15
3.5212214 -0.65516287 -0.95970106 2 0
5.1052547 -0.95173389 0.090647802 21 8
4.1014557 -0.76534402 -0.96324039 1 1
5.1044259 -0.95434529 0.272147 15 9
5.065434 -0.9488852 -1.0017474 5 2
5.1091056 -0.95798916 0.45477867 13 10
5.086503 -0.95558906 -0.81971669 9 3
5.0994802 -0.95987004 0.63713294 9 11
5.0932922 -0.96054626 -0.63640177 11 4
5.1050787 -0.96369177 0.8228454 11 12
5.1036792 -0.96527284 -0.45443004 15 5
5.1232324 -0.97082323 1.0135775 14 13
5.0901361 -0.9654721 -0.27151898 22 6
5.1135683 -0.971766 1.2016885 6 14
5.0995984 -0.97095561 -0.090612896 24 7
5.1085987 -0.97359335 1.3934819 10 15
3.4974763 -0.67667359 -0.9545247 2 0
5.1004491 -0.98773211 0.0906827 19 8
4.1303096 -0.80135477 -0.97133869 1 1
5.0896239 -0.98932272 0.27172831 15 9
5.0509772 -0.9827255 -1.0002208 5 2
5.1021199 -0.99452436 0.45477867 15 10
5.0834126 -0.99271989 -0.82034248 9 3
5.0926547 -0.99544746 0.63713294 10 11
5.0728259 -0.99341011 -0.63469559 10 4
5.1058059 -1.0017191 0.82409686 11 12
5.0811758 -0.99780804 -0.45303556 13 5
5.1317406 -1.0095981 1.0166303 13 13
5.0752587 -1.0003264 -0.27110028 18 6
4.5502996 -0.89768279 1.070767 0 14
5.0828867 -1.0045949 -0.090438366 16 7
5.1223469 -1.0142519 1.3991758 9 15
3.4794087 -0.69841254 -0.95090121 2 0
5.1030526 -1.0261756 0.09085723 18 8
4.113152 -0.82786292 -0.96863925 1 1
5.0943403 -1.0271991 0.27235636 15 9
5.0399675 -1.0180666 -0.9994576 5 2
5.0891938 -1.0289347 0.45425573 15 10
5.0802307 -1.0289686 -0.82096815 9 3
5.110692 -1.0369955 0.64030159 9 11
5.0813303 -1.0319613 -0.63664556 9 4
5.0948167 -1.0365522 0.82347113 11 12
5.0739059 -1.0341423 -0.45303556 13 5
5.1341858 -1.0473616 1.0185385 12 13
5.0896764 -1.0401328 -0.27225167 16 6
4.5361233 -0.92865741 1.0689675 0 14
5.0737906 -1.039654 -0.090403467 20 7
5.1113567 -1.0492109 1.3981405 10 15
3.485796 -0.72504663 -0.95400703 2 0
5.0938072 -1.0613685 0.090822324 17 8
4.1301646 -0.86133182 -0.97403812 1 1
5.0929098 -1.0639644 0.27267036 14 9
5.0461884 -1.0560422 -1.002129 6 2
5.0877366 -1.0656642 0.45477867 15 10
5.0767899 -1.0652212 -0.82159394 9 3
5.1033278 -1.0726494 0.64030159 9 11
5.0856576 -1.0698622 -0.6381079 9 4
5.110651 -1.076983 0.82722551 10 12
5.0704608 -1.0703624 -0.45338416 14 5
5.1152234 -1.0807441 1.0162487 15 13
5.092061 -1.0777074 -0.27277502 15 6
4.4914021 -0.95221931 1.0599694 0 14
5.0840144 -1.0787859 -0.090717614 17 7
5.1076865 -1.0856723 1.3991758 45 15
3.478761 -0.74895763 -0.95348942 2 0
5.0882277 -1.0973253 0.09085723 34 8
4.13167 -0.89178914 -0.97583771 1 1
5.1107359 -1.1049802 0.27403107 64 9
5.0406117 -1.0916606 -1.0025105 7 2
5.0938029 -1.1041113 0.45599884 34 10
5.0730901 -1.1014757 -0.82221961 9 3
5.087956 -1.1065633 0.63932663 15 11
5.0780644 -1.1053404 -0.6381079 21 4
5.0779171 -1.107165 0.8231582 7 12
5.0764904 -1.1087103 -0.45460433 26 5
5.0442605 -1.1025938 1.0036553 8 13
5.0766091 -1.1115215 -0.27235636 70 6
4.4808378 -0.9827168 1.0590695 0 14
5.0978441 -1.1189685 -0.091101564 67 7
3.4866474 -0.77616394 -0.95711285 1 0
5.0238419 -1.1202002 0.089844987 9 8
4.0949125 -0.91382062 -0.96863925 1 1
5.0015411 -1.1179769 0.26858816 7 9
5.000299 -1.119532 -0.996023 13 2
4.9751525 -1.1148138 0.44606307 7 10
5.0421481 -1.1316744 -0.81846523 6 3
4.9503446 -1.1128851 0.62299615 6 11
5.0198698 -1.1294354 -0.63177073 6 4
4.9101191 -1.1065431 0.79719013 7 12
5.0161524 -1.1322788 -0.44989792 6 5
4.89856 -1.1066337 0.97617888 8 13
4.9752212 -1.1257776 -0.26733211 9 6
4.4776692 -1.0148362 1.0599694 0 14
4.9631476 -1.1257776 -0.088832751 8 7
3.9485371 -0.89708555 1.0849695 1 15
3.4547856 -0.79442519 -0.94986594 1 0
4.85221 -1.1175451 0.086912982 7 8
4.0884328 -0.94238603 -0.96863925 3 1
4.8379288 -1.1169238 0.26021439 7 9
4.8871584 -1.1300863 -0.975034 7 2
4.8080797 -1.1126846 0.43176955 7 10
4.8570833 -1.1258115 -0.78968132 5 3
4.7838936 -1.1106068 0.60300958 6 11
4.8569789 -1.1293608 -0.61227161 5 4
4.7522044 -1.1058725 0.77278632 7 12
4.8315501 -1.126115 -0.43403557 7 5
4.73948 -1.1064 0.94603103 8 13
4.7805314 -1.1168631 -0.2572836 8 6
4.4970398 -1.0522872 1.066268 0 14
4.7777939 -1.1197416 -0.085656419 7 7
3.9497013 -0.92639399 1.0870401 1 15
3.4339759 -0.81555545 -0.94572484 1 0
4.7022686 -1.1176368 0.084364928 8 8
4.0777931 -0.97071522 -0.9677394 2 1
4.6879873 -1.1177008 0.25257334 7 9
4.7359257 -1.1300038 -0.94641262 6 2
4.6352792 -1.1076995 0.41695309 7 10
4.676002 -1.1191567 -0.76152301 10 3
4.6447506 -1.112534 0.58643532 6 11
4.6906896 -1.1252691 -0.59228504 6 4
4.5943537 -1.1038549 0.74838257 7 12
4.6608481 -1.1206914 -0.41939342 6 5
4.5942149 -1.1063662 0.91855454 8 13
4.6520386 -1.1220093 -0.25079393 8 6
4.4782181 -1.0809132 1.0635686 0 14
4.6338 -1.1201781 -0.083213076 7 7
3.909174 -0.94645095 1.0777225 2 15
3.4394572 -0.84226596 -0.94883066 1 0
4.5465484 -1.1150566 0.081712164 8 8
4.0936279 -1.0047339 -0.97313827 1 1
4.5501227 -1.1184593 0.24556033 7 9
4.56568 -1.1239737 -0.91397518 7 2
4.4920149 -1.1066704 0.40475124 6 10
4.5530038 -1.1233819 -0.74275094 10 3
4.50948 -1.1143132 0.57034856 6 11
4.5516806 -1.125584 -0.57571083 6 4
4.4599838 -1.1045606 0.72773325 9 12
4.5212111 -1.1213992 -0.40754023 6 5
4.4415655 -1.1024677 0.88955158 9 13
4.506475 -1.1202493 -0.24336222 8 6
4.4249845 -1.101632 1.052771 7 14
4.4861593 -1.1176934 -0.080699928 7 7
3.9099691 -0.97558963 1.0797932 1 15
3.4372394 -0.86720246 -0.94986594 1 0
4.4068165 -1.1134593 0.07933864 8 8
4.1205206 -1.0418868 -0.98123646 2 1
4.4105449 -1.1168586 0.23844264 7 9
4.4359288 -1.1249342 -0.88955158 7 2
4.3721714 -1.1095778 0.39464122 6 10
4.4206066 -1.1235123 -0.72241443 13 3
4.3630805 -1.1105134 0.5527994 7 11
4.4129019 -1.1240144 -0.55913663 6 4
4.3296623 -1.1044219 0.70770961 8 12
4.3762145 -1.1179237 -0.39516413 5 5
4.3158317 -1.103301 0.86589122 9 13
4.3592343 -1.1160178 -0.23582584 8 6
4.3114753 -1.1053946 1.0275764 5 14
4.3523455 -1.1166826 -0.078431122 9 7
3.8806098 -0.9970932 1.0735815 1 15
3.4385808 -0.89312017 -0.95193648 1 0
4.2828174 -1.1139941 0.077244349 8 8
4.0942879 -1.0657189 -0.97673744 2 1
4.2789488 -1.1153802 0.23174362 7 9
4.3101921 -1.1251312 -0.86589122 7 2
4.244801 -1.108853 0.38383389 6 10
4.3037248 -1.1258503 -0.7045809 6 3
4.2323227 -1.10875 0.53720009 7 11
4.2820544 -1.1225772 -0.54353732 6 4
4.195745 -1.1015159 0.68706024 8 12
4.2546158 -1.1185588 -0.38487977 8 5
4.1827135 -1.100436 0.84070444 10 13
4.2296619 -1.1143664 -0.22923151 8 6
4.1566806 -1.0966903 0.99248403 8 14
4.241971 -1.119985 -0.076581158 10 7
3.9221139 -1.0369995 1.0870401 1 15
3.4509258 -0.92209101 -0.95711285 1 0
4.1706228 -1.1159548 0.075359493 10 8
4.0566292 -1.0862117 -0.96953911 2 1
4.1437364 -1.1110861 0.22483528 10 9
4.161922 -1.1175195 -0.83765155 7 2
4.1253562 -1.1084733 0.3737238 22 10
4.1679554 -1.1214796 -0.68361872 7 3
4.1171412 -1.1093484 0.52355075 14 11
4.1514482 -1.1193693 -0.52793807 7 4
4.0487361 -1.0931908 0.66422081 17 12
4.1101465 -1.1113117 -0.37250364 17 5
4.0839643 -1.1049974 0.82238686 10 13
4.1273193 -1.1182743 -0.22410259 25 6
4.0454817 -1.0976168 0.9677394 8 14
4.1221185 -1.1191822 -0.074556686 32 7
3.9035938 -1.0613146 1.0839342 1 15
3.4257755 -0.9410432 -0.95193648 2 0
4.0528293 -1.1148132 0.073369913 10 8
4.0564628 -1.1165743 -0.97133869 9 1
4.0376806 -1.1129208 0.21949703 10 9
4.0253291 -1.1110283 -0.81170154 33 2
4.0426183 -1.1165595 0.36692566 133 10
4.0610218 -1.1231683 -0.66734952 7 3
4.0364046 -1.1186354 -0.51428866 7 4
4.0257778 -1.1172036 0.66171783 23 12
4.0120649 -1.1149065 -0.36431101 9 5
3.9399631 -1.0956112 0.79491037 9 13
4.0001197 -1.1138438 -0.21761292 10 6
3.9438636 -1.0996627 0.94524431 8 14
3.9851537 -1.1119251 -0.072218053 10 7
3.8774834 -1.0833423 1.0787579 1 15
3.4042487 -0.96073884 -0.94779539 1 0
3.9429581 -1.1142582 0.071519956 10 8
3.9660594 -1.1215341 -0.95154291 9 1
3.9337275 -1.1138743 0.21426344 10 9
3.9626992 -1.1235721 -0.80063456 8 2
3.9257691 -1.1153222 -0.64638728 9 3
3.9406722 -1.1217864 -0.50307667 7 4
3.1421154 -0.895648 0.51748526 7 12
3.9007258 -1.1133593 -0.35489815 8 5
3.1318054 -0.89448249 0.63310426 18 13
3.903914 -1.1164804 -0.21279801 8 6
3.8946342 -1.1160328 -0.070717148 7 7
3.3751924 -0.97802937 -0.94158375 1 0
3.130398 -0.90827996 0.056894846 26 8
3.0972626 -0.89925182 -0.74458802 1 1
3.1433692 -0.91382807 0.17155728 41 9
3.1442032 -0.91526097 -0.63653886 7 2
3.1252077 -0.91150677 -0.51560807 8 3
3.1304116 -0.91539627 -0.40046272 16 4
3.1223173 -0.9148044 -0.28465065 33 5
3.1064856 -0.91134357 0.62928808 31 13
3.1218021 -0.91642857 -0.17051056 30 6
3.0830457 -0.90622038 0.74188858 28 14
3.1249692 -0.9197284 -0.05685994 30 7
3.054003 -0.89942122 0.85306764 23 15
3.1014731 -0.92282134 -0.86704385 1 0
3.0741506 -0.91527575 0.055987321 37 8
3.0627358 -0.91304117 -0.73783946 30 1
3.0621107 -0.91401875 0.16747507 40 9
3.0737782 -0.91808569 -0.62356383 27 2
3.0484405 -0.91167706 0.27837545 23 10
3.0504801 -0.9134472 -0.50434476 25 3
3.0406029 -0.91106778 0.3897382 26 11
3.0554955 -0.91669244 -0.39168811 30 4
3.0307631 -0.91042578 0.50121611 28 12
3.056705 -0.91880029 -0.27924702 37 5
3.0210896 -0.90924489 0.61326015 23 13
3.0424964 -0.91684592 -0.16653302 33 6
2.9926848 -0.90240502 0.72164297 25 14
3.0438125 -0.91898108 -0.055498652 35 7
2.986465 -0.90280455 0.8359856 26 15
3.0082371 -0.91913629 0.054905269 37 8
2.9836071 -0.91218013 -0.72029328 27 1
2.9926322 -0.91608185 0.1640209 43 9
2.9920471 -0.91704506 -0.60829914 33 2
2.9829521 -0.91482717 0.27297178 32 10
2.9873779 -0.91732544 -0.4949587 32 3
2.9770823 -0.91530138 0.38242605 37 11
2.9769225 -0.9158209 -0.38242605 31 4
2.9280531 -0.90190566 0.48525977 28 12
2.9643762 -0.91422701 -0.27140298 35 5
