# .PCD v0.7 - Point Cloud Data file format
VERSION 0.7
FIELDS x y z intensity ring
SIZE 4 4 4 4 2
TYPE F F F F U
COUNT 1 1 1 1 1
WIDTH 293
HEIGHT 1
VIEWPOINT 0 0 0 1 0 0 0
POINTS 293
DATA ascii
2.4604726 0.50954038 0.39796934 13 12
2.4344537 0.46836194 0.39265057 81 12
2.4689326 0.45848161 0.30832946 48 11
2.433779 0.45063549 0.39202482 79 12
2.4837985 0.44332683 0.30979189 39 11
2.4368658 0.43363354 0.39202482 81 12
2.4711802 0.42329463 0.30784199 11 11
2.4476228 0.41794044 0.3932763 87 12
2.4642804 0.40442482 0.30662328 12 11
2.4621775 0.40275595 0.39515349 91 12
2.4915853 0.39284649 0.22067833 94 10
2.4709661 0.38782784 0.30711079 13 11
2.4434612 0.38220009 0.39171195 38 12
2.4765356 0.37277216 0.21910954 87 10
2.4775398 0.37115595 0.30759826 12 11
2.457792 0.36688203 0.39358914 13 12
2.5087354 0.36061996 0.13282867 74 9
2.4751952 0.35447606 0.21876092 90 10
2.4722097 0.35272771 0.30662328 13 11
2.4466641 0.34734154 0.39139909 11 12
2.4259982 0.34311199 0.47625926 40 13
2.5191073 0.34417835 0.13324735 13 9
2.4776096 0.33718732 0.21876092 90 10
2.4727035 0.33476281 0.30637956 98 11
2.4568603 0.33130693 0.39265057 12 12
2.4342289 0.32652622 0.47740412 70 13
2.5223701 0.32804668 0.044398922 46 8
2.503679 0.3238374 0.13230531 12 9
2.4918156 0.32097653 0.21980678 87 10
2.449384 0.31420726 0.30321094 100 11
2.4552488 0.31321877 0.39202482 15 12
2.4364493 0.30952415 0.47740412 95 13
2.5306075 0.31071973 0.044503637 90 8
2.5038962 0.30610937 0.13220063 13 9
2.4860842 0.30261081 0.21910954 93 10
2.4653645 0.29834118 0.30491713 82 11
2.4475701 0.29488766 0.39046046 12 12
2.446348 0.29344109 0.47893062 92 13
2.5327148 0.29304519 0.044503637 90 8
2.5119245 0.28930697 0.13251466 16 9
2.4673872 0.28112358 0.30491713 90 11
2.4476061 0.2775718 0.39014763 62 12
2.4405334 0.27547556 0.47740412 95 13
2.5297973 0.28331581 -0.044433825 9 7
2.5207829 0.2738446 0.044259302 96 8
2.5178545 0.27219272 0.13272399 16 9
2.4742196 0.26616505 0.21771504 12 10
2.4692895 0.26389113 0.30491713 82 11
2.4553769 0.26110414 0.39108619 17 12
2.4345877 0.25760439 0.47587767 95 13
2.5186543 0.25583661 0.044189494 96 8
2.5196931 0.25460932 0.13272399 30 9
2.4740348 0.24868718 0.21754073 12 10
2.4552693 0.24506852 0.30296722 82 11
2.4551744 0.24376085 0.39077336 15 12
2.4324191 0.24021557 0.47511441 95 13
2.5354965 0.2481612 -0.044468731 9 7
2.5243607 0.23862199 0.044259302 99 8
2.4816396 0.23327282 0.13063055 87 9
2.473727 0.23122251 0.21736643 13 10
2.4668036 0.22883956 0.3041859 62 11
2.4568162 0.22661574 0.39077336 14 12
2.4418571 0.22394662 0.47664091 95 13
2.5618012 0.23404397 -0.13481744 67 6
2.5511079 0.23172028 -0.044713065 11 7
2.5299494 0.22134142 0.044329114 93 8
2.5031052 0.21767232 0.13167727 114 9
2.4891758 0.21514796 0.21858659 17 10
2.4604299 0.21093304 0.30321094 94 11
2.4406242 0.20794794 0.38795751 17 12
2.5534215 0.2153144 -0.13429408 75 6
2.5387144 0.21273565 -0.044468731 12 7
2.5234952 0.20259175 0.044189494 15 8
2.5006168 0.19943736 0.13146794 119 9
2.4668176 0.19544201 0.21649487 54 10
2.4638548 0.19347775 0.30345467 100 11
2.4400804 0.19032547 0.38764465 16 12
2.4408641 0.18910092 0.47587767 13 13
2.5628624 0.19765133 -0.13471277 92 6
2.3996332 0.18422151 0.55562907 32 14
2.5361841 0.19425817 -0.044398922 10 7
2.5228539 0.18482457 0.044154592 15 8
2.5158923 0.18299031 0.13220063 117 9
2.4800453 0.17907774 0.21754073 14 10
2.4730661 0.17683727 0.30442965 97 11
2.4492314 0.17384411 0.38889611 19 12
2.5618083 0.18093728 -0.2246875 61 5
2.432333 0.17136481 0.47396958 15 13
2.5641797 0.1797556 -0.13471277 93 6
2.4105809 0.16814242 0.55787861 62 14
2.5454578 0.17710392 -0.044538539 12 7
2.520092 0.16694286 0.044084776 13 8
2.5051508 0.16463578 0.1315726 113 9
2.4712939 0.16111131 0.21666917 13 10
2.4583924 0.15854681 0.30247974 95 11
2.433497 0.15395507 0.47396958 14 13
2.545439 0.16059227 -0.13366605 97 6
2.4350352 0.15277243 0.56327748 65 14
2.5271847 0.14969999 0.044189494 15 8
2.4883199 0.14565471 0.13063055 23 9
2.488296 0.1443461 0.21806367 18 10
2.4673665 0.14183584 0.30345467 95 11
2.4514444 0.13920362 0.38889611 100 12
2.5799985 0.14605178 -0.226082 9 5
2.4423528 0.13740456 0.47549605 21 13
2.5445287 0.14226194 -0.13356137 101 6
2.4010196 0.133817 0.55517924 75 14
2.5397205 0.14065929 -0.044398922 83 7
2.54217 0.13233975 0.044433825 18 8
2.4832923 0.12797104 0.13031654 87 9
2.4812841 0.12656502 0.21736643 16 10
2.484179 0.12497406 0.3054046 86 11
2.4405191 0.12149663 0.38701892 100 12
2.5750077 0.12729089 -0.22555906 8 5
2.4471953 0.1201153 0.47625926 24 13
2.5594242 0.12517728 -0.13429408 93 6
2.4116478 0.11710484 0.55742872 85 14
2.5326724 0.1220967 -0.044259302 108 7
2.5310459 0.11404994 0.0442244 83 8
2.5040977 0.11108288 0.13136327 114 9
2.4781449 0.1086316 0.21701778 12 10
2.475075 0.10719869 0.3041859 18 11
2.4413259 0.10402957 0.38701892 98 12
2.5638902 0.10880523 -0.2245132 8 5
2.4597435 0.10352423 0.478549 42 13
2.4163005 0.10042852 0.55832851 89 14
2.5294673 0.10424765 -0.044189494 112 7
2.5158112 0.095329545 0.04394516 25 8
2.5088038 0.093748622 0.1315726 113 9
2.4688878 0.090962641 0.21614623 14 10
2.4797463 0.089628123 0.30467337 19 11
2.4459407 0.087123998 0.38764465 100 12
2.5705764 0.090666354 -0.22503611 9 5
2.4231274 0.085041136 0.47129822 15 13
2.5589418 0.088914573 -0.13418941 12 6
2.432538 0.083671235 0.56192774 100 14
2.5381277 0.086859673 -0.044329114 85 7
2.5144167 0.07770177 0.043910254 14 8
2.5153861 0.07641352 0.13188663 119 9
2.4654796 0.073605426 0.21579762 69 10
2.4545162 0.071563154 0.30150479 18 11
2.4563622 0.070329838 0.389209 65 12
2.5830963 0.073054865 -0.226082 15 5
2.4393618 0.068564884 0.47435117 21 13
2.5555072 0.07093557 -0.13398007 11 6
2.433063 0.066686869 0.56192774 100 14
2.5328898 0.060575031 0.0442244 15 8
2.4859076 0.058149163 0.13031654 100 9
2.4778848 0.056663465 0.21684349 100 10
2.4549561 0.054425661 0.30150479 18 11
2.439019 0.052794732 0.38639316 89 12
2.5775676 0.05489241 -0.22555906 53 5
2.4417441 0.051574718 0.47473282 15 13
2.5599339 0.05317599 -0.13418941 53 6
2.4217792 0.049460515 0.5592283 100 14
2.5410919 0.051453609 -0.044364017 41 7
2.53725 0.042959563 0.044294208 15 8
2.498235 0.040990621 0.13094458 118 9
2.4921649 0.039585873 0.21806367 97 10
2.4552763 0.037284337 0.30150479 19 11
2.439328 0.03576472 0.38639316 90 12
2.5739036 0.036839236 -0.22521043 71 5
2.4459705 0.034581218 0.47549605 15 13
2.5542514 0.035220377 -0.13387538 78 6
2.5273926 0.033526521 -0.044119682 78 7
2.537488 0.025245173 0.044294208 19 8
2.4744499 0.022026703 0.21649487 95 10
2.4832671 0.020370334 0.30491713 98 11
2.4513705 0.018825147 0.38827038 100 12
2.5721056 0.018855724 -0.22503611 71 5
2.4461522 0.01750428 0.47549605 15 13
2.5604267 0.017429484 -0.13418941 84 6
2.4183362 0.015616939 0.55832851 21 14
2.5355637 0.01593264 -0.044259302 112 7
2.533603 0.0075176852 0.0442244 15 8
2.5025582 0.0061153024 0.13115391 19 9
2.4745433 0.0047512488 0.21649487 88 10
2.4813635 0.0030321255 0.30467337 18 11
2.4474914 0.0017093075 0.38764465 100 12
2.5920987 0.00090554141 -0.22677925 42 5
2.4403253 0.00042662839 0.47435117 25 13
2.430079 -0.0012723864 0.56102794 19 14
2.5416121 -0.0017743803 -0.044364017 114 7
2.3916311 -0.0025045108 0.64083594 100 15
2.5175965 -0.010106334 0.04394516 64 8
2.5145233 -0.011410623 0.13178195 14 9
2.4765084 -0.012534842 0.21666917 67 10
2.4455934 -0.014085761 0.30028611 16 11
2.4711478 -0.015526881 0.39139909 96 12
2.4225998 -0.016490368 0.47091663 60 13
2.5544288 -0.018279422 -0.13387538 11 6
2.428062 -0.018222742 0.56057805 13 14
2.5415378 -0.019517994 -0.044364017 105 7
2.5254629 -0.027770033 0.044084776 89 8
2.4984055 -0.028780835 0.13094458 16 9
2.4883142 -0.029967649 0.21771504 84 10
2.4613147 -0.03136107 0.30223599 15 11
2.4591279 -0.032621019 0.38952184 100 12
2.4459825 -0.03372759 0.47549605 97 13
2.554239 -0.036112107 -0.13387538 14 6
2.4161844 -0.035003856 0.55787861 20 14
2.5513372 -0.037407238 -0.044538539 108 7
2.3874998 -0.03583866 0.63980073 59 15
2.5352039 -0.045579996 0.044259302 96 8
2.5041342 -0.046332989 0.13125859 23 9
2.4880443 -0.047338489 0.21771504 90 10
2.4610357 -0.048543382 0.30223599 15 11
2.4568653 -0.049748044 0.389209 28 12
2.4437244 -0.050762028 0.47511441 98 13
2.5559216 -0.053985208 -0.13398007 12 6
2.421726 -0.05199651 0.5592283 27 14
2.5330207 -0.054828409 -0.0442244 68 7
2.5308261 -0.063178003 0.044189494 99 8
2.4937668 -0.063559443 0.13073523 82 9
2.479686 -0.064499781 0.21701778 97 10
2.4665899 -0.065882333 0.30296722 19 11
2.4485593 -0.066683732 0.38795751 21 12
2.4472356 -0.067930028 0.47587767 98 13
2.5694575 -0.072220266 -0.13471277 11 6
2.5263259 -0.080717094 0.044119682 99 8
2.509232 -0.081486136 0.1315726 18 9
2.4791753 -0.081809543 0.21701778 97 10
2.4720221 -0.083301209 0.30369842 15 11
2.448034 -0.083776131 0.38795751 20 12
2.4408157 -0.08480864 0.47473282 100 13
2.564899 -0.090016454 -0.13450342 12 6
2.5380039 -0.090403117 -0.044329114 14 7
2.5057192 -0.097573966 0.043770637 33 8
2.5066061 -0.098922983 0.13146794 16 9
2.4865072 -0.09943378 0.21771504 93 10
2.465153 -0.10159654 0.39077336 23 12
2.4283946 -0.10135531 0.4724431 45 13
2.549298 -0.10863017 -0.044538539 14 7
2.5229552 -0.11589048 0.044084776 62 8
2.5078497 -0.11651254 0.1315726 20 9
2.4937131 -0.11716433 0.21841228 97 10
2.4547551 -0.11705151 0.30174851 94 11
2.4564912 -0.11842348 0.38952184 22 12
2.4433153 -0.1190706 0.47549605 84 13
2.5554125 -0.1254276 -0.13408473 88 6
2.5424857 -0.12612759 -0.044433825 33 7
2.5380597 -0.13434668 0.044364017 87 8
2.5029864 -0.13380443 0.13136327 20 9
2.4868658 -0.13424852 0.21788934 57 10
2.4677529 -0.13494466 0.30345467 90 11
2.441798 -0.13480774 0.38733178 35 12
2.5544746 -0.14326455 -0.13408473 97 6
2.5255713 -0.14297013 -0.044154592 73 7
2.5350642 -0.15194263 0.044329114 90 8
2.5059786 -0.15151624 0.1315726 21 9
2.4799023 -0.15124288 0.21736643 12 10
2.4766576 -0.15278053 0.30467337 100 11
2.4407973 -0.15185128 0.38733178 85 12
2.5613854 -0.16159754 -0.13450342 85 6
2.5404768 -0.16161394 -0.044433825 77 7
2.5299509 -0.16936973 0.044259302 90 8
2.5168159 -0.16981414 0.13220063 21 9
2.4748101 -0.16828167 0.21701778 16 10
2.4814718 -0.17047516 0.3054046 99 11
2.4613552 -0.17038803 0.39077336 20 12
2.5661721 -0.1798943 -0.13481744 62 6
2.5287068 -0.18702784 0.044259302 93 8
2.4996355 -0.18619366 0.13136327 90 9
2.4835091 -0.18630008 0.21788934 14 10
2.480221 -0.18779482 0.3054046 79 11
2.5499351 -0.19799761 -0.044643257 11 7
2.5273395 -0.20467684 0.044259302 93 8
2.5002649 -0.20380197 0.13146794 108 9
2.4861195 -0.20395941 0.21823798 14 10
2.4630229 -0.20379576 0.30345467 85 11
2.5464981 -0.21562585 -0.044608355 10 7
2.5318251 -0.22284183 0.044364017 61 8
2.5047498 -0.22178049 0.13178195 113 9
2.5104339 -0.22360861 0.22050403 30 10
2.5448899 -0.23384255 -0.044608355 13 7
2.5381706 -0.24126869 0.044503637 12 8
2.5110512 -0.24045981 0.13220063 109 9
2.4770381 -0.23851164 0.21771504 82 10
2.5392153 -0.25120962 -0.044538539 12 7
2.5264328 -0.25840777 0.044329114 13 8
2.5172586 -0.25880134 0.13261932 117 9
2.5354114 -0.26871964 -0.044503637 27 7
2.5285425 -0.27647385 0.044398922 14 8
2.5014932 -0.27484176 0.13188663 33 9
2.5493698 -0.2882106 -0.044782877 102 7
2.5305233 -0.29458198 0.044468731 21 8
2.5054646 -0.29299459 0.13220063 88 9
2.5413394 -0.30528587 -0.044678163 85 7
2.5344138 -0.31253394 0.044573449 87 8
2.5292275 -0.32175836 -0.044503637 101 7
2.5361359 -0.33073696 0.044643257 89 8
2.5427749 -0.34153733 -0.044782877 101 7
2.5382857 -0.35944378 -0.044747971 71 7
