# .PCD v0.7 - Point Cloud Data file format
VERSION 0.7
FIELDS x y z intensity ring
SIZE 4 4 4 4 2
TYPE F F F F U
COUNT 1 1 1 1 1
WIDTH 161
HEIGHT 1
VIEWPOINT 0 0 0 1 0 0 0
POINTS 161
DATA ascii
3.0905781 0.98454762 0.28377908 55 10
3.0878632 0.95998973 0.28290752 65 10
3.0906773 0.93725121 0.28255892 65 10
3.0818596 0.91113383 0.28116441 68 10
3.1643071 0.91333044 0.17260399 70 9
3.086231 0.88904476 0.28099012 59 10
3.164993 0.88904345 0.17228998 8 9
3.0625224 0.85680068 0.39046943 80 11
3.1518571 0.86165917 0.17124327 9 9
3.1157899 0.85004598 0.28255892 7 10
3.055167 0.8312158 0.38876322 79 11
3.1655164 0.84168845 0.17166196 9 9
3.0704906 0.81240523 0.38998193 77 11
3.1061325 0.8009885 0.2806415 74 10
3.0799322 0.79193956 0.39046943 80 11
3.2017491 0.80541116 0.057627846 18 8
3.1633997 0.79400343 0.17092925 79 9
3.1058509 0.77783054 0.28011855 68 10
3.0738301 0.76753277 0.38900697 72 11
3.0419347 0.75787675 0.49652308 32 12
3.2092364 0.78351498 0.057662752 12 8
3.1708062 0.77237362 0.17103392 57 9
3.1034613 0.75424802 0.2794213 65 10
3.0675383 0.74324846 0.38754454 82 11
3.0241108 0.73105013 0.49276862 56 12
3.2263033 0.7638554 0.05787218 9 8
3.0823145 0.72408628 0.38876322 25 11
3.0522199 0.71533048 0.49652308 8 12
3.2296083 0.74086583 0.057837274 9 8
3.1695993 0.7253533 0.17040588 9 9
3.1214595 0.71261686 0.28011855 7 10
3.0872943 0.70254999 0.38876322 86 11
3.2347014 0.71830237 0.057837274 9 8
3.1804357 0.70450497 0.17071991 10 9
3.0882468 0.68012565 0.38827574 86 11
3.0233223 0.66416776 0.49026567 69 12
3.2357275 0.69486117 0.057767466 18 8
3.1194143 0.66646701 0.27907267 82 10
3.0909777 0.65813714 0.38803205 82 11
3.0414112 0.64591891 0.49245578 77 12
2.9923522 0.63386285 0.59456086 39 13
3.2832553 0.69248945 -0.058570277 26 7
3.2091713 0.66575539 0.057208989 56 8
3.1821392 0.65840989 0.17030121 79 9
3.123991 0.64467311 0.27907267 70 10
3.0838308 0.63414145 0.38656959 82 11
3.0419765 0.6238749 0.49182999 79 12
2.9909346 0.6117751 0.59341598 36 13
3.2997668 0.67194527 -0.058779709 35 7
3.2255058 0.64569163 0.057418417 7 8
3.170989 0.63305175 0.16946384 49 9
3.1246161 0.62152451 0.27872407 65 10
3.0881829 0.61259681 0.38656959 72 11
3.0501335 0.60338938 0.49245578 72 12
2.9759738 0.58656031 0.58959985 7 13
3.2672071 0.64100075 -0.058116514 8 7
3.2398615 0.62448627 0.057592943 9 8
3.1832833 0.61185241 0.16988252 8 9
3.100287 0.59197181 0.38754454 56 11
3.0167429 0.57220244 0.59685057 10 13
3.2677803 0.61686295 -0.058046706 9 7
3.2501457 0.60237962 0.057697657 9 8
3.1915083 0.58978361 0.17009188 10 9
3.1272118 0.57620865 0.27820113 9 10
3.0927286 0.56762147 0.38608211 76 11
3.0584564 0.55967623 0.49245578 70 12
3.0090764 0.54901195 0.59456086 10 13
3.2680721 0.59332007 -0.057976898 9 7
3.2385223 0.57686925 0.057418417 11 8
3.2073467 0.56958359 0.17071991 11 9
3.1213489 0.55262589 0.27732956 63 10
3.106391 0.54773986 0.38730082 70 11
3.0428338 0.53489053 0.48932707 69 12
3.0012331 0.52595788 0.59227115 49 13
3.2780442 0.571522 -0.058081608 9 7
3.2385285 0.55357218 0.057348609 22 8
3.1310236 0.5318222 0.27785251 62 10
3.0944805 0.52339286 0.38535091 70 11
3.0581808 0.5156064 0.49120426 77 12
3.3269122 0.55792904 -0.17679088 51 6
3.2977331 0.55126071 -0.058360845 14 7
3.2265265 0.52836573 0.057069372 56 8
3.1893613 0.52056521 0.16935916 84 9
3.1484253 0.51219153 0.27907267 77 10
3.0980592 0.50177658 0.38535091 70 11
3.0656061 0.49487334 0.49182999 76 12
3.3228383 0.53342134 -0.17637219 8 6
3.2916284 0.52664351 -0.058186322 9 7
3.2479174 0.50861031 0.057383511 7 8
3.1929181 0.49828508 0.16935916 35 9
3.1440501 0.48897263 0.27837545 68 10
3.1073718 0.48104686 0.38608211 75 11
3.0533681 0.47104985 0.48932707 79 12
3.3403003 0.51233172 -0.17710489 8 6
3.2893822 0.50217038 -0.058081608 9 7
3.2593002 0.48710549 0.057523135 11 8
3.2122061 0.4777765 0.17019655 9 9
3.1145821 0.45992157 0.38656959 80 11
3.4024103 0.49939102 -0.30086163 4 5
3.3458574 0.48870468 -0.17720957 8 6
3.2769771 0.47689164 -0.057802372 9 7
3.256763 0.46292576 0.057418417 9 8
3.2154634 0.45533791 0.17019655 12 9
3.1407843 0.44308543 0.27750388 9 10
3.1177931 0.43762383 0.38656959 77 11
3.0558093 0.42729226 0.48870131 23 12
3.3980038 0.47393036 -0.30016437 33 5
3.3551223 0.46615884 -0.17752358 8 6
3.2940924 0.45592153 -0.058046706 9 7
3.2559521 0.43964282 0.057348609 10 8
3.2126255 0.43207994 0.16988252 11 9
3.110934 0.41453442 0.38535091 70 11
3.0783 0.4085457 0.49182999 28 12
3.342454 0.44063601 -0.17668621 8 6
3.297195 0.43291333 -0.058046706 9 7
3.2668757 0.41791779 0.057488225 27 8
3.16643 0.40169865 0.27924702 86 10
3.1157215 0.39305434 0.38559461 75 11
3.3474305 0.41753936 -0.17679088 27 6
3.3239498 0.41284326 -0.058465563 25 7
3.2697136 0.3951005 0.057488225 64 8
3.2024815 0.3852753 0.16904517 94 9
3.1612437 0.37863523 0.27854973 73 10
3.1223321 0.37176383 0.38608211 80 11
3.3700995 0.39649338 -0.1778376 33 6
3.2969596 0.38613686 -0.057941992 8 7
3.2209694 0.36470604 0.16988252 40 9
3.1519313 0.35521609 0.27750388 76 10
3.1327422 0.35084051 0.38705707 72 11
3.301626 0.36275446 -0.057976898 9 7
3.266958 0.34856069 0.057348609 10 8
3.2274694 0.342069 0.17009188 9 9
3.1351151 0.32896131 0.38705707 80 11
3.3060672 0.33989885 -0.0580118 9 7
3.2753379 0.32576767 0.057453319 11 8
3.2436917 0.32090512 0.17082457 10 9
3.1566379 0.31062391 0.27750388 9 10
3.1314619 0.30593944 0.38632584 61 11
3.3163774 0.31699517 -0.05815142 9 7
3.2815151 0.30326164 0.057523135 9 8
3.222038 0.29549825 0.16956852 12 9
3.1687005 0.28893369 0.27837545 63 10
3.3165178 0.2936568 -0.058116514 9 7
3.2796159 0.27943236 0.057453319 34 8
3.1726258 0.26697049 0.27854973 62 10
3.3105145 0.26984772 -0.057976898 35 7
3.291455 0.25730875 0.057627846 59 8
3.2278409 0.25063547 0.16967319 94 9
3.1763988 0.24496807 0.27872407 82 10
3.2354889 0.22851849 0.1699872 23 9
3.1700814 0.22223087 0.27802682 68 10
3.2847486 0.21068898 0.057453319 10 8
3.249001 0.20611875 0.17061524 9 9
3.1815326 0.20016612 0.27889836 53 10
3.2881687 0.18729219 0.057488225 9 8
3.2364018 0.18264365 0.16988252 11 9
3.2993534 0.16540658 0.057662752 10 8
3.2295909 0.16021407 0.16946384 12 9
3.284445 0.14167929 0.057383511 34 8
3.2455053 0.11503722 0.17019655 84 9
3.2522185 0.092546955 0.17051056 77 9
