# .PCD v0.7 - Point Cloud Data file format
VERSION 0.7
FIELDS x y z intensity ring
SIZE 4 4 4 4 2
TYPE F F F F U
COUNT 1 1 1 1 1
WIDTH 1263
HEIGHT 1
VIEWPOINT 0 0 0 1 0 0 0
POINTS 1263
DATA ascii
4.1844907 0.79823595 -0.983486 1 1
7.0416641 1.3407214 0.37566754 30 9
5.1053643 0.97020662 -1.0101428 1 2
2.5309491 0.4805156 0.22538476 66 10
2.5376172 0.47994772 0.31710407 11 11
7.1020517 1.3419467 -0.88745266 21 4
2.5099177 0.47334665 0.40453959 75 12
7.0174909 1.3208957 -0.62473232 29 5
7.2508216 1.3635051 1.4341204 20 13
7.0706682 1.3270724 -0.37702829 15 6
7.3073387 1.3688521 1.7163765 9 14
7.0603328 1.3213062 -0.12537809 24 7
7.3244786 1.3680938 1.9965302 20 15
3.5395722 0.65154833 -0.96435976 1 0
7.2161174 1.325706 0.12806576 10 8
4.1746283 0.76618701 -0.97988683 1 1
5.185401 0.94795954 -1.0246444 1 2
2.5244424 0.46104476 0.2245132 82 10
2.5155165 0.45760024 0.31393546 13 11
7.3710093 1.3395426 -0.9198699 24 4
7.5402923 1.3635069 1.4894551 18 13
7.3510008 1.3266281 -0.391473 6 6
7.5967269 1.3682399 1.7820623 9 14
7.3823113 1.3282878 -0.13092795 6 7
7.6171651 1.3678001 2.0736582 18 15
3.5668626 0.63085908 -0.97057146 1 0
7.5737543 1.3368222 0.13424391 6 8
4.187552 0.73837745 -0.98168641 1 1
2.545346 0.44789788 0.13544546 6 9
2.5315242 0.44409934 0.22486182 85 10
7.6391482 1.3373657 -1.2283236 1 3
2.5186501 0.44002748 0.31393546 12 11
2.5182283 0.43859524 0.40485242 12 12
7.6084328 1.3224145 -0.67563128 6 5
7.8436441 1.3618823 1.547461 9 13
7.674952 1.3298367 -0.4082205 7 6
7.8979731 1.3656363 1.8504474 17 14
7.72048 1.3335623 -0.13675706 8 7
7.9425564 1.3690628 2.1595864 19 15
3.5559428 0.60335869 -0.96643037 1 0
7.9141374 1.3399986 0.14010793 29 8
4.1849189 0.70782691 -0.97988683 1 1
2.5464416 0.42978469 0.13534079 35 9
5.1516671 0.86763912 -1.0154855 1 2
2.5306332 0.42575404 0.2245132 87 10
7.9755816 1.3389463 -1.2808856 1 3
2.5314493 0.42407432 0.31515417 21 11
8.0527115 1.3475605 -1.0024973 0 4
2.5036931 0.41807702 0.40203664 13 12
7.9712329 1.3282096 -0.70700741 28 5
2.5195317 0.419366 0.49648505 43 13
8.0347567 1.3344674 -0.42685208 23 6
8.2245293 1.3630363 1.9246813 16 14
8.0492039 1.3325366 -0.14241165 27 7
8.2721319 1.3664757 2.2465494 21 15
3.5562546 0.5778991 -0.96539509 1 0
4.2013001 0.68046278 -0.98258615 1 1
2.5395219 0.41040236 0.13481744 13 9
5.1575985 0.83165497 -1.0154855 1 2
2.5217419 0.4061743 0.22346732 87 10
8.3201952 1.33715 -1.334699 1 3
2.5245481 0.40481967 0.31393546 71 11
8.355938 1.3384067 -1.0390581 0 4
2.516304 0.40214649 0.40360096 14 12
8.3029871 1.3239769 -0.73559445 22 5
2.5262754 0.40238377 0.49724829 76 13
8.4068193 1.3360207 -0.44611171 28 6
8.5783644 1.3602173 2.0052137 17 14
8.3901224 1.3288639 -0.14827564 26 7
8.6173077 1.3617675 2.3376536 21 15
3.5525665 0.55187142 -0.96332449 1 0
2.5531242 0.39570102 0.04509702 72 8
4.2097998 0.65171188 -0.983486 1 1
2.554168 0.39449349 0.13544546 12 9
5.190444 0.79981387 -1.0208282 1 2
2.516639 0.3873482 0.22277008 93 10
2.5312371 0.38778633 0.31442294 86 11
2.5170975 0.38427025 0.4032881 12 12
2.5057321 0.38119277 0.49266884 78 13
10.175351 1.5443301 -0.53937441 69 6
8.9749336 1.3589361 2.095644 16 14
10.172754 1.5384877 -0.17958528 67 7
9.0258427 1.3618109 2.4458401 22 15
3.541045 0.5247907 -0.95918339 1 0
2.5459337 0.37640491 0.044922493 90 8
4.1834016 0.61775118 -0.97628754 1 1
2.5469801 0.37519705 0.1349221 13 9
5.2658277 0.77383423 -1.0345664 1 2
2.5173106 0.36947995 0.22259577 31 10
2.5201328 0.36809722 0.31271678 90 11
10.165253 1.4829516 -1.2613478 1 4
2.5158093 0.36612046 0.40266237 34 12
10.164222 1.4755554 -0.89857566 13 5
2.5083323 0.36369136 0.49266884 78 13
10.176001 1.4718256 -0.53885108 18 6
9.3834572 1.353851 2.1887739 17 14
9.2875414 1.3350441 2.5141683 24 15
3.5792308 0.50366503 -0.96850091 1 0
2.5407031 0.35662159 0.044782877 94 8
4.1839581 0.58652771 -0.97538781 1 1
2.5358155 0.3545818 0.13418941 12 9
5.1741366 0.72165322 -1.0154855 1 2
2.5298178 0.35239163 0.22346732 10 10
2.5148981 0.34852386 0.3117418 87 11
10.171918 1.4078524 -1.2608603 1 4
2.5301664 0.34928972 0.40453959 13 12
10.172792 1.4007366 -0.89840138 11 5
2.5148208 0.34582961 0.4934321 78 13
10.176621 1.3958354 -0.53832769 15 6
9.8429947 1.3465745 2.2936008 19 14
2.5538809 0.34892938 -0.044992302 25 7
9.2951632 1.2666708 2.5136507 30 15
3.5864894 0.4791784 -0.96953619 1 0
2.5490775 0.33966658 0.044887587 96 8
4.1956773 0.55833417 -0.9771874 1 1
2.5362494 0.33660588 0.13408473 14 9
5.1790485 0.68551332 -1.0154855 1 2
2.5282662 0.3341994 0.22311871 13 10
2.5212059 0.33147678 0.31222928 85 11
10.181499 1.3368049 -1.2608603 1 4
2.5051217 0.32802787 0.40015942 14 12
10.186274 1.330199 -0.89875001 9 5
2.517174 0.32826319 0.4934321 81 13
10.196022 1.326043 -0.53885108 13 6
10.292778 1.3349733 2.3961787 42 14
2.5443561 0.32955149 -0.044782877 51 7
9.2961159 1.2007576 2.5115802 34 15
3.5629151 0.45073387 -0.96228927 1 0
2.5513868 0.3218624 0.044887587 90 8
4.2265415 0.53243709 -0.983486 1 1
5.1564355 0.64592624 -1.0101428 1 2
2.5206528 0.31530416 0.22224714 14 10
2.525429 0.31411117 0.31247303 15 11
10.608212 1.3175677 -1.3125329 1 4
2.5093114 0.31077245 0.40047228 12 12
10.590787 1.3078915 -0.93361235 12 5
2.5174556 0.31044292 0.49305046 74 13
10.541695 1.292496 2.4519665 24 14
2.5327005 0.31007943 -0.044538539 13 7
9.2927656 1.1344291 2.5084743 34 15
3.5736477 0.42676362 -0.96435976 1 0
2.5416577 0.30262521 0.044678163 93 8
4.2146749 0.50107682 -0.97988683 1 1
2.5387187 0.30092731 0.13398007 105 9
5.1881146 0.6131376 -1.0154855 1 2
2.5188351 0.29723322 0.22189851 14 10
2.5078444 0.29416013 0.31003565 68 11
11.252014 1.3178254 -1.3910168 1 4
2.513382 0.29347569 0.40078515 13 12
11.22503 1.3067276 -0.98869473 12 5
10.697588 1.2358615 2.4861591 18 14
2.5487092 0.29399553 -0.044782877 12 7
9.3062172 1.0701834 2.5100274 35 15
3.5803797 0.40223756 -0.96539509 1 0
2.5437083 0.28487372 0.044678163 93 8
4.21807 0.47164264 -0.97988683 1 1
2.5486972 0.28408137 0.13439874 109 9
5.1922693 0.5769003 -1.0154855 1 2
2.5168881 0.27920184 0.22154988 66 10
2.5078638 0.27642861 0.30979189 104 11
12.401438 1.3647487 -1.5318978 1 4
2.5192966 0.27635381 0.40141091 12 12
12.319241 1.3470055 -1.0842174 7 5
2.5098345 0.27398607 0.49076074 9 13
2.547447 0.27719232 -0.13429408 92 6
2.5127802 0.27253154 0.58352304 10 14
2.5526876 0.27640909 -0.044817779 15 7
9.3115406 1.0049803 2.5095096 33 15
3.5907853 0.37804103 -0.96746564 1 0
2.5555789 0.26815173 0.044852685 15 8
4.2212601 0.44218346 -0.97988683 1 1
2.5347269 0.26462212 0.13356137 109 9
5.2235084 0.54348427 -1.0208282 1 2
2.5366118 0.26347521 0.22311871 63 10
2.52158 0.26013592 0.31125432 99 11
12.856933 1.3241031 -1.5869827 1 4
2.5113392 0.25775066 0.39984655 16 12
2.5097334 0.25625807 0.49037915 12 13
2.5493202 0.2593998 -0.13429408 97 6
2.546597 0.25777569 -0.044678163 13 7
9.3413944 0.94227558 2.5157211 33 15
3.5818014 0.35183027 -0.96435976 1 0
2.5534084 0.24991432 0.044782877 15 8
4.2320023 0.41346067 -0.98168641 1 1
2.5265732 0.24595238 0.13303801 61 9
5.2232666 0.506625 -1.0200649 1 2
2.5344231 0.24537711 0.22277008 12 10
2.5193827 0.24214581 0.31076685 95 11
2.5705068 0.24479468 -0.22590767 61 5
2.521275 0.23921947 0.49228725 12 13
2.5550458 0.24197249 -0.13450342 97 6
2.4930589 0.23522533 0.57812423 75 14
2.5404127 0.23879746 -0.044538539 13 7
9.3477449 0.87704182 2.5157211 33 15
3.5572929 0.32373929 -0.95711285 1 0
2.5471249 0.2313585 0.044643257 15 8
4.2154441 0.38141054 -0.9771874 1 1
2.534236 0.22840419 0.13335203 20 9
5.175837 0.46557429 -1.0101428 1 2
2.5182543 0.22563346 0.22120127 17 10
2.5289211 0.22525457 0.3117418 95 11
2.5029256 0.22117932 0.39796934 93 12
2.5661991 0.22631933 -0.22538476 12 5
2.5189722 0.22126824 0.49152401 13 13
2.5547221 0.22350872 -0.13439874 101 6
2.5004644 0.21832329 0.57947391 74 14
9.3364611 0.80862832 2.5110626 36 15
3.5671663 0.29954511 -0.95918339 1 0
2.5367587 0.21212597 0.044433825 52 8
4.2374239 0.35359442 -0.98168641 1 1
2.535769 0.21070632 0.13335203 58 9
5.2338204 0.43305787 -1.0208282 1 2
2.5177822 0.20788448 0.22102696 18 10
2.526511 0.20683075 0.31125432 97 11
16.142599 1.3186568 -1.9886642 1 4
2.52016 0.20498015 0.40047228 91 12
2.547894 0.20634197 -0.22364163 10 5
2.5661743 0.20647007 -0.1349221 97 6
2.5058477 0.200736 0.5803737 78 14
2.5415058 0.20314609 -0.044503637 85 7
9.3438044 0.74358106 2.5115802 37 15
3.5807278 0.27552187 -0.96228927 1 0
2.5321965 0.19395274 0.044329114 93 8
4.2320175 0.32340705 -0.97988683 1 1
2.5351865 0.1928467 0.13324735 103 9
5.2093081 0.39443567 -1.0154855 1 2
2.5151987 0.19000183 0.22067833 16 10
2.5136497 0.18679674 0.39922079 92 12
2.5572205 0.18913712 -0.22433887 11 5
2.5041945 0.1847758 0.48808944 18 13
2.5436504 0.18679446 -0.13366605 97 6
2.5071881 0.183237 0.5803737 85 14
2.5468509 0.18568891 -0.044573449 108 7
9.3545485 0.67874587 2.5131328 36 15
3.5825644 0.25051695 -0.96228927 1 0
2.5454578 0.17710392 0.044538539 90 8
4.2186193 0.29277477 -0.97628754 1 1
2.532486 0.17486912 0.13303801 119 9
5.211935 0.35805821 -1.0154855 1 2
2.5283902 0.17325623 0.22172421 17 10
2.5350945 0.17193647 0.31198555 17 11
2.5148923 0.1692436 0.39922079 51 12
2.5644424 0.17167901 -0.22486182 10 5
2.5132885 0.1673733 0.48961592 12 13
2.5468855 0.16916424 -0.13377072 18 6
2.4967391 0.16495821 0.57767427 85 14
2.5541008 0.16785271 -0.044678163 50 7
9.3648415 0.61380571 2.5146859 34 15
3.6074018 0.22632588 -0.96850091 1 0
2.536653 0.15870462 0.044364017 18 8
4.2361665 0.26354757 -0.97988683 1 1
2.5316792 0.15661804 0.13293335 116 9
5.2417417 0.32335317 -1.0208282 1 2
2.5414975 0.15588975 0.22277008 28 10
2.5184002 0.15314953 0.30979189 17 11
26.61714 1.6093357 -3.274142 2 4
2.5160391 0.15124312 0.39922079 18 12
2.5556343 0.15317684 -0.22399026 14 5
2.5163555 0.14993992 0.48999751 12 13
2.5540121 0.15128912 -0.13408473 16 6
2.4978297 0.14752367 0.57767427 87 14
2.5392404 0.14908002 -0.044398922 14 7
9.3728504 0.54700184 2.5157211 34 15
3.5626016 0.19855592 -0.95607764 1 0
2.5536969 0.14143334 0.044643257 18 8
4.2495775 0.23461165 -0.98258615 1 1
2.5347052 0.13905039 0.13303801 125 9
5.2164764 0.28433987 -1.0154855 1 2
2.5047238 0.13609037 0.21945816 82 10
2.5372717 0.13608119 0.31198555 24 11
2.5606441 0.13509516 -0.22433887 10 5
2.5134199 0.13216262 0.4892343 12 13
2.5550058 0.13345629 -0.13408473 62 6
2.5027137 0.12984778 0.57857406 40 14
2.5442131 0.13155688 -0.044468731 15 7
9.3513603 0.48026556 2.508992 14 15
3.6102102 0.17593795 -0.96850091 2 0
2.5426381 0.1230219 0.044433825 19 8
4.2783628 0.20625405 -0.98888487 1 1
2.5376091 0.1214469 0.13314268 116 9
2.5255146 0.1195428 0.22120127 107 10
2.5222962 0.11762579 0.31003565 86 11
2.5758567 0.11967179 -0.31661656 1 4
2.5100124 0.11573596 0.39796934 98 12
2.5475926 0.11657646 -0.22311871 75 5
2.5103588 0.11443482 0.48847106 12 13
2.5578706 0.11570477 -0.13418941 94 6
2.5093997 0.11263452 0.57992381 11 14
2.5470672 0.11387983 -0.044503637 34 7
2.4799907 0.11001348 0.66516501 48 15
2.5767784 0.10754894 -0.69104689 8 0
2.5434349 0.10526673 0.044433825 18 8
2.5623672 0.10560356 -0.59207118 20 1
2.5443821 0.10397153 0.13345671 141 9
2.5874097 0.10482639 -0.50335413 19 2
2.5282786 0.10198757 0.22137558 110 10
2.5679128 0.10268984 -0.40704253 28 3
2.5171053 0.099778093 0.30930442 102 11
2.6024153 0.10270489 -0.31978518 53 4
2.5226026 0.098673202 0.39984655 94 12
2.556308 0.099096768 -0.22381593 77 5
2.5071728 0.096755005 0.48770785 12 13
2.5466411 0.09738671 -0.13356137 101 6
2.5081775 0.095040284 0.57947391 12 14
2.5497985 0.096170537 -0.044538539 102 7
2.4864895 0.09291479 0.66671789 81 15
2.5929122 0.090094931 -0.69518799 8 0
2.548105 0.087646343 0.044503637 15 8
2.5630419 0.087712288 -0.59207118 12 1
2.5900409 0.086826093 -0.50373578 16 2
2.5249462 0.084202766 0.22102696 45 10
2.5725157 0.084890217 -0.40766826 27 3
2.5217087 0.082331307 0.30979189 21 11
2.5852127 0.08395423 -0.31759155 20 4
2.5232301 0.081058502 0.39984655 92 12
2.5728686 0.081755407 -0.22521043 53 5
2.5452628 0.079544269 -0.13345671 105 6
2.5048842 0.077407196 0.57857406 12 14
2.5404139 0.078061372 -0.044364017 102 7
2.5102491 0.076257467 0.67292953 21 15
3.5899296 0.099648982 -0.96228927 2 0
2.5546515 0.070019446 0.044608355 17 8
4.2233033 0.11501726 -0.97538781 1 1
2.5356028 0.068168812 0.13293335 22 9
5.1635046 0.13701548 -1.0040369 1 2
2.5135226 0.066258259 0.21998109 13 10
2.5162685 0.064572878 0.30906066 19 11
2.5079365 0.063045137 0.39734361 96 12
2.5674014 0.063643284 -0.2246875 16 5
2.5161302 0.061932933 0.4892343 87 13
2.5637259 0.062209085 -0.13439874 28 6
2.4936745 0.059637181 0.57587469 12 14
2.538898 0.060276579 -0.044329114 114 7
2.4836817 0.058097098 0.66568261 59 15
3.3085485 0.06872651 -0.8867141 9 0
2.5490801 0.052060414 0.044503637 87 8
4.2201066 0.085451342 -0.97448796 1 1
2.5340202 0.050425567 0.13282867 56 9
5.2232218 0.10211532 -1.0154855 1 2
2.5218918 0.048863336 0.22067833 20 10
2.5186429 0.047041509 0.30930442 20 11
3.6519446 0.067570992 -0.44847921 42 4
2.5083153 0.045534901 0.39734361 96 12
2.5184641 0.044400133 0.48961592 81 13
2.5640979 0.044309389 -0.13439874 16 6
2.5292599 0.042382739 -0.044154592 123 7
9.3102722 0.1527614 2.4950156 15 15
3.3012209 0.045520276 -0.88464355 9 0
2.5353849 0.034076307 0.044259302 93 8
3.6983836 0.049060021 -0.8539142 7 1
2.5383046 0.032786347 0.13303801 103 9
5.1963239 0.065302484 -1.0101428 1 2
2.5082257 0.031084392 0.21945816 85 10
3.6877611 0.044413209 -0.58412635 4 3
2.5248649 0.02952656 0.31003565 15 11
3.6364481 0.041891035 -0.44652933 53 4
2.5283246 0.028243098 0.40047228 31 12
3.592068 0.038871884 -0.31428361 47 5
2.5088968 0.026712345 0.48770785 89 13
2.556356 0.026325265 -0.13398007 14 6
2.5020587 0.024892692 0.57767427 89 14
2.5394921 0.024821872 -0.044329114 104 7
3.3246398 0.022631681 -0.89085519 6 0
2.5375607 0.016386857 0.044294208 78 8
3.6440723 0.022898141 -0.84131694 58 1
2.5464606 0.015111037 0.13345671 119 9
3.6908607 0.020613741 -0.71744186 42 2
2.516351 0.013614842 0.22015539 99 10
3.6346467 0.018396745 -0.57567888 47 3
2.5230246 0.011890808 0.30979189 18 11
3.6048906 0.016358688 -0.44262949 49 4
2.5106819 0.010518102 0.39765644 17 12
3.5842824 0.013762977 -0.31358635 55 5
2.5090222 0.0091974875 0.48770785 43 13
2.5464914 0.0084447758 -0.13345671 19 6
2.5138638 0.0074591157 0.5803737 59 14
2.5516016 0.0071257744 -0.044538539 86 7
9.3810444 0.022923712 2.5136507 25 15
3.3227849 -0.00057993538 -0.89033753 48 0
2.5436125 -0.0013318325 0.044398922 20 8
3.6382971 -0.002540011 -0.83996725 58 1
2.5285285 -0.0026478695 0.13251466 117 9
3.6536129 -0.0051014093 -0.71019113 48 2
2.5323238 -0.0039777677 0.22154988 105 10
3.6070313 -0.0069250115 -0.57129872 74 3
2.5071652 -0.0056885867 0.30784199 21 11
3.5890362 -0.0087696882 -0.44067958 55 4
2.5047679 -0.0069946493 0.39671785 16 12
3.5723369 -0.011222864 -0.3125405 61 5
2.4992092 -0.0082877213 0.4857997 14 13
2.5444908 -0.0093260882 -0.13335203 16 6
10.784242 -0.04329095 2.4897583 31 14
2.5535889 -0.010696511 -0.044573449 18 7
9.3925667 -0.04262241 2.5167565 30 15
3.328495 -0.02381862 -0.89189047 48 0
2.5535395 -0.019164456 0.044573449 19 8
3.3653753 -0.025844734 -0.77698094 41 1
2.5124707 -0.02017184 0.13167727 21 9
3.4414642 -0.028831817 -0.66897637 23 2
2.5262573 -0.021605365 0.22102696 92 10
3.3639333 -0.029943764 -0.53281587 60 3
2.5130193 -0.023246704 0.30857319 86 11
3.3566422 -0.031636544 -0.41216215 54 4
2.5204604 -0.024635371 0.39922079 62 12
3.3769271 -0.034185495 -0.29545796 32 5
2.5167587 -0.025917094 0.4892343 19 13
2.5543497 -0.027195934 -0.13387538 19 6
10.779779 -0.11853464 2.4888585 30 14
2.5314565 -0.028277818 -0.044189494 42 7
9.388176 -0.10814879 2.5157211 33 15
3.3301795 -0.047082439 -0.89240813 36 0
2.5533433 -0.036990914 0.044573449 17 8
3.3417304 -0.048995834 -0.77158207 75 1
2.5362332 -0.038071293 0.13293335 23 9
3.3567691 -0.051560327 -0.65256679 67 2
2.5180767 -0.039117511 0.22032972 99 10
3.3557422 -0.053302046 -0.53156441 63 3
2.5306594 -0.041080162 0.31076685 102 11
3.350385 -0.054971669 -0.41143093 55 4
2.5064013 -0.041999087 0.39703071 103 12
3.3228197 -0.056839798 -0.29075155 47 5
2.5067019 -0.043317005 0.4873262 43 13
2.5521004 -0.044992644 -0.13377072 56 6
10.792327 -0.19403338 2.4920077 30 14
2.5311975 -0.045949884 -0.044189494 85 7
9.3852615 -0.17365173 2.5152035 36 15
3.3548784 -0.070860475 -0.89913744 41 0
2.5310311 -0.054343387 0.044189494 56 8
3.3335137 -0.072155446 -0.76978248 61 1
2.5339088 -0.055732552 0.13282867 22 9
3.340625 -0.074642695 -0.64951384 67 2
2.5137584 -0.056606203 0.21998109 97 10
3.3315897 -0.076186121 -0.52780992 63 3
2.5263414 -0.058654197 0.31027937 112 11
3.3340433 -0.077988848 -0.40948102 61 4
2.5001225 -0.059355251 0.39609212 99 12
3.3064075 -0.079652026 -0.28935707 60 5
12.606273 -0.30588913 2.4511325 40 13
2.5557175 -0.062906712 -0.13398007 94 6
10.784866 -0.26922685 2.490658 33 14
2.5468073 -0.064021729 -0.044468731 108 7
9.3857508 -0.23921765 2.5157211 33 15
3.431545 -0.096451126 -0.9198429 7 0
2.5365868 -0.072182491 0.044294208 93 8
3.3251369 -0.095202737 -0.7679829 61 1
2.5434401 -0.07371036 0.13335203 23 9
3.3439474 -0.098077767 -0.65027708 72 2
3.3349257 -0.099560849 -0.52843571 66 3
2.5199182 -0.076110035 0.30954817 25 11
3.3433383 -0.10156415 -0.41069973 51 4
2.5154426 -0.077293165 0.39859506 94 12
3.3077621 -0.10279486 -0.28953138 61 5
12.595981 -0.39364406 2.4496059 40 13
2.5412421 -0.080305725 -0.13324735 83 6
10.796357 -0.34494781 2.4938073 34 14
2.5462983 -0.081800088 -0.044468731 108 7
9.3915758 -0.30498704 2.5177917 34 15
3.5717268 -0.12535161 -0.95763052 2 0
2.536021 -0.089889303 0.044294208 93 8
3.392554 -0.12084199 -0.78372949 30 1
2.5388715 -0.091321394 0.13314268 23 9
3.366725 -0.12227542 -0.6548565 61 2
2.5226781 -0.092061535 0.22085266 14 10
3.3420455 -0.12313133 -0.52968717 60 3
2.5113904 -0.093405262 0.30857319 18 11
3.3286619 -0.12438351 -0.40899354 64 4
2.5286598 -0.095373414 0.40078515 28 12
3.3169188 -0.12626365 -0.29040295 61 5
12.585078 -0.48127022 2.4480796 39 13
3.2850432 -0.12677284 -0.17228998 67 6
10.772266 -0.41947749 2.4888585 31 14
2.5496616 -0.099730797 -0.044538539 108 7
9.3892183 -0.37054467 2.5177917 34 15
3.5784853 -0.15060861 -0.95970106 2 0
2.5393274 -0.10776129 0.044364017 93 8
2.5341816 -0.10887223 0.13293335 22 9
3.3775578 -0.14628614 -0.65714622 32 2
2.5160027 -0.10941109 0.22032972 54 10
3.3608391 -0.1473251 -0.53281587 46 3
2.5106771 -0.11093565 0.30857319 16 11
3.3396115 -0.14814658 -0.410456 58 4
15.086684 -0.67452848 2.3918834 21 12
3.3119755 -0.14923747 -0.29005429 65 5
12.606909 -0.57027149 2.4530406 39 13
3.3199916 -0.15134057 -0.17417407 84 6
10.769075 -0.49467123 2.4888585 32 14
2.5409131 -0.11715978 -0.044398922 15 7
9.3902617 -0.4362635 2.518827 33 15
3.550333 -0.17426139 -0.95245409 2 0
2.5385132 -0.12548639 0.044364017 96 8
4.2099481 -0.20884703 -0.97313827 1 1
2.5253804 -0.12616274 0.13251466 98 9
2.5171673 -0.12707373 0.22050403 99 10
2.5316491 -0.1295768 0.31125432 37 11
15.071743 -0.77932602 2.3903189 19 12
3.3387089 -0.1738057 -0.29249465 47 5
12.592816 -0.6577577 2.4511325 41 13
3.3188541 -0.17451461 -0.17417407 77 6
10.78482 -0.57087106 2.4933574 33 14
2.5440269 -0.1351078 -0.044468731 17 7
9.375412 -0.50118995 2.5157211 36 15
3.5509589 -0.19915113 -0.95297176 2 0
2.5335824 -0.14298002 0.044294208 93 8
4.2083874 -0.23823269 -0.97313827 2 1
2.5403903 -0.14469863 0.13335203 97 9
5.1568608 -0.2955367 -1.0040369 1 2
2.5201972 -0.14487232 0.22085266 93 10
2.5306826 -0.14724775 0.31125432 12 11
15.071852 -0.88487417 2.3912575 18 12
3.3573031 -0.19828452 -0.29423779 44 5
12.580078 -0.74519098 2.4496059 39 13
3.3295171 -0.19839293 -0.17480211 67 6
10.780572 -0.64614868 2.4933574 32 14
2.5450177 -0.15298502 -0.044503637 18 7
9.37747 -0.56697977 2.5172741 35 15
3.5456259 -0.22369316 -0.95193648 1 0
2.5305266 -0.1605375 0.044259302 87 8
4.2027316 -0.26735926 -0.97223842 1 1
2.5293524 -0.16179276 0.13282867 23 9
5.1938562 -0.33405101 -1.0116693 1 2
2.5231006 -0.1627194 0.22120127 97 10
13.499032 -0.87530911 -2.1425269 1 3
14.527827 -0.94711125 1.7875797 17 11
13.143038 -0.85913652 -1.6172063 1 4
14.233492 -0.93540716 2.2592268 10 12
13.10526 -0.86585575 -1.1490613 9 5
12.584364 -0.83364648 2.451514 39 13
3.3400083 -0.22242862 -0.17543015 57 6
10.77191 -0.72113472 2.4924579 31 14
2.5478783 -0.17101656 -0.044573449 18 7
9.3829203 -0.63308269 2.5198622 34 15
3.5825205 -0.25114253 -0.96228927 1 0
2.5552762 -0.18002684 0.044713065 34 8
4.1774364 -0.29504564 -0.96683967 2 1
2.534138 -0.1798711 0.13314268 25 9
5.163981 -0.36834699 -1.0063267 1 2
2.5298526 -0.18089826 0.22189851 87 10
13.106415 -0.94177878 -2.0812044 1 3
13.041848 -0.94171542 1.6055069 17 11
13.164438 -0.95287687 -1.6206186 1 4
12.80415 -0.93129116 2.0333354 12 12
13.158508 -0.9616825 -1.1542907 9 5
12.601734 -0.92320228 2.4560935 23 13
3.382195 -0.24896638 -0.17773293 42 6
10.762725 -0.79603112 2.4915578 33 14
2.5565934 -0.18953902 -0.044747971 20 7
9.3801994 -0.69871533 2.52038 35 15
3.571049 -0.27540421 -0.95970106 2 0
2.5419946 -0.19693474 0.044503637 93 8
4.1908178 -0.32540905 -0.97043884 1 1
2.5308292 -0.19740288 0.13303801 21 9
5.161284 -0.40438911 -1.0063267 1 2
13.292507 -1.0484773 -2.1118655 1 3
11.883242 -0.9414922 1.4636509 26 11
13.347436 -1.0598425 -1.6440176 1 4
11.64343 -0.92862731 1.8499942 13 12
13.294467 -1.0649769 -1.166841 20 5
11.616503 -0.93260103 2.2652845 29 13
13.316445 -1.0737551 -0.70015049 31 6
10.764675 -0.87177831 2.4933574 31 14
2.5452421 -0.20657383 -0.044573449 20 7
9.3789425 -0.76449788 2.5214152 36 15
3.5517137 -0.29887 -0.9550423 2 0
2.5445433 -0.21501303 0.044573449 93 8
4.1981535 -0.35548049 -0.97268838 2 1
2.5293896 -0.21506645 0.13303801 22 9
5.1583347 -0.44041157 -1.0063267 1 2
11.055231 -0.94582397 0.97074062 6 10
11.135669 -0.95662129 -1.7702127 1 3
10.84004 -0.93503702 1.3359319 18 11
11.148399 -0.96359569 -1.373955 1 4
10.660545 -0.92517787 1.6948112 14 12
10.956474 -0.95471358 -0.96219939 8 5
10.627892 -0.9279508 2.0737123 23 13
11.004635 -0.96471614 -0.57894039 11 6
10.467142 -0.92127895 2.4258721 20 14
9.3618317 -0.82893378 2.5183094 35 15
3.5456932 -0.32330734 -0.95400703 2 0
2.5310316 -0.23167822 0.044364017 93 8
4.16646 -0.38211057 -0.96593982 1 1
2.533793 -0.23326881 0.13335203 87 9
5.1043067 -0.47171515 -0.99640459 1 2
10.254798 -0.9495036 0.90101606 9 10
10.267217 -0.95426822 -1.633176 1 3
10.287731 -0.9597972 1.2686601 17 11
10.228269 -0.95605034 -1.2613478 1 4
9.8612318 -0.92521524 1.5687251 18 12
10.233458 -0.96374255 -0.89927298 16 5
9.7748222 -0.92227155 1.9084717 24 13
10.257961 -0.97146922 -0.54000247 28 6
9.707737 -0.92277998 2.2513101 17 14
2.5381284 -0.24171168 -0.044503637 79 7
9.3904324 -0.89757967 2.527627 16 15
3.5548851 -0.34918594 -0.95711285 2 0
2.5293527 -0.24934234 0.044364017 96 8
4.1481767 -0.40965629 -0.96234065 1 1
10.261575 -1.0170065 0.54042113 13 9
5.1712193 -0.51433331 -1.0101428 1 2
9.2447367 -0.9211179 0.81281441 1 10
10.209199 -1.0208131 -1.6250414 1 3
9.2260361 -0.92576003 1.1385034 18 11
10.221345 -1.0274332 -1.2613478 1 4
9.1587791 -0.9238553 1.4579694 13 12
9.0786533 -0.92057514 1.7737606 29 13
9.0128336 -0.92025828 2.0915949 15 14
8.8727493 -0.91064936 2.389935 20 15
3.5600457 -0.37480408 -0.95918339 2 0
2.5355048 -0.2678346 0.044503637 96 8
4.1607189 -0.44024619 -0.96593982 1 1
8.8560114 -0.94018179 0.46673208 21 9
8.9274616 -0.95091867 -1.7451392 0 2
8.8160973 -0.94061273 0.77568609 10 10
8.6588058 -0.92994511 1.0692817 21 11
8.7336445 -0.93952459 -1.0785438 0 4
8.5668421 -0.92460597 1.3647344 13 12
8.8403597 -0.95724815 -0.77795213 10 5
8.4981728 -0.92169636 1.6615648 26 13
8.7264452 -0.94953632 -0.46003309 17 6
8.4037104 -0.91738743 1.9516754 17 14
8.7326155 -0.95483458 -0.15333684 15 7
8.3400059 -0.91485226 2.2481024 20 15
3.559262 -0.39986423 -0.95970106 2 0
2.543509 -0.28664884 0.044678163 54 8
4.1575437 -0.46928254 -0.96593982 1 1
8.2955351 -0.93929082 0.43752864 27 9
8.4056177 -0.95472699 -1.6443919 0 2
8.2411642 -0.93750495 0.72565866 17 10
8.4275751 -0.9616909 -1.3434594 1 3
8.1472158 -0.93257946 1.0068846 17 11
8.0381689 -0.92436153 1.2815113 15 12
8.2713509 -0.9541021 -0.72844774 13 5
7.9649553 -0.92016798 1.5585279 22 13
8.175993 -0.94744074 -0.431353 24 6
7.8841386 -0.91640955 1.8324513 15 14
8.1377983 -0.94733316 -0.14300501 19 7
7.8287673 -0.91412824 2.1119635 14 15
3.5065103 -0.41874674 -0.94624245 2 0
7.8407569 -0.93911773 0.13783911 18 8
4.1735153 -0.50061685 -0.97043884 1 1
7.7950187 -0.93777972 0.41146535 27 9
7.8140121 -0.94283187 -1.5299066 0 2
7.7320061 -0.93430626 0.68138355 17 10
6.4635496 -0.78332013 -1.0312161 1 3
7.639977 -0.92859793 0.94497496 7 11
7.5550408 -0.92228884 1.2054842 11 12
7.7325063 -0.94669271 -0.68155789 18 5
7.5179396 -0.92175502 1.4722823 17 13
7.6716142 -0.94331497 -0.40508035 23 6
7.4327073 -0.91657233 1.7289737 9 14
7.6646004 -0.94652659 -0.13480239 26 7
7.3582311 -0.91129982 1.9866952 12 15
3.5437493 -0.44830805 -0.95711285 2 0
7.3876553 -0.93720812 0.12998553 27 8
4.1621857 -0.5287587 -0.96863925 1 1
7.3385386 -0.93488163 0.38770482 25 9
7.4216485 -0.948102 -1.4543462 1 2
7.2786546 -0.931126 0.64198917 25 10
7.2159076 -0.92821962 0.89330238 8 11
7.2866235 -0.93860888 -0.90207696 12 4
7.1526794 -0.92389351 1.1422846 11 12
7.2989182 -0.9453733 -0.64390665 22 5
7.1044087 -0.92144078 1.3925241 16 13
7.2588234 -0.94404483 -0.38362259 26 6
7.0145316 -0.91476363 1.6331446 7 14
7.2314906 -0.94434083 -0.12729785 32 7
6.9647579 -0.91198164 1.8821322 20 15
3.5271297 -0.47124609 -0.95348942 2 0
6.986516 -0.93592376 0.12303946 29 8
4.1468043 -0.55624861 -0.96593982 1 1
6.930007 -0.93204767 0.36645639 24 9
6.9517856 -0.93744731 -1.3635212 1 2
6.8849812 -0.92966229 0.60782415 22 10
6.8138738 -0.92490512 0.84431088 11 11
6.9041948 -0.93839228 -0.85552287 18 4
6.7780848 -0.92366177 1.0834652 11 12
6.8933821 -0.94182456 -0.60869569 23 5
6.7262821 -0.92019004 1.319635 15 13
6.8444366 -0.93878824 -0.36206019 26 6
6.6566105 -0.91539329 1.5512625 9 14
6.82654 -0.93997526 -0.12028199 26 7
6.6003594 -0.91117936 1.7853339 21 15
3.5371447 -0.49774286 -0.95711285 2 0
6.6194363 -0.93383574 0.11668679 32 8
4.1312423 -0.58354962 -0.96324039 2 1
6.5673761 -0.92999876 0.34761545 26 9
6.5757561 -0.93352705 -1.2910137 1 2
6.5272069 -0.9277969 0.57679671 21 10
6.4888978 -0.92697358 0.80482519 11 11
6.5339327 -0.93457067 -0.81043118 16 4
6.4253697 -0.92133141 1.0280875 13 12
6.5494065 -0.94145024 -0.57888842 23 5
6.3737988 -0.9173429 1.2517071 15 13
6.4858475 -0.93578047 -0.34342858 24 6
6.3086824 -0.91246706 1.4716297 8 14
6.4675403 -0.93659621 -0.11406893 26 7
6.2688293 -0.91005421 1.6973354 20 15
3.5278504 -0.52157676 -0.95555997 2 0
6.2784586 -0.93048137 0.11078788 28 8
4.1367064 -0.6138069 -0.96548992 2 1
6.250566 -0.92969263 0.33118194 28 9
5.0700159 -0.75590968 -0.99640459 1 2
6.2407513 -0.93157297 0.55204445 33 10
6.1642404 -0.92455184 0.76533955 11 11
6.217082 -0.9335869 -0.77192044 17 4
6.094521 -0.91735798 0.97615117 13 12
6.22155 -0.93869966 -0.55047566 24 5
6.0974083 -0.92105782 1.1986622 18 13
6.188868 -0.93708318 -0.32804179 29 6
6.0093036 -0.91204047 1.4032447 8 14
6.1405697 -0.93305922 -0.10841435 25 7
5.9720292 -0.9095825 1.6186544 18 15
3.5203049 -0.54560113 -0.9545247 2 0
5.9852901 -0.92978108 0.10572667 32 8
4.1496506 -0.64536661 -0.96953911 2 1
5.9380422 -0.92562574 0.3149578 24 9
5.0646152 -0.79128641 -0.99640459 1 2
5.8935533 -0.92185193 0.52188861 23 10
5.8732862 -0.92288291 0.7299974 15 11
5.9241104 -0.93192863 -0.73633462 17 4
5.7991805 -0.91435027 0.92984658 17 12
5.9235859 -0.93608427 -0.52467757 24 5
5.8038368 -0.91819918 1.1421827 18 13
5.8961458 -0.93491268 -0.31286436 23 6
5.7275743 -0.91023302 1.3389087 7 14
5.8495264 -0.93066061 -0.10338806 26 7
5.6774635 -0.90531749 1.540491 18 15
3.5202241 -0.57078242 -0.95555997 2 0
5.6963997 -0.92567647 0.10073529 25 8
4.1373496 -0.67306894 -0.9677394 2 1
5.6791172 -0.92592049 0.30155981 24 9
5.0977187 -0.83295637 -1.0040369 1 2
5.6175966 -0.91891003 0.49800789 26 10
5.6120524 -0.9220264 0.69831145 15 11
5.6491079 -0.92912692 -0.70294243 16 4
5.5412245 -0.91336972 0.88948649 18 12
5.6417012 -0.93195444 -0.50027394 12 5
5.5241761 -0.91353083 1.0883746 20 13
5.615592 -0.93066216 -0.29831499 25 6
5.4750118 -0.90932786 1.2813212 7 14
5.5864468 -0.9288376 -0.098850429 25 7
5.430902 -0.90492409 1.4752686 16 15
3.5275822 -0.59727913 -0.95866579 2 0
5.4256144 -0.92059636 0.096058048 25 8
4.1210232 -0.69997847 -0.96504009 2 1
5.416553 -0.92197692 0.28795245 25 9
5.0530734 -0.86192232 -0.99640459 1 2
5.3655491 -0.91618627 0.47621897 23 10
5.4089818 -0.92554587 -0.86914998 1 3
5.353085 -0.91790462 0.6668691 14 11
5.4096632 -0.92857808 -0.6739375 14 4
5.3010988 -0.91184801 0.85194218 18 12
5.3994455 -0.93070525 -0.47935659 18 5
5.2816343 -0.91134739 1.0418171 18 13
5.3550797 -0.92594528 -0.2848123 24 6
5.2419553 -0.9082697 1.2282327 7 14
5.3374825 -0.92578113 -0.094557136 23 7
5.1865377 -0.901465 1.4105638 9 15
3.4966919 -0.61719036 -0.95141882 2 0
5.2044201 -0.92048967 0.092253424 24 8
4.1294684 -0.73110962 -0.96818936 2 1
5.1936641 -0.92139196 0.27643853 13 9
5.0971899 -0.90611219 -1.0063267 1 2
5.1255951 -0.91208464 0.4554759 11 10
5.2059731 -0.92826253 -0.83755022 11 3
5.1179118 -0.91440392 0.63835168 9 11
5.1880989 -0.92787856 -0.64712632 14 4
5.1234965 -0.91817033 0.82440978 11 12
5.1810255 -0.93034661 -0.46053094 13 5
5.1360192 -0.92319024 1.0143408 14 13
5.1106434 -0.92047071 -0.272147 23 6
5.1242566 -0.9247694 1.2021384 6 14
5.116394 -0.9242726 -0.090752512 22 7
5.12499 -0.92767286 1.3955523 10 15
3.5226989 -0.6471718 -0.95970106 2 0
5.1152678 -0.94159603 0.090787418 17 8
4.1108484 -0.75744879 -0.96504009 1 1
5.1105061 -0.94348651 0.27235636 13 9
5.0559912 -0.93524718 -0.9994576 3 2
5.1151838 -0.94711989 0.45512727 15 10
5.1022539 -0.94656807 -0.82190675 9 3
5.1192098 -0.95156211 0.63932663 8 11
5.0975761 -0.94846135 -0.63664556 10 4
5.0956001 -0.94993412 0.82096815 9 12
5.0921469 -0.95112967 -0.45320985 14 5
5.1236591 -0.95794123 1.0131959 15 13
5.1040926 -0.95612699 -0.272147 17 6
5.1100144 -0.95908284 1.2003388 6 14
5.0960598 -0.95738441 -0.090508185 24 7
5.1088963 -0.96164244 1.3929642 10 15
3.4858363 -0.66558939 -0.95090121 2 0
5.0987492 -0.97540551 0.090612896 18 8
4.1475673 -0.79419202 -0.97493786 1 1
5.0998721 -0.97838867 0.272147 13 9
5.0686183 -0.97422725 -1.0032737 7 2
5.0888824 -0.97904319 0.45338416 15 10
5.0858231 -0.98029578 -0.82034248 9 3
5.0929513 -0.98351359 0.63688928 9 11
5.0732894 -0.98063511 -0.63445187 9 4
5.1024194 -0.98811364 0.8231582 11 12
5.0697346 -0.98362017 -0.45181534 14 5
5.126483 -0.9955588 1.0151039 13 13
5.0835695 -0.98906672 -0.27141431 16 6
4.6250091 -0.90152413 1.0878633 0 14
5.0794377 -0.99102336 -0.090333655 17 7
5.1115379 -0.99913847 1.3955523 10 15
3.4981599 -0.69328874 -0.95555997 2 0
5.0937762 -1.0113668 0.090647802 19 8
4.1151628 -0.81781012 -0.96863925 1 1
5.0929174 -1.0139682 0.272147 13 9
5.0539923 -1.0080527 -1.0017474 5 2
5.0858312 -1.0153263 0.45373279 15 10
5.0807929 -1.0161648 -0.82065529 9 3
5.101532 -1.0221648 0.63883913 8 11
5.0817122 -1.0200387 -0.63640177 9 4
5.0992703 -1.024489 0.82378399 11 12
5.0705581 -1.0205621 -0.45251262 14 5
5.1153789 -1.0314412 1.0143408 13 13
5.084372 -1.0261127 -0.27183297 15 6
4.5995021 -0.92992866 1.0833644 0 14
5.0839758 -1.0297272 -0.090543084 17 7
5.1006517 -1.0340316 1.3945172 10 15
3.4741864 -0.71441197 -0.95038354 2 0
5.0885506 -1.0473064 0.0906827 18 8
4.0786672 -0.84094006 -0.9614408 1 1
5.0972672 -1.0528102 0.27277502 13 9
5.0602899 -1.0460936 -1.0044186 6 2
5.0842886 -1.0529056 0.45425573 15 10
5.0811276 -1.0541008 -0.82190675 9 3
5.0864973 -1.0561408 0.63786417 8 11
5.0861282 -1.0579163 -0.63786417 9 4
5.1014781 -1.0629669 0.82534832 10 12
5.0750117 -1.0583766 -0.4535585 13 5
5.111897 -1.0679309 1.0151039 13 13
5.072989 -1.0616508 -0.27162364 15 6
4.5013447 -0.94283998 1.061769 0 14
5.0962338 -1.0693009 -0.090892136 17 7
5.1006842 -1.0720937 1.3965876 13 15
3.4861195 -0.74226952 -0.9550423 2 0
5.0887489 -1.0853606 0.090822324 18 8
4.0726972 -0.86939389 -0.9614408 1 1
5.085887 -1.0875345 0.27256569 13 9
5.0411558 -1.0798099 -1.002129 7 2
5.0904508 -1.0912981 0.4554759 20 10
5.0813704 -1.0912068 -0.8231582 9 3
5.1001568 -1.0971037 0.64054531 33 11
5.0747371 -1.0925623 -0.63737667 9 4
5.0977955 -1.0993887 0.82597405 16 12
5.0789928 -1.0971893 -0.45460433 13 5
5.1081548 -1.1044221 1.0158671 15 13
5.0791183 -1.1 -0.27235636 39 6
4.4963865 -0.97543949 1.0622189 0 14
5.1648088 -1.1232778 1.4162579 1 15
3.469533 -0.76409602 -0.95193648 1 0
5.0771422 -1.1199985 0.090752512 9 8
4.1121984 -0.90788817 -0.97223842 1 1
5.0606184 -1.1191325 0.27162364 10 9
5.0104933 -1.1098821 -0.99754947 8 2
5.018518 -1.1125786 0.44972363 8 10
5.0851989 -1.1292239 -0.82503545 12 3
4.9954867 -1.1111323 0.62835836 6 11
5.0553608 -1.1253759 -0.63591433 7 4
4.9473219 -1.103138 0.80282182 6 12
5.0439863 -1.1265403 -0.45216399 7 5
4.9451261 -1.1053666 0.98495609 8 13
5.0186915 -1.12365 -0.26953021 10 6
4.4818611 -1.0051004 1.0604193 0 14
4.0184155 -0.90337849 1.1036046 1 15
3.4302075 -0.78058326 -0.94261903 1 0
4.9132237 -1.1198648 0.087960131 7 8
4.0924606 -0.93354064 -0.96908909 3 1
4.894969 -1.1184005 0.26314521 7 9
4.9318128 -1.12863 -0.98342961 7 2
4.8397231 -1.1084445 0.4343842 7 10
4.9077597 -1.1258301 -0.79750299 5 3
4.8444419 -1.1130853 0.61032176 6 11
4.8964815 -1.125942 -0.61690265 5 4
4.7874265 -1.1026244 0.77810514 7 12
4.8651557 -1.1223153 -0.43682456 6 5
4.7957315 -1.1071818 0.95671636 7 13
4.8608899 -1.1240121 -0.26147047 8 6
4.4861264 -1.0390033 1.0631187 0 14
4.8370085 -1.1211584 -0.086668648 7 7
3.9292111 -0.91218758 1.0808283 1 15
3.4585261 -0.81246376 -0.95193648 1 0
4.7398305 -1.1152089 0.084993221 9 8
4.0953279 -0.96432173 -0.97133869 2 1
4.735415 -1.116787 0.2549808 7 9
4.7690487 -1.1264764 -0.95251852 7 2
4.6825676 -1.106912 0.42096224 7 10
4.6979451 -1.1122788 -0.76465172 7 3
4.6897569 -1.1120691 0.59179759 6 11
4.7494373 -1.1270964 -0.59935349 6 4
4.6450834 -1.104045 0.75620425 7 12
4.7002053 -1.11888 -0.42270535 6 5
4.6274614 -1.1024168 0.92466044 8 13
4.6877923 -1.1185189 -0.25257334 8 6
4.4939265 -1.0739202 1.0667179 0 14
4.6773658 -1.11862 -0.083946079 7 7
3.9265046 -0.94049615 1.0818636 1 15
3.45277 -0.83658886 -0.95193648 1 0
4.593955 -1.1147901 0.082514979 8 8
4.0998583 -0.99564809 -0.97403812 1 1
4.593596 -1.1172502 0.24775843 7 9
4.6256371 -1.1267534 -0.92542368 7 2
4.5392265 -1.1065441 0.4087604 7 10
4.592196 -1.121155 -0.74869543 10 3
4.539185 -1.1098919 0.57376093 6 11
4.579484 -1.1205926 -0.57887942 6 4
4.514472 -1.1063546 0.73618072 7 12
4.5587678 -1.1188971 -0.41067785 5 5
4.4938178 -1.1037875 0.89947367 8 13
4.5344119 -1.1154368 -0.24472295 8 6
4.4749665 -1.1024703 1.0640185 7 14
4.5451822 -1.1206105 -0.081712164 8 7
3.9010882 -0.96325433 1.0766873 1 15
3.4618399 -0.86441731 -0.95607764 1 0
4.4560833 -1.1143312 0.080176361 7 8
4.1098213 -1.0285038 -0.97808713 1 1
4.4578199 -1.1172458 0.24085009 7 9
4.476748 -1.1236508 -0.89718395 7 2
4.4154487 -1.1090841 0.39830172 7 10
4.4405799 -1.1170446 -0.72523028 64 3
4.4004297 -1.108578 0.55718666 7 11
4.4291091 -1.1166252 -0.56084275 6 4
4.3725691 -1.1039943 0.71427983 8 12
4.4330177 -1.1209027 -0.40004486 6 5
4.3603868 -1.1033475 0.87428689 8 13
4.4064779 -1.1166471 -0.23823328 8 6
4.3462739 -1.1030054 1.0352248 6 14
4.4151435 -1.1213037 -0.079513162 8 7
3.8905234 -0.9895128 1.075652 1 15
3.4482369 -0.88663983 -0.95400703 1 0
4.3261943 -1.1139978 0.077977359 8 8
4.0836701 -1.0523076 -0.97358811 2 1
4.3106704 -1.1124074 0.23331371 7 9
4.3395395 -1.1214732 -0.87123388 7 2
4.2880054 -1.1089536 0.38749442 7 10
4.2888217 -1.1123596 0.54402483 7 11
4.3249383 -1.1233385 -0.54865587 6 4
4.2137189 -1.0952358 0.68956316 9 12
4.2978268 -1.118699 -0.3885403 7 5
4.2383933 -1.1048087 0.85138983 8 13
4.2787542 -1.116127 -0.23174362 8 6
4.2064843 -1.0988437 1.0037316 7 14
4.2657819 -1.1159245 -0.076965116 9 7
3.8835206 -1.0166494 1.075652 1 15
3.4156592 -0.90436965 -0.94676012 1 0
4.2081304 -1.1149795 0.075987779 10 8
4.0760355 -1.0815027 -0.97358811 2 1
4.1887131 -1.1129649 0.22713807 8 9
4.2177649 -1.1214722 -0.84833682 7 2
4.1528893 -1.1057746 0.37598985 9 10
4.2239323 -1.1262701 -0.692379 6 3
4.1409388 -1.1049147 0.52623188 15 11
4.1942506 -1.1207082 -0.53305656 6 4
4.0970039 -1.0962563 0.67172968 15 12
4.162889 -1.1146641 -0.37703574 7 5
4.1186972 -1.1043721 0.82887435 9 13
4.1607089 -1.1171938 -0.22577733 9 6
4.0895553 -1.0988537 0.97763729 7 14
4.138164 -1.1134636 -0.074801013 12 7
3.8873384 -1.0474288 1.0787579 1 15
3.4204462 -0.931238 -0.94986594 2 0
4.0823584 -1.1129786 0.073858589 10 8
4.0759063 -1.1119839 -0.97538781 13 1
4.0883622 -1.1169155 0.22211383 9 9
4.0448828 -1.1065546 -0.81513608 53 2
4.024003 -1.1015974 0.36500823 46 10
4.0845156 -1.119696 -0.67079103 7 3
4.0448694 -1.1103458 0.51501989 56 11
4.0906153 -1.1236713 -0.52086961 7 4
4.0472383 -1.1147952 -0.36727428 7 5
3.9651511 -1.0929291 0.79948968 8 13
4.0449929 -1.1164557 -0.2199157 8 6
3.9857938 -1.1016136 0.9546923 8 14
4.0397048 -1.1172727 -0.073160492 10 7
3.8799312 -1.0745417 1.0787579 1 15
3.4138615 -0.95509434 -0.94986594 2 0
3.9608808 -1.1096246 0.071799204 9 8
3.9929874 -1.1193709 -0.95739168 9 1
3.9727802 -1.1152018 0.21625218 10 9
4.0124888 -1.1278597 -0.81017506 10 2
4.0238862 -1.1318212 0.36570549 4 10
3.9682195 -1.1176584 -0.65295756 9 3
3.9680429 -1.1198515 -0.50624532 7 4
3.9339159 -1.113186 -0.35768715 8 5
3.1470499 -0.89111859 0.63577563 2 13
3.9314167 -1.1147025 -0.21415874 10 6
3.162533 -0.89788812 0.75898486 8 14
3.922163 -1.1142976 -0.071170911 10 7
3.1197941 -0.88751948 0.8691144 19 15
3.4256778 -0.98423862 -0.9550423 2 0
3.1401379 -0.90338629 0.057034463 5 8
3.8839507 -1.1181079 -0.933097 7 1
3.1396773 -0.90503418 0.17124327 4 9
3.8687065 -1.1166449 -0.78269857 1 2
3.0702965 -0.88677597 0.27959561 0 10
3.2221482 -0.93185318 -0.53125149 1 3
3.1366107 -0.90830213 0.40095019 1 11
3.1667986 -0.91824222 -0.40485001 1 4
3.1454308 -0.91383201 -0.28656808 5 5
3.1277089 -0.91045952 -0.17071991 19 6
3.1462438 -0.91823816 -0.057208989 26 7
3.0894151 -0.90223759 0.86238509 31 15
3.1109707 -0.91796905 -0.8691144 16 0
3.1011512 -0.91565979 0.056441084 29 8
3.1003063 -0.916587 -0.7463876 30 1
3.0948184 -0.91613948 0.16914983 41 9
3.0946774 -0.91668522 -0.62738001 31 2
3.0485909 -0.90419149 0.27820113 4 10
3.0960982 -0.91945773 -0.51154077 28 3
3.0597878 -0.9092555 0.39193183 5 11
3.0727887 -0.91428649 -0.39363801 26 4
3.0385003 -0.90523893 0.50215465 29 12
3.0740566 -0.91641605 -0.2806415 31 5
3.0381949 -0.90688002 0.6163131 21 13
3.0675323 -0.91680336 -0.16778909 38 6
3.0283313 -0.90566307 0.72974122 25 14
3.0612152 -0.91666174 -0.055777889 41 7
3.0181131 -0.90490323 0.84426773 29 15
3.0198836 -0.91520828 0.055079795 34 8
3.0192368 -0.91558766 -0.72839153 24 1
3.0176363 -0.91625273 0.16527697 42 9
3.0204172 -0.91824871 -0.61364174 31 2
2.9850202 -0.9080568 0.27297178 25 10
3.0140171 -0.9180274 -0.499026 28 3
3.005734 -0.91665089 0.38583836 34 11
3.0093713 -0.91833431 -0.38632584 32 4
2.964097 -0.90564972 0.49089143 32 12
2.9759688 -0.91041303 -0.27227452 34 5
2.9717169 -0.90967947 0.6041013 28 13
2.9999506 -0.91946745 -0.16443959 35 6
2.9435272 -0.90329814 0.71084529 24 14
2.9744537 -0.91335684 -0.05431189 39 7
2.9212413 -0.8981331 0.81890345 30 15
2.9317954 -0.90978569 -0.82252699 1 0
2.9370348 -0.91253567 0.053683605 38 8
2.9457793 -0.91581631 -0.71219504 30 1
2.9444208 -0.91652119 0.16161345 39 9
2.9370852 -0.91536248 -0.5979954 36 2
2.9101343 -0.90752047 0.26669657 26 10
2.9226828 -0.91255313 -0.48494691 33 3
2.9158957 -0.91155112 0.37511387 31 11
2.9252095 -0.91502327 -0.37633255 30 4
2.8917239 -0.90565705 0.47994098 35 12
2.9068038 -0.91149431 -0.26652226 37 5
2.8884921 -0.90630597 0.58845496 31 13
2.9248624 -0.91883928 -0.1606714 35 6
2.873945 -0.90394592 0.69554865 28 14
2.9145961 -0.9172911 -0.053334557 38 7
2.8633087 -0.90224838 0.80440962 33 15
2.8701417 -0.91266847 -0.80699778 15 0
2.8600907 -0.91057175 0.052392125 36 8
2.8520443 -0.90855831 -0.69104964 32 1
2.8656433 -0.91399246 0.15763591 39 9
2.8651657 -0.91494197 -0.58463877 33 2
2.8373027 -0.9065901 0.26059568 35 10
2.8466275 -0.91066486 -0.47337076 29 3
2.8432939 -0.91069275 0.36658302 34 11
2.858258 -0.91603565 -0.36853293 31 4
2.8289032 -0.90771687 0.47055492 38 12
2.8396688 -0.91226459 -0.26094431 35 5
2.8222847 -0.90722322 0.57624322 29 13
2.8328214 -0.9117015 -0.15596117 33 6
2.815629 -0.90725309 0.68295145 30 14
2.8377018 -0.9149121 -0.052043077 37 7
2.79811 -0.9032256 0.78784519 34 15
2.8049202 -0.91353929 -0.79043341 37 0
2.7947276 -0.91129881 0.051310074 34 8
2.7919059 -0.91091776 -0.67800248 30 1
2.7832515 -0.90916926 0.15344904 43 9
2.8008626 -0.91600406 -0.57280862 36 2
2.7797775 -0.90964538 0.25588927 38 10
2.789516 -0.91391033 -0.46492329 34 3
2.7689633 -0.90824711 0.35780841 34 11
2.7706907 -0.90934956 -0.35805216 35 4
2.7568142 -0.90586132 0.45960453 33 12
2.7764528 -0.91338819 -0.25571495 34 5
2.7618024 -0.90910274 0.56517625 30 13
2.7713773 -0.91332698 -0.15292569 39 6
2.7463057 -0.90612727 0.66765475 30 14
2.7628853 -0.91213244 -0.050786503 39 7
2.7348745 -0.9039436 0.77179843 32 15
2.7361636 -0.91232264 -0.7728337 31 0
2.7294967 -0.91115832 0.050228026 40 8
2.7281795 -0.91124791 -0.66405553 35 1
2.7181177 -0.90894204 0.15020421 41 9
2.7236552 -0.91185093 -0.55830717 36 2
2.707237 -0.90687972 0.24978836 35 10
2.7268822 -0.91451925 -0.45553723 33 3
2.7060993 -0.90860039 0.35049626 34 11
2.7040591 -0.90844053 -0.35025251 34 4
2.6774027 -0.90052539 0.44740263 36 12
2.7095854 -0.91240269 -0.25013697 36 5
2.6995738 -0.90955603 0.55372775 36 13
2.6949112 -0.90903276 -0.14905281 35 6
2.6697536 -0.9015848 0.65055847 29 14
2.6901441 -0.90899378 -0.049564835 36 7
2.6754274 -0.90506178 0.75678688 38 15
2.6584225 -0.90707225 -0.75264585 32 0
2.6738687 -0.91338474 0.049320504 40 8
2.664587 -0.91073358 -0.65010852 33 1
2.6587944 -0.9097904 0.14727339 42 9
2.6652186 -0.91302806 -0.54762185 37 2
2.6348739 -0.90314656 0.24368747 38 10
2.6512992 -0.90981096 -0.44396105 31 3
2.6527557 -0.91134596 0.34440279 39 11
2.6525965 -0.91180897 -0.34440279 37 4
2.6131468 -0.89926851 0.43770367 41 12
2.6353357 -0.90793335 -0.24386176 37 5
2.6319077 -0.90726632 0.54113436 30 13
2.6469636 -0.91349018 -0.14675003 36 6
2.6155047 -0.90365529 0.638861 36 14
2.6289237 -0.90880519 -0.048552595 38 7
2.5941939 -0.89781308 0.73556381 38 15
2.5954826 -0.90587485 -0.73659903 35 0
2.599467 -0.90828353 0.04806393 41 8
2.6121752 -0.91323555 -0.638861 34 1
2.6071351 -0.91249484 0.14476126 47 9
2.6050482 -0.91278535 -0.53655493 42 2
2.5739789 -0.90240335 0.23863243 42 10
2.5945575 -0.91063511 -0.43551362 36 3
2.5995073 -0.91339159 0.33830932 42 11
2.6105845 -0.91779566 -0.33977175 41 4
2.5620852 -0.90174991 0.43019485 39 12
2.5763164 -0.90776962 -0.23898104 36 5
2.5662596 -0.90472972 0.52892256 31 13
2.593437 -0.9153288 -0.14413324 39 6
2.5613594 -0.90501302 0.62716353 33 14
2.5753815 -0.91047311 -0.047679976 40 7
2.5368705 -0.89785469 0.72106987 35 15
2.5472476 -0.90903831 -0.72469336 30 0
2.5459845 -0.90958965 0.047191311 44 8
2.543345 -0.90914726 -0.6235643 35 1
2.5536892 -0.91385031 0.14214447 49 9
2.5542548 -0.91505861 -0.52739608 42 2
2.5169766 -0.90219939 0.233926 39 10
2.5304987 -0.90804327 -0.42581466 37 3
2.5239439 -0.90668577 0.32929099 38 11
2.5462027 -0.9151836 -0.33221585 39 4
2.5185533 -0.90623832 0.42393744 39 12
2.5211797 -0.90817761 -0.23444894 36 5
2.5155542 -0.90664726 0.51976377 39 13
2.5118349 -0.90629768 -0.13994636 42 6
2.5109909 -0.90698379 0.61636591 36 14
2.5238271 -0.9121182 -0.046842258 40 7
2.4923916 -0.90174115 0.71019953 42 15
2.4954672 -0.91024917 -0.71175241 41 0
2.4963696 -0.91156584 0.046388499 44 8
2.482024 -0.90681845 -0.61006725 35 1
2.4872239 -0.90970248 0.13879497 43 9
2.5017154 -0.91599286 -0.51785564 85 2
2.4713302 -0.90535665 0.23026547 37 10
2.4832969 -0.91072387 -0.41893157 34 3
2.4728291 -0.90786445 0.32344127 40 11
2.483851 -0.91240287 -0.3249037 40 4
2.4602532 -0.9047094 0.41517711 43 12
2.4736445 -0.91061407 -0.2306141 38 5
2.4612644 -0.90654451 0.50984168 40 13
2.4642203 -0.90861028 -0.13764358 42 6
2.4479244 -0.90357244 0.60241896 39 14
2.4742532 -0.91378146 -0.046039447 37 7
2.4389241 -0.90170145 0.69674093 46 15
2.4474165 -0.91213143 -0.69984674 38 0
2.4412327 -0.9107973 0.045480974 42 8
2.428165 -0.90640485 -0.59836978 35 1
2.4377816 -0.91096425 0.13638751 48 9
2.4364178 -0.91142398 -0.50564384 40 2
2.423898 -0.90722281 0.22643061 41 10
2.4232342 -0.90793878 -0.40985835 34 3
2.4236817 -0.90907151 0.31783527 42 11
2.4309576 -0.91228437 -0.31881022 43 4
2.3984015 -0.90102208 0.40579104 41 12
2.4224699 -0.9110291 -0.22643061 38 5
2.4107761 -0.9071117 0.50068283 39 13
2.4073524 -0.90678293 -0.13481744 44 6
2.3941479 -0.90276349 0.59072149 39 14
2.4042003 -0.90703332 -0.044852685 41 7
2.3801589 -0.89891237 0.68172938 43 15
2.3815668 -0.90609956 -0.68276465 34 0
2.3901265 -0.91031146 0.044643257 42 8
2.3818769 -0.90764546 -0.58847195 38 1
2.3886042 -0.91116399 0.13398007 51 9
2.3843055 -0.9104777 -0.49610341 45 2
2.369276 -0.90521228 0.22189851 41 10
2.3874774 -0.91312158 -0.40485242 39 3
2.3803606 -0.91135228 0.31296051 42 11
2.3874571 -0.91502494 -0.31393546 42 4
2.3479466 -0.90035212 0.39828217 41 12
2.3566906 -0.90464884 -0.22085266 36 5
2.3658998 -0.90913153 0.49266884 36 13
2.3675683 -0.91024685 -0.13293335 45 6
2.3497548 -0.90433979 0.5812735 41 14
2.3567576 -0.90797967 -0.044084776 42 7
2.3271184 -0.89702713 0.66827077 43 15
2.326405 -0.90422207 -0.66878843 38 0
2.3445747 -0.9117552 0.043910254 46 8
2.3335531 -0.90840703 -0.57812423 42 1
2.3354993 -0.91010344 0.13136327 48 9
2.3413081 -0.9128378 -0.48847106 47 2
2.3089128 -0.90113604 0.21684349 43 10
2.323844 -0.90789843 -0.39515349 40 3
2.3277187 -0.90988058 0.30686703 40 11
2.3384929 -0.91503304 -0.30832946 40 4
2.2973006 -0.89983964 0.39077336 41 12
2.3020871 -0.90217805 -0.21632054 38 5
2.3028383 -0.90339988 0.48083872 40 13
2.3107998 -0.90745401 -0.13010719 46 6
2.305295 -0.90575671 0.57182556 38 14
2.3094208 -0.90830851 -0.043316875 42 7
2.275701 -0.89596373 0.65532982 46 15
2.2859175 -0.90690529 -0.65895331 42 0
2.2859526 -0.90784287 0.04293292 46 8
2.2800682 -0.90596658 -0.56642675 42 1
2.2864039 -0.90940839 0.12895581 50 9
2.2799962 -0.9077816 -0.4770225 43 2
2.2562919 -0.89880002 0.2124857 42 10
2.2715771 -0.90580785 -0.38733178 43 3
2.2621517 -0.90296477 0.29906741 41 11
2.2804291 -0.91072184 -0.30150479 42 4
2.2652831 -0.90559 0.38639316 46 12
2.2622764 -0.90530407 -0.21318294 40 5
2.2545555 -0.9026708 0.47206149 41 13
2.2524989 -0.90275991 -0.12717639 43 6
2.2571564 -0.905541 0.56147784 42 14
2.2603405 -0.90727651 -0.042514063 40 7
2.2389171 -0.89958501 0.64653003 51 15
2.243717 -0.90834314 -0.64860052 41 0
2.2387865 -0.90725672 0.042165015 50 8
2.226733 -0.90282458 -0.55472928 39 1
2.2355838 -0.90732193 0.12644368 49 9
2.2408633 -0.91037583 -0.47015342 40 2
2.2222762 -0.9032765 0.20987104 45 10
2.2322631 -0.90824389 -0.38170013 42 3
2.2153463 -0.90226245 0.29370514 47 11
2.2280574 -0.90789276 -0.29541129 47 4
2.2168372 -0.90422308 0.37919718 47 12
2.2282326 -0.90977854 -0.21056828 42 5
2.2136669 -0.90428221 0.46481073 44 13
2.2128654 -0.90485626 -0.12529229 48 6
2.2002811 -0.90060711 0.54888058 43 14
2.2243428 -0.91090912 -0.041955583 42 7
2.18432 -0.89540952 0.63255376 44 15
2.1944673 -0.90628695 -0.63617724 35 0
2.2046778 -0.91140479 0.041641444 47 8
2.1897626 -0.90568632 -0.54708099 37 1
2.1922879 -0.90762711 0.12435025 51 9
2.1872973 -0.90645558 -0.46023133 43 2
2.1864686 -0.90655911 0.20708205 50 10
2.1985009 -0.91244751 -0.3770071 46 3
2.1796625 -0.90552104 0.28980532 49 11
2.1850035 -0.90818715 -0.29053652 48 4
2.1630511 -0.89994848 0.37106261 48 12
2.1852005 -0.90961123 -0.20708205 41 5
2.1819286 -0.90914291 0.4594681 44 13
2.178844 -0.90875041 -0.12372221 50 6
2.1563327 -0.89980334 0.53943259 46 14
2.177335 -0.90945971 -0.041187681 45 7
2.1530631 -0.90020418 0.62530684 50 15
2.1453578 -0.90358829 -0.62375391 43 0
2.157882 -0.9093067 0.040873535 49 8
2.1600442 -0.91110581 -0.54123223 46 1
2.1584575 -0.91088045 0.12278017 53 9
