# .PCD v0.7 - Point Cloud Data file format
VERSION 0.7
FIELDS x y z intensity ring
SIZE 4 4 4 4 2
TYPE F F F F U
COUNT 1 1 1 1 1
WIDTH 1162
HEIGHT 1
VIEWPOINT 0 0 0 1 0 0 0
POINTS 1162
DATA ascii
0.36305156 -0.747343 0.043543518 100 9
0.34632692 -0.71354902 -0.15417367 84 2
0.36264569 -0.74750298 0.072687887 100 10
0.34378135 -0.70924944 -0.12483472 100 3
0.3772366 -0.77896297 0.10627007 100 11
0.34942353 -0.72185236 -0.098470435 100 4
0.39820591 -0.82336152 0.14485833 86 12
0.34946147 -0.72289562 -0.070247531 49 5
0.39362592 -0.81498021 0.17592591 91 13
0.34807351 -0.7213093 -0.041973442 100 6
0.39621863 -0.82144618 0.21055418 68 14
0.35506499 -0.73678297 -0.014276069 100 7
0.39389232 -0.81808245 0.24328992 100 15
0.32923618 -0.68840164 -0.20446704 88 0
0.35447347 -0.74150306 0.014345878 100 8
0.32923108 -0.68931818 -0.17636162 72 1
0.35279331 -0.73898256 0.04291549 100 9
0.33639076 -0.70525783 -0.15188397 84 2
0.35313269 -0.74102348 0.071816333 100 10
0.34064466 -0.71513981 -0.12546046 100 3
0.36083615 -0.7582106 0.10310147 97 11
0.34011346 -0.71531039 -0.097251743 100 4
0.38580877 -0.81177992 0.14235538 97 12
0.34440619 -0.72531766 -0.070247531 100 5
0.38960978 -0.82125586 0.17668915 91 13
0.34315574 -0.72366184 -0.041973442 30 6
0.3904742 -0.82419229 0.21055418 70 14
0.34221283 -0.7229768 -0.013961925 100 7
0.38666236 -0.81725204 0.24225464 100 15
0.32125616 -0.68363315 -0.20239651 88 0
0.35268766 -0.75120014 0.014485498 100 8
0.32949871 -0.70212805 -0.17906104 74 1
0.34762576 -0.74142742 0.04291549 100 9
0.33312455 -0.71114475 -0.1526472 82 2
0.34047681 -0.72717047 0.070247531 100 10
0.3348068 -0.71571118 -0.12514758 100 3
0.35637456 -0.76250964 0.10334522 100 11
0.33103573 -0.70861632 -0.096033052 100 4
0.37679037 -0.80729353 0.14110391 100 12
0.33103776 -0.70958942 -0.068504408 100 5
0.38318124 -0.8221094 0.17630751 85 13
0.34231091 -0.73509276 -0.0424968 100 6
0.38485515 -0.82683104 0.21055418 73 14
0.33897027 -0.72891587 -0.014031734 100 7
0.37443551 -0.80591565 0.23811352 49 15
0.3132382 -0.67884266 -0.20032595 91 0
0.34170365 -0.74087238 0.014241164 100 8
0.32295781 -0.70087159 -0.17816123 72 1
0.34925523 -0.75828922 0.043752864 100 9
0.32663485 -0.70982885 -0.15188397 81 2
0.335392 -0.72952974 0.070247531 100 10
0.32827771 -0.71438372 -0.12452185 100 3
0.34537846 -0.75228935 0.10163904 100 11
0.33352914 -0.72714919 -0.098226704 100 4
0.37128663 -0.80983955 0.14110391 100 12
0.32773533 -0.71550602 -0.068853036 100 5
0.37089697 -0.8104828 0.17325458 95 13
0.33646867 -0.73558944 -0.042392131 100 6
0.3790735 -0.82949764 0.21055418 70 14
0.33304268 -0.72944552 -0.01399683 100 7
0.37054536 -0.81196064 0.2391488 52 15
0.31179997 -0.68799746 -0.20239651 91 0
0.33157426 -0.73230982 0.014031734 100 8
0.31175184 -0.68885046 -0.17456202 74 1
0.33572435 -0.7425102 0.042706143 100 9
0.32328793 -0.71567017 -0.1526472 84 2
0.33041847 -0.73179579 0.070247531 100 10
0.32247019 -0.7148574 -0.12420898 100 3
0.33685556 -0.74744308 0.10066409 100 11
0.32531059 -0.72216284 -0.097251743 100 4
0.36724523 -0.81601453 0.14172964 100 12
0.32122269 -0.71408623 -0.068504408 100 5
0.36537167 -0.81298858 0.17325458 100 13
0.32478037 -0.72334433 -0.041554753 100 6
0.37022686 -0.82494706 0.20875457 78 14
0.32888797 -0.73352021 -0.014031734 100 7
0.36249858 -0.80923855 0.23759589 100 15
0.30227849 -0.67956674 -0.19929068 91 0
0.3290191 -0.74003154 0.014136449 100 8
0.30535311 -0.68744814 -0.17366222 81 1
0.33066252 -0.74477822 0.042706143 12 9
0.31681693 -0.71426493 -0.15188397 87 2
0.32610881 -0.73590618 0.070421837 100 10
0.31439686 -0.70981133 -0.1229575 100 3
0.32854694 -0.74245739 0.099689126 100 11
0.32026109 -0.72441632 -0.097251743 100 4
0.3616823 -0.81849539 0.14172964 100 12
0.32105765 -0.72724742 -0.069550283 100 5
0.35968706 -0.81551963 0.17325458 100 13
0.32065496 -0.72736579 -0.041659426 100 6
0.36131683 -0.82037783 0.20695497 77 14
0.32617515 -0.74128938 -0.014136449 100 7
0.36009282 -0.81876081 0.23966645 100 15
0.30228448 -0.69223106 -0.20239651 88 0
0.32704312 -0.74964195 0.014276069 100 8
0.30066678 -0.68951064 -0.17366222 79 1
0.32385957 -0.74340641 0.0424968 12 9
0.30555508 -0.70205802 -0.14883102 92 2
0.32188687 -0.73993593 0.070596151 100 10
0.31100851 -0.71561235 -0.12358324 100 3
0.32651803 -0.75201648 0.10066409 100 11
0.31058103 -0.71565348 -0.095789306 100 4
0.34967315 -0.80650157 0.13922669 100 12
0.31201315 -0.72032994 -0.068678722 100 5
0.3525677 -0.81434566 0.17249134 100 13
0.31398338 -0.72592038 -0.041450083 100 6
0.34398571 -0.79604727 0.20020644 26 14
0.3163645 -0.73247772 -0.01392702 100 7
0.35283735 -0.81770718 0.23863117 100 15
0.29288006 -0.68366992 -0.19929068 91 0
0.31944135 -0.74639165 0.014171354 100 8
0.30044442 -0.70234305 -0.17636162 72 1
0.32023159 -0.74932235 0.042706143 13 9
0.3021881 -0.70778525 -0.14959426 96 2
0.31514937 -0.7385 0.070247531 100 10
0.30445579 -0.71413177 -0.1229575 100 3
0.32281575 -0.75793034 0.10115156 100 11
0.31102026 -0.73058951 -0.097495481 100 4
0.34171486 -0.80346966 0.13828808 98 12
0.30152285 -0.70965439 -0.067458548 100 5
0.34764129 -0.81859422 0.17287296 97 13
0.31358829 -0.73912644 -0.042078111 100 6
0.34450379 -0.81278312 0.20380566 10 14
0.309683 -0.73098594 -0.013857211 100 7
0.33883739 -0.80058074 0.23293714 100 15
0.28510681 -0.67857373 -0.19722012 91 0
0.30880526 -0.73569655 0.01392702 100 8
0.29251826 -0.69723541 -0.17456202 72 1
0.31499252 -0.75153971 0.042706143 12 9
0.29723945 -0.70987767 -0.14959426 94 2
0.3084476 -0.73700631 0.069898903 100 10
0.29489082 -0.70530492 -0.12108029 100 3
0.31522122 -0.75467044 0.10042035 100 11
0.30667701 -0.73457497 -0.09773922 100 4
0.32545164 -0.78031152 0.13390793 100 12
0.2980938 -0.71542042 -0.067807168 100 5
0.32682228 -0.78475404 0.1652406 93 13
0.30535179 -0.73392159 -0.041659426 100 6
0.30227077 -0.72759008 -0.013752497 100 7
0.32509428 -0.78329962 0.22724313 35 15
0.28183427 -0.68412006 -0.19825539 88 0
0.30366158 -0.73783451 0.01392702 100 8
0.28319541 -0.6884473 -0.17186262 81 1
0.30821988 -0.75002575 0.0424968 100 9
0.29078513 -0.70830315 -0.14883102 96 2
0.29951313 -0.72992545 0.069027349 42 10
0.29145822 -0.71100199 -0.12170603 100 3
0.30693597 -0.74950451 0.099445395 100 11
0.29778138 -0.72751224 -0.096520528 100 4
0.31999612 -0.78256458 0.13390793 100 12
0.28932476 -0.70826185 -0.066935606 39 5
0.32281992 -0.79065174 0.16600384 100 13
0.29795772 -0.73048735 -0.04134541 100 6
0.32650372 -0.80127198 0.19975655 85 14
0.30095533 -0.7389425 -0.01392702 100 7
0.32180205 -0.79091835 0.22879605 42 15
0.27849808 -0.68965358 -0.19929068 91 0
0.29850322 -0.73993647 0.01392702 100 8
0.27838224 -0.69040763 -0.17186262 81 1
0.2947675 -0.73178053 0.04134541 11 9
0.28583324 -0.71031594 -0.14883102 96 2
0.29664037 -0.73754412 0.069550283 41 10
0.28501451 -0.70935351 -0.12108029 100 3
0.30169594 -0.75162905 0.099445395 100 11
0.28826034 -0.71851927 -0.095058098 100 4
0.31599489 -0.78844655 0.13453366 100 12
0.28733537 -0.71766305 -0.067632854 100 5
0.31510422 -0.78741783 0.16485898 100 13
0.28766093 -0.71956778 -0.040612705 27 6
0.31511989 -0.78905374 0.19615732 93 14
0.29504788 -0.73916835 -0.013892116 100 7
0.31484148 -0.7895568 0.22776078 42 15
0.27225509 -0.6879884 -0.19825539 91 0
0.29553571 -0.7475813 0.014031734 100 8
0.27355558 -0.69233423 -0.17186262 82 1
0.29331806 -0.74310941 0.041868769 100 9
0.27942708 -0.70864129 -0.14806779 98 2
0.29002315 -0.73588979 0.069201656 41 10
0.28294998 -0.71867824 -0.12233177 100 3
0.29644123 -0.75371695 0.099445395 100 11
0.28468969 -0.72420913 -0.095545575 100 4
0.30326229 -0.7722466 0.13140497 100 12
0.27940762 -0.71223241 -0.066935606 41 5
0.308166 -0.78594291 0.16409574 100 13
0.28335884 -0.72341818 -0.040717378 28 6
0.30676317 -0.78397542 0.19435771 99 14
0.28405356 -0.72631145 -0.013612877 100 7
0.30791575 -0.78813672 0.22672549 40 15
0.26465219 -0.68266737 -0.19618484 91 0
0.28742075 -0.74216741 0.013892116 100 8
0.27012247 -0.69786173 -0.17276241 81 1
0.28812304 -0.745139 0.041868769 13 9
0.2716434 -0.70324928 -0.14654131 92 2
0.28200829 -0.73046184 0.068504408 41 10
0.27650422 -0.71694994 -0.12170603 100 3
0.29117206 -0.75576818 0.099445395 100 11
0.27891359 -0.72432649 -0.095301837 100 4
0.29857281 -0.77618867 0.13171785 100 12
0.27383825 -0.7122581 -0.0667613 100 5
0.30126381 -0.78440976 0.16333251 100 13
0.28259408 -0.73656714 -0.04134541 100 6
0.30700165 -0.80060172 0.19795693 90 14
0.27897605 -0.72827679 -0.013612877 100 7
0.29757312 -0.7776373 0.22310203 43 15
0.25987983 -0.68449837 -0.19618484 91 0
0.27952459 -0.73662812 0.013752497 100 8
0.26248094 -0.6924417 -0.17096281 78 1
0.2865825 -0.75642151 0.042392131 100 9
0.26962999 -0.7124266 -0.14806779 92 2
0.27760643 -0.73427653 0.068678722 43 10
0.26742831 -0.70772821 -0.11982881 100 3
0.2874231 -0.76144695 0.099932872 100 11
0.27244925 -0.72254115 -0.09481436 100 4
0.29606912 -0.78559679 0.1329693 100 12
0.26534924 -0.70482934 -0.065889739 100 5
0.29301593 -0.77914345 0.16180603 100 13
0.27827671 -0.74034321 -0.041450083 100 6
0.29866487 -0.79542798 0.19615732 99 14
0.27388507 -0.73020661 -0.013612877 100 7
0.29227298 -0.77964479 0.22310203 43 15
0.25521466 -0.6862514 -0.19618484 100 0
0.27089331 -0.72918892 0.013577973 100 8
0.2570833 -0.69238544 -0.1705129 72 1
0.27921101 -0.75278592 0.042078111 100 9
0.26806018 -0.72349632 -0.14997588 80 2
0.27398577 -0.73988587 0.069027349 41 10
0.26111025 -0.7058726 -0.11920308 100 3
0.27521971 -0.74481457 0.097495481 100 11
0.26890031 -0.72810322 -0.095301837 100 4
0.28989372 -0.78579134 0.13265644 100 12
0.261924 -0.7103579 -0.066238366 39 5
0.28906289 -0.7848044 0.16256927 100 13
0.26896352 -0.73102134 -0.040822048 27 6
0.29458889 -0.80110049 0.19705713 100 14
0.27028731 -0.73580819 -0.013682687 100 7
0.28549197 -0.77803904 0.22206675 42 15
0.25239971 -0.69346249 -0.19773777 96 0
0.27002525 -0.74229127 0.013787401 100 8
0.25024664 -0.68866861 -0.1691632 64 1
0.27067155 -0.74528265 0.041554753 100 9
0.25777304 -0.71053976 -0.14692293 77 2
0.26949251 -0.74365377 0.069201656 43 10
0.25899038 -0.7150628 -0.12045455 100 3
0.27216971 -0.7522707 0.098226704 100 11
0.25706354 -0.71129358 -0.092864446 100 4
0.28453836 -0.78774631 0.13265644 100 12
0.25831091 -0.71591741 -0.066586986 100 5
0.28291121 -0.78495634 0.16218765 100 13
0.25856644 -0.71780264 -0.039984677 100 6
0.28371063 -0.78846836 0.1934579 100 14
0.26243842 -0.73014981 -0.013543067 100 7
0.28018948 -0.77996421 0.22206675 43 15
0.24508025 -0.68788522 -0.19566721 96 0
0.26483658 -0.74415833 0.013787401 100 8
0.24751249 -0.69586414 -0.1705129 72 1
0.26078138 -0.73398 0.040822048 11 9
0.25214961 -0.71047181 -0.14654131 80 2
0.26242632 -0.73983771 0.068678722 41 10
0.25399196 -0.7168535 -0.12045455 63 3
0.26558661 -0.75040978 0.09773922 100 11
0.25486398 -0.72051269 -0.0938394 100 4
0.27245098 -0.7710883 0.12952776 100 12
0.25330657 -0.71770334 -0.066586986 100 5
0.28213328 -0.79982394 0.16485898 100 13
0.25620389 -0.72712523 -0.040403362 100 6
0.27561128 -0.783077 0.1916583 100 14
0.25613526 -0.72814649 -0.013473257 100 7
0.27665871 -0.78736919 0.22361965 40 15
0.23772936 -0.68228227 -0.19359665 100 0
0.25832033 -0.74221188 0.013717591 100 8
0.24200819 -0.69573462 -0.170063 72 1
0.26089501 -0.75087577 0.041659426 12 9
0.24525233 -0.70665067 -0.14539646 93 2
0.2552962 -0.73600465 0.068155795 42 10
0.2496279 -0.72047573 -0.12076741 90 3
0.26163986 -0.75599748 0.098226704 100 11
0.25177434 -0.72790253 -0.094570614 100 4
0.26835138 -0.77670568 0.13015349 100 12
0.24569006 -0.71192062 -0.065889739 88 5
0.27398202 -0.79435027 0.16333251 100 13
0.25047088 -0.72700781 -0.040298689 100 6
0.27521074 -0.79972345 0.19525751 100 14
0.25169593 -0.73180783 -0.013508162 100 7
0.26738918 -0.77831918 0.22051384 40 15
0.23296042 -0.68392533 -0.19359665 99 0
0.2531324 -0.74399722 0.013717591 100 8
0.23777251 -0.69925219 -0.1705129 75 1
0.25564656 -0.75267887 0.041659426 11 9
0.24094385 -0.71020484 -0.14577809 95 2
0.24951188 -0.73588204 0.067981474 46 10
0.24395831 -0.72032994 -0.12045455 100 3
0.25762793 -0.76156646 0.09871418 100 11
0.24605072 -0.72776198 -0.094326884 100 4
0.26481858 -0.7841748 0.1310921 100 12
0.23765279 -0.70413768 -0.065018184 100 5
0.26278538 -0.77950025 0.15989795 100 13
0.24602666 -0.73063153 -0.040403362 100 6
0.26913926 -0.79973131 0.19480762 93 14
0.24658093 -0.73354715 -0.013508162 100 7
0.26194906 -0.78016692 0.22051384 41 15
0.22879015 -0.68736798 -0.1941143 100 0
0.24553758 -0.73811316 0.013577973 100 8
0.22796932 -0.68610048 -0.16691369 73 1
0.24737018 -0.74492407 0.041136064 100 9
0.23734017 -0.71555519 -0.14654131 92 2
0.244995 -0.73949742 0.068155795 43 10
0.23346142 -0.70509648 -0.11763873 100 3
0.24869832 -0.75199419 0.097251743 100 11
0.24158669 -0.73134691 -0.094570614 100 4
0.26009399 -0.78783494 0.13140497 100 12
0.23585099 -0.71524048 -0.065889739 100 5
0.25733703 -0.7813158 0.15989795 100 13
0.23792534 -0.72280365 -0.039880004 94 6
0.26294103 -0.79973942 0.19435771 94 14
0.24394946 -0.74285024 -0.013647783 100 7
0.25603011 -0.78009629 0.2199962 42 15
0.22589901 -0.69442064 -0.19566721 96 0
0.23976065 -0.73790747 0.013543067 100 8
0.2232939 -0.68763632 -0.16691369 55 1
0.24031501 -0.74093336 0.040822048 11 9
0.2329441 -0.71906239 -0.14692293 75 2
0.2417969 -0.7468344 0.068678722 39 10
0.23157224 -0.71610683 -0.11920308 97 3
0.24222216 -0.74993402 0.096764266 100 11
0.23172456 -0.71786153 -0.092620708 100 4
0.25458762 -0.78963155 0.13140497 100 12
0.23158808 -0.71872568 -0.066064052 100 5
0.25080988 -0.77931166 0.15913472 100 13
0.23409595 -0.72824991 -0.040089346 100 6
0.25391504 -0.79037863 0.1916583 100 14
0.23461068 -0.73116499 -0.013403447 100 7
0.25234666 -0.78738374 0.22154912 41 15
0.21987598 -0.69229835 -0.19463193 100 0
0.23654737 -0.74524039 0.013647783 100 8
0.22143251 -0.69846654 -0.1691632 67 1
0.23707588 -0.7482639 0.041136064 100 9
0.2256749 -0.71314424 -0.14539646 82 2
0.23657709 -0.74850428 0.068678722 100 10
0.22788253 -0.72143382 -0.11982881 100 3
0.23711191 -0.75156546 0.096764266 100 11
0.22670731 -0.7194618 -0.092620708 100 4
0.24446008 -0.77627295 0.12890202 100 12
0.22716258 -0.72222555 -0.066238366 64 5
0.24948204 -0.79415458 0.16180603 100 13
0.23032999 -0.73363757 -0.040298689 100 6
0.2472249 -0.78841305 0.1907585 100 14
0.22531688 -0.71942699 -0.013159114 100 7
0.2475584 -0.79092681 0.22206675 42 15
0.21172525 -0.68270797 -0.1915261 100 0
0.23311381 -0.75260407 0.013752497 100 8
0.21955444 -0.70926553 -0.17141271 73 1
0.2324362 -0.75180894 0.041240737 11 9
0.218953 -0.70907485 -0.14425161 93 2
0.22442673 -0.72725165 0.066586986 41 10
0.22167687 -0.71923155 -0.11920308 100 3
0.23419543 -0.76079142 0.09773922 100 11
0.22413971 -0.72857755 -0.093595661 100 4
0.23903471 -0.77796072 0.12890202 100 12
0.21627 -0.70474654 -0.064495243 100 5
0.24522188 -0.79958832 0.16256927 100 13
0.2263726 -0.73904705 -0.040508036 100 6
0.24171472 -0.79011983 0.1907585 100 14
0.22216864 -0.72668099 -0.013263829 100 7
0.23808144 -0.77970237 0.21844329 41 15
0.20583524 -0.6804713 -0.19049083 100 0
0.22322766 -0.73889917 0.013473257 100 8
0.21290773 -0.70518434 -0.170063 69 1
0.22487547 -0.74576443 0.040822048 11 9
0.21512972 -0.71434581 -0.14501485 75 2
0.21991828 -0.73070854 0.0667613 42 10
0.21437581 -0.71319461 -0.11795159 100 3
0.22887839 -0.7624079 0.09773922 100 11
0.21847746 -0.72822326 -0.093351923 100 4
0.2330308 -0.77771819 0.12858914 100 12
0.20963106 -0.70051295 -0.063972317 100 5
0.23457116 -0.78435236 0.15913472 100 13
0.21892124 -0.73295456 -0.040089346 100 6
0.23730686 -0.79552287 0.1916583 100 14
0.2176614 -0.73013061 -0.013298733 100 7
0.23042725 -0.77393937 0.21637273 40 15
0.2043581 -0.6930095 -0.19359665 100 0
0.215804 -0.73276663 0.013333639 100 8
0.20302755 -0.68982846 -0.16601388 85 1
0.220227 -0.74923235 0.040926725 11 9
0.21179637 -0.72148156 -0.14615969 94 2
0.21705516 -0.73987329 0.067458548 43 10
0.20828073 -0.71088248 -0.11732586 100 3
0.22076286 -0.75446111 0.096520528 100 11
0.21115966 -0.72210944 -0.09237697 100 4
0.23091818 -0.79070312 0.13046636 100 12
0.20709082 -0.70957398 -0.064669557 37 5
0.22799087 -0.78220123 0.15837148 100 13
0.21324073 -0.73254734 -0.039984677 27 6
0.23188651 -0.79711968 0.1916583 100 14
0.2125589 -0.73163235 -0.013298733 100 7
0.22663349 -0.78109527 0.21792565 42 15
0.20164892 -0.70184618 -0.19566721 100 0
0.21301864 -0.74190676 0.013473257 100 8
0.19928105 -0.6949755 -0.16691369 84 1
0.21457174 -0.74879402 0.040822048 11 9
0.20417981 -0.71346909 -0.14425161 100 2
0.2146222 -0.75094903 0.068330102 41 10
0.20397958 -0.71418315 -0.11763873 100 3
0.2128998 -0.74640155 0.095301837 100 11
0.20393792 -0.71592957 -0.091402017 100 4
0.22282659 -0.7827571 0.12890202 100 12
0.20485617 -0.72058475 -0.065541118 100 5
0.22252452 -0.78377384 0.15837148 100 13
0.20715925 -0.73013902 -0.039775331 27 6
0.22206582 -0.78371972 0.18805908 100 14
0.21016838 -0.74271917 -0.013473257 100 7
0.22288862 -0.78819662 0.21947856 41 15
0.19270042 -0.68831992 -0.1915261 99 0
0.20998777 -0.75107914 0.013612877 100 8
0.19611903 -0.70194644 -0.16826339 90 1
0.20665531 -0.74065483 0.040298689 11 9
0.19655903 -0.70542109 -0.14234352 100 2
0.20790242 -0.74663442 0.067807168 43 10
0.20163487 -0.72510558 -0.11920308 100 3
0.20768383 -0.74786967 0.095301837 100 11
0.20012173 -0.72112668 -0.091889486 29 4
0.2152462 -0.77667916 0.12765054 100 12
0.19835131 -0.71620214 -0.065018184 37 5
0.21823116 -0.78905475 0.15913472 100 13
0.2009934 -0.7277171 -0.039565988 100 6
0.21620767 -0.78333461 0.18760918 100 14
0.2008571 -0.72871011 -0.01319402 100 7
0.2137917 -0.77669537 0.21585509 39 15
0.1858592 -0.6821928 -0.18945555 100 0
0.20276923 -0.74477327 0.013473257 100 8
0.19019128 -0.69953752 -0.16736358 88 1
0.20265636 -0.74589914 0.040508036 100 9
0.19123873 -0.70484793 -0.1419619 100 2
0.20007963 -0.73845232 0.066935606 39 10
0.19566204 -0.72264779 -0.11857734 100 3
0.20673354 -0.76459622 0.097251743 100 11
0.19508246 -0.72250623 -0.091889486 100 4
0.20892532 -0.7743119 0.1270248 100 12
0.19230974 -0.71372187 -0.064669557 100 5
0.21424761 -0.79624647 0.16027956 100 13
0.19707265 -0.73292583 -0.039775331 27 6
0.21224977 -0.79047114 0.18895888 100 14
0.19421117 -0.72430021 -0.013089306 100 7
0.20900002 -0.7799986 0.21637273 36 15
0.18109216 -0.68347377 -0.18945555 100 0
0.1959001 -0.74040562 0.013368543 100 8
0.18430679 -0.69708025 -0.16646378 93 1
0.19629391 -0.74346805 0.040298689 10 9
0.18619014 -0.70619833 -0.1419619 100 2
0.19441178 -0.73790449 0.0667613 42 10
0.18747036 -0.71256727 -0.11670013 100 3
0.20024811 -0.76221609 0.096764266 100 11
0.19204991 -0.73153061 -0.092864446 100 4
0.20438111 -0.77960873 0.12765054 100 12
0.18517923 -0.70736998 -0.063972317 34 5
0.20421177 -0.78062874 0.156845 100 13
0.19182292 -0.7343173 -0.039775331 100 6
0.20707983 -0.79385537 0.18940879 100 14
0.18763666 -0.71983325 -0.012984591 100 7
0.20438649 -0.78521329 0.217408 40 15
0.17872488 -0.69407541 -0.19204374 100 0
0.19122431 -0.74369192 0.013403447 37 8
0.17749591 -0.69080025 -0.16466418 88 1
0.19258784 -0.75062406 0.040612705 12 9
0.18369171 -0.71699005 -0.14386998 100 2
0.18974964 -0.74117386 0.066935606 41 10
0.1805342 -0.70620328 -0.11544865 100 3
0.19197606 -0.75205511 0.095301837 100 11
0.18595697 -0.72900653 -0.09237697 100 4
0.20088385 -0.78867364 0.12890202 100 12
0.18121864 -0.71250731 -0.064320937 37 5
0.19778988 -0.77822983 0.15608177 100 13
0.18620051 -0.73370266 -0.039670657 31 6
0.20296872 -0.8009488 0.1907585 100 14
0.18751557 -0.74051076 -0.013333639 100 7
0.19605827 -0.77538365 0.21430218 41 15
0.17481229 -0.69905454 -0.19307902 100 0
0.18554343 -0.74306864 0.013368543 100 8
0.17078181 -0.68445945 -0.16286457 100 1
0.18492876 -0.74226022 0.040089346 11 9
0.1786817 -0.71825498 -0.14386998 100 2
0.18601263 -0.74828118 0.067458548 43 10
0.17845486 -0.71894968 -0.11732586 100 3
0.18672104 -0.75337696 0.095301837 100 11
0.17847705 -0.72065258 -0.091158278 30 4
0.19442455 -0.78622162 0.12827627 100 12
0.17923236 -0.72532958 -0.065366805 100 5
0.19611438 -0.79484051 0.15913472 100 13
0.18107376 -0.7349847 -0.039670657 32 6
0.19471723 -0.79095834 0.18805908 100 14
0.17947735 -0.73015052 -0.01312421 100 7
0.19156127 -0.78048581 0.21533746 40 15
0.16992781 -0.70025784 -0.19307902 100 0
0.18000999 -0.74237102 0.013333639 36 8
0.16783355 -0.6932112 -0.16466418 97 1
0.17940234 -0.74156058 0.039984677 11 9
0.17102277 -0.70800442 -0.14158028 100 2
0.17891569 -0.74181408 0.0667613 42 10
0.1740198 -0.72206807 -0.11763873 100 3
0.18065988 -0.75077045 0.09481436 100 11
0.17297785 -0.71995085 -0.09091454 100 4
0.1858405 -0.77408123 0.12608619 100 12
0.1750931 -0.73043817 -0.065715425 100 5
0.18918961 -0.79046226 0.15798986 100 13
0.17560221 -0.7342577 -0.039565988 29 6
0.18828534 -0.78850752 0.18715927 100 14
0.17391181 -0.72944051 -0.013089306 100 7
0.18624431 -0.78177166 0.21533746 36 15
0.16205789 -0.68823534 -0.18945555 100 0
0.17665356 -0.75139606 0.013473257 100 8
0.16400242 -0.69813168 -0.16556399 88 1
0.17604537 -0.7505728 0.040403362 12 9
0.16518052 -0.70535803 -0.14081705 100 2
0.17250025 -0.73719484 0.066238366 41 10
0.16807586 -0.71941817 -0.11701299 100 3
0.17902167 -0.76747894 0.096764266 100 11
0.17077695 -0.7327112 -0.09237697 100 4
0.17953642 -0.77151179 0.12546046 100 12
0.16470231 -0.70832562 -0.063623689 34 5
0.18424879 -0.79364407 0.15837148 100 13
0.17362873 -0.74908549 -0.040298689 31 6
0.18291385 -0.78977084 0.18715927 100 14
0.16759115 -0.72476244 -0.012984591 100 7
0.18121655 -0.78493512 0.21585509 39 15
0.15638994 -0.68558294 -0.18842028 95 0
0.16842413 -0.73893321 0.013228924 100 8
0.15998943 -0.70305991 -0.16646378 73 1
0.17181796 -0.75564885 0.040612705 12 9
0.16385244 -0.72178239 -0.14386998 100 2
0.16646884 -0.73449486 0.065889739 47 10
0.16230243 -0.71669239 -0.11638726 100 3
0.17204247 -0.76093483 0.095789306 100 11
0.16653168 -0.73775834 -0.092864446 100 4
0.17558457 -0.77849692 0.12639906 100 12
0.15931559 -0.70751452 -0.063449383 100 5
0.17525873 -0.77958745 0.15531853 100 13
0.16677502 -0.74245512 -0.039880004 28 6
0.17995435 -0.80243766 0.18985869 100 14
0.16165347 -0.72201204 -0.012914781 100 7
0.1737608 -0.77672422 0.21326691 37 15
0.15088607 -0.68285888 -0.18738499 45 0
0.16239984 -0.73618555 0.013159114 100 8
0.15016662 -0.68129587 -0.16106495 45 1
0.16825524 -0.76463234 0.041031394 11 9
0.15628207 -0.71140349 -0.14158028 46 2
0.16274689 -0.74144912 0.066412672 42 10
0.15475808 -0.70623052 -0.11451004 100 3
0.165029 -0.75436044 0.09481436 100 11
0.15811487 -0.72336042 -0.09091454 100 4
0.17014556 -0.77970374 0.12639906 100 12
0.15394822 -0.70666277 -0.063275069 37 5
0.16994826 -0.78076231 0.15531853 100 13
0.15777059 -0.72603601 -0.038937956 27 6
0.17269541 -0.79605663 0.18805908 100 14
0.15927689 -0.73482156 -0.01312421 100 7
0.17241979 -0.79679984 0.21844329 42 15
0.14772984 -0.6914525 -0.18945555 73 0
0.15767348 -0.7392571 0.01319402 100 8
0.14134499 -0.66326827 -0.15656593 58 1
0.16041952 -0.754067 0.040403362 11 9
0.14927258 -0.70287514 -0.13967219 62 2
0.15839386 -0.74646527 0.0667613 42 10
0.15268938 -0.72082114 -0.11670013 100 3
0.15893717 -0.75160986 0.094326884 100 11
0.15224038 -0.72056216 -0.090427063 100 4
0.16551338 -0.78473818 0.1270248 100 12
0.15475801 -0.73501527 -0.065715425 100 5
0.16449347 -0.78192973 0.15531853 100 13
0.15351903 -0.73102897 -0.039147299 32 6
0.16553432 -0.78961378 0.18625948 100 14
0.15332307 -0.73200119 -0.0130544 100 7
0.16368988 -0.78285646 0.21430218 36 15
0.1440703 -0.69814301 -0.19100846 95 0
0.15492941 -0.75209123 0.013403447 100 8
0.14103255 -0.6852349 -0.16151486 73 1
0.15193567 -0.73951745 0.039565988 11 9
0.14199536 -0.69236076 -0.13738248 60 2
0.15317868 -0.74755287 0.0667613 42 10
0.14607005 -0.71412826 -0.11544865 100 3
0.15527457 -0.76048106 0.095301837 100 11
0.14641263 -0.71771735 -0.089939587 100 4
0.15924251 -0.78200334 0.12639906 100 12
0.14577922 -0.71652776 -0.063972317 34 5
0.161375 -0.79460293 0.15760824 100 13
0.14880857 -0.73404044 -0.039251972 31 6
0.16015583 -0.79072225 0.18625948 100 14
0.14662386 -0.72521353 -0.012914781 100 7
0.15974931 -0.79155481 0.21637273 37 15
0.13806118 -0.69344777 -0.18945555 100 0
0.1501967 -0.7550897 0.013438353 100 8
0.13928138 -0.70149422 -0.16511407 93 1
0.1492302 -0.752289 0.040194016 12 9
0.13689806 -0.69138539 -0.13700087 80 2
0.14486559 -0.73296738 0.065366805 43 10
0.14082308 -0.71316814 -0.11513578 100 3
0.15086237 -0.76541555 0.095789306 100 11
0.14484727 -0.73625183 -0.092133231 29 4
0.15239204 -0.77531594 0.12514758 100 12
0.13885547 -0.70775241 -0.063100755 100 5
0.15506908 -0.79185688 0.156845 100 13
0.14457572 -0.73895645 -0.039461315 25 6
0.15500516 -0.7937336 0.18670937 100 14
0.14079228 -0.72229403 -0.012844971 100 7
0.15288055 -0.78503901 0.21430218 37 15
0.13224496 -0.68867981 -0.18790263 100 0
0.14303942 -0.74630016 0.013263829 100 8
0.13523629 -0.70625389 -0.16601388 100 1
0.14472447 -0.757236 0.040403362 11 9
0.13059643 -0.68461031 -0.1354744 88 2
0.13987316 -0.73393649 0.065366805 43 10
0.13399521 -0.70443088 -0.11357144 100 3
0.14403401 -0.75864917 0.09481436 100 11
0.14057235 -0.74112135 -0.092620708 100 4
0.1477105 -0.78024274 0.12577333 100 12
0.13218351 -0.69889277 -0.062229201 37 5
0.1478547 -0.78324807 0.15493691 100 13
0.1394133 -0.73994774 -0.039461315 25 6
0.1488779 -0.79094011 0.18580957 100 14
0.1377186 -0.73306221 -0.013019496 100 7
0.14668426 -0.78228962 0.21326691 38 15
0.12708279 -0.68768656 -0.18738499 100 0
0.13795629 -0.74725646 0.013263829 100 8
0.12853681 -0.69759846 -0.16376437 93 1
0.13956684 -0.75820357 0.040403362 12 9
0.12877141 -0.70093089 -0.13852733 86 2
0.13618319 -0.74273396 0.066064052 42 10
0.12955318 -0.70726973 -0.11388431 75 3
0.13815282 -0.75570643 0.094326884 100 11
0.13361342 -0.73232043 -0.091402017 100 4
0.14310466 -0.78511685 0.12639906 100 12
0.13086703 -0.71940076 -0.063972317 34 5
0.14308441 -0.78812456 0.15570015 100 13
0.1318785 -0.7271232 -0.03872861 29 6
0.14404668 -0.79579538 0.18670937 100 14
0.13330866 -0.7379415 -0.013089306 100 7
0.14341454 -0.79467672 0.21637273 40 15
0.12375147 -0.69614387 -0.18945555 100 0
0.13238688 -0.74623233 0.013228924 100 8
0.12378549 -0.69845718 -0.16376437 79 1
0.13218309 -0.7473591 0.039775331 11 9
0.12387486 -0.7018128 -0.13852733 84 2
0.13320035 -0.75541645 0.06710992 42 10
0.12563938 -0.71399337 -0.11482291 84 3
0.13356033 -0.7605629 0.09481436 100 11
0.12828265 -0.73125768 -0.091158278 100 4
0.13762003 -0.78609675 0.12639906 100 12
0.12734012 -0.72812527 -0.064669557 37 5
0.1380541 -0.79101431 0.15608177 100 13
0.12748449 -0.73196143 -0.038937956 29 6
0.13662238 -0.78523803 0.18400995 100 14
0.12588787 -0.72504026 -0.012844971 100 7
0.13654391 -0.78804469 0.21430218 37 15
0.12018777 -0.70460814 -0.1915261 100 0
0.12831196 -0.75303012 0.013333639 100 8
0.118253 -0.69546199 -0.16286457 92 1
0.12675844 -0.74627239 0.039670657 11 9
0.12040731 -0.71038234 -0.14005381 100 2
0.1255974 -0.74257654 0.065889739 41 10
0.12340928 -0.73041421 -0.11732586 100 3
0.12937041 -0.76732677 0.095545575 100 11
0.12284504 -0.73017788 -0.09091454 43 4
0.13128395 -0.78117108 0.12546046 100 12
0.12225384 -0.72899652 -0.064669557 100 5
0.13188036 -0.78808618 0.15531853 100 13
0.12282861 -0.73478216 -0.039042629 28 6
0.13113706 -0.78617263 0.18400995 100 14
0.12246475 -0.73576421 -0.013019496 100 7
0.13307787 -0.80038995 0.217408 42 15
0.11258219 -0.68825132 -0.18686737 100 0
0.12401824 -0.75982827 0.013438353 100 8
0.11477071 -0.70394421 -0.16466418 97 1
0.12282839 -0.75502449 0.040089346 13 9
0.11544497 -0.7112056 -0.14005381 100 2
0.12117779 -0.74734765 0.066238366 46 10
0.11893799 -0.73515797 -0.11795159 72 3
0.12401029 -0.76821131 0.095545575 100 11
0.11534401 -0.71531886 -0.088964626 33 4
0.12551336 -0.78011829 0.12514758 100 12
0.11558252 -0.71999627 -0.063798003 100 5
0.1268239 -0.79090405 0.15570015 100 13
0.11990464 -0.74942696 -0.039775331 26 6
0.12687415 -0.79476655 0.18580957 100 14
0.11650914 -0.73065645 -0.012914781 100 7
0.1232373 -0.77458954 0.21016107 36 15
0.107476 -0.68711191 -0.18634972 100 0
0.11686058 -0.74882084 0.013228924 100 8
0.10925324 -0.70087737 -0.16376437 88 1
0.11786125 -0.75783712 0.040194016 12 9
0.11288524 -0.72751456 -0.14310676 100 2
0.115042 -0.74226874 0.065715425 42 10
0.1113878 -0.72035301 -0.11544865 100 3
0.1189469 -0.77102017 0.095789306 100 11
0.11306823 -0.73376411 -0.091158278 100 4
0.11946382 -0.7770707 0.12452185 100 12
0.10874091 -0.70896941 -0.062752135 39 5
0.12011005 -0.78400767 0.15417367 100 13
0.11617854 -0.76011747 -0.040298689 31 6
0.11985384 -0.78600055 0.18356006 100 14
0.11110426 -0.72947514 -0.012879876 100 7
0.1189876 -0.78307074 0.21223164 40 15
0.10495822 -0.7031309 -0.19049083 100 0
0.11133544 -0.74764055 0.01319402 36 8
0.10321075 -0.6939128 -0.16196476 99 1
0.11315397 -0.76259279 0.040403362 11 9
0.10780347 -0.7282849 -0.14310676 100 2
0.11073139 -0.74896669 0.066238366 47 10
0.1066443 -0.72306728 -0.11576151 100 3
0.11124968 -0.7561202 0.0938394 100 11
0.10765422 -0.73257166 -0.09091454 33 4
0.11575516 -0.78961265 0.12639906 100 12
0.10679904 -0.72940683 -0.064495243 39 5
0.11406633 -0.78094184 0.15341043 100 13
0.10770149 -0.73916972 -0.039147299 29 6
0.11646539 -0.80029714 0.18670937 100 14
0.1071581 -0.73814881 -0.013019496 100 7
0.11296418 -0.7800585 0.21119635 37 15
0.099503152 -0.70002133 -0.18945555 100 0
0.10736819 -0.75630045 0.013333639 36 8
0.098910362 -0.69847542 -0.16286457 100 1
0.10628248 -0.75147986 0.039775331 11 9
0.10339226 -0.73288983 -0.14386998 100 2
0.10577755 -0.75169444 0.066412672 42 10
0.10226998 -0.72768873 -0.11638726 100 3
0.10554917 -0.75292814 0.093351923 100 11
0.10061307 -0.71954358 -0.089208372 100 4
0.10873847 -0.77864391 0.12452185 100 12
0.10197909 -0.73210806 -0.064669557 37 5
0.10915199 -0.78560823 0.15417367 100 13
0.10266761 -0.73988569 -0.039147299 37 6
0.10766958 -0.77792662 0.18131055 100 14
0.10282263 -0.74482173 -0.01312421 100 7
0.11029029 -0.79994678 0.21637273 40 15
0.095253713 -0.70451123 -0.19049083 100 0
0.10262008 -0.76099509 0.013403447 100 8
0.093633495 -0.69526988 -0.16196476 99 1
0.09943831 -0.74032664 0.039147299 12 9
0.09696994 -0.72386438 -0.1419619 100 2
0.10118695 -0.75634664 0.0667613 43 10
0.097709775 -0.73230106 -0.11701299 100 3
0.10133768 -0.7615177 0.094326884 100 11
0.097154349 -0.7320354 -0.090670794 100 4
0.10304031 -0.77742577 0.12420898 100 12
0.097126715 -0.73477739 -0.064843871 39 5
0.10520432 -0.79802966 0.15646338 100 13
0.098281905 -0.74652487 -0.039461315 28 6
0.10325075 -0.78638792 0.18311015 100 14
0.095283628 -0.72767645 -0.012810066 100 7
0.1032002 -0.78920406 0.21326691 36 15
0.089474499 -0.69942605 -0.1889379 100 0
0.096798033 -0.75772589 0.013333639 100 8
0.090133555 -0.70752084 -0.16466418 88 1
0.095145024 -0.74894452 0.039565988 12 9
0.09043166 -0.71283787 -0.13967219 100 2
0.094021663 -0.74321491 0.065541118 41 10
0.092714392 -0.73494136 -0.11732586 100 3
0.097011253 -0.77008474 0.095301837 100 11
0.091546565 -0.72875655 -0.090183318 100 4
0.097229019 -0.77618319 0.12389611 100 12
0.090510935 -0.72357565 -0.063798003 38 5
0.098415464 -0.78900391 0.15455531 100 13
0.093923546 -0.75513703 -0.039880004 31 6
0.097758211 -0.78708959 0.18311015 100 14
0.09118437 -0.73626202 -0.012949686 100 7
0.096366279 -0.7803359 0.21067871 36 15
0.082967132 -0.68660831 -0.18531445 100 0
0.090416692 -0.7504577 0.01319402 100 8
0.085191928 -0.70813286 -0.16466418 88 1
0.091817021 -0.76545489 0.040403362 11 9
0.086727217 -0.72516292 -0.1419619 100 2
0.089067087 -0.74583149 0.065715425 42 10
0.085712865 -0.71987849 -0.11482291 100 3
0.09092962 -0.76482952 0.094570614 100 11
0.086923987 -0.73332059 -0.090670794 100 4
0.092271738 -0.78076655 0.12452185 100 12
0.085457221 -0.72418988 -0.063798003 39 5
0.092445992 -0.78577214 0.15379207 100 13
0.088184059 -0.75180703 -0.039670657 31 6
0.093621016 -0.799366 0.18580957 100 14
0.08627408 -0.73886687 -0.012984591 100 7
0.091723613 -0.78673035 0.21223164 38 15
0.079166465 -0.69483495 -0.18738499 100 0
0.084629446 -0.74509501 0.013089306 100 8
0.078613199 -0.69320565 -0.16106495 100 1
0.087053418 -0.77003139 0.040612705 11 9
0.082009032 -0.72768736 -0.14234352 100 2
0.084656648 -0.75236017 0.066238366 46 10
0.081911862 -0.73026055 -0.11638726 100 3
0.085500635 -0.76345801 0.094326884 100 11
0.082370989 -0.73784095 -0.091158278 34 4
0.087391943 -0.785303 0.12514758 100 12
0.080745928 -0.72673494 -0.063972317 100 5
0.086663105 -0.78248048 0.15302883 100 13
0.081530437 -0.7384935 -0.038937956 30 6
0.087750807 -0.79611069 0.18490976 100 14
0.082334734 -0.74937564 -0.013159114 100 7
0.08678776 -0.79117709 0.21326691 37 15
0.075257517 -0.70304126 -0.18945555 100 0
0.080616601 -0.75559586 0.013263829 100 8
0.073892869 -0.69372469 -0.16106495 95 1
0.080123246 -0.75471729 0.039775331 12 9
0.077673741 -0.7340858 -0.14348838 100 2
0.080580018 -0.76282579 0.06710992 42 10
0.076525658 -0.72687215 -0.11576151 100 3
0.079886951 -0.7600739 0.0938394 100 11
0.075692356 -0.72259021 -0.089208372 31 4
0.082454838 -0.78980905 0.12577333 100 12
0.075797401 -0.72726774 -0.063972317 34 5
0.081740677 -0.7869578 0.15379207 100 13
0.076707512 -0.741018 -0.039042629 31 6
0.080126427 -0.77536696 0.17996083 100 14
0.076617494 -0.7439512 -0.0130544 100 7
0.081400469 -0.79174954 0.21326691 38 15
0.0704704 -0.70353723 -0.18945555 100 0
0.075868763 -0.76010674 0.013333639 37 8
0.069942042 -0.70196819 -0.16286457 100 1
0.074984089 -0.75524521 0.039775331 12 9
0.07112889 -0.7189678 -0.14043543 100 2
0.07479842 -0.75740844 0.066586986 47 10
0.07176967 -0.72934216 -0.11607439 100 3
0.074711524 -0.76060003 0.0938394 100 11
0.071158811 -0.72703999 -0.089695849 33 4
0.075159617 -0.77069151 0.12264463 100 12
0.070845284 -0.72776681 -0.063972317 34 5
0.077140249 -0.79531223 0.15531853 100 13
0.071853988 -0.74351096 -0.039147299 29 6
0.075782396 -0.78559309 0.18221036 100 14
0.070212677 -0.73052186 -0.012810066 100 7
0.075640321 -0.78843921 0.21223164 38 15
0.064482354 -0.69247085 -0.18634972 100 0
0.070929885 -0.7646001 0.013403447 100 8
0.066117682 -0.71408206 -0.16556399 93 1
0.070443615 -0.76370549 0.040194016 12 9
0.066467181 -0.72335678 -0.14119866 100 2
0.068417214 -0.74600774 0.065541118 39 10
0.066855952 -0.73179257 -0.11638726 100 3
0.070886202 -0.77890754 0.096033052 100 11
0.066081472 -0.72751909 -0.089695849 31 4
0.070133351 -0.77513218 0.12327038 100 12
0.0654044 -0.72427499 -0.063623689 34 5
0.07158614 -0.79583138 0.15531853 100 13
0.066305071 -0.7400158 -0.038937956 30 6
0.070643306 -0.78998494 0.18311015 100 14
0.065465786 -0.73497778 -0.012879876 100 7
0.069313556 -0.78126311 0.21016107 38 15
0.059977874 -0.69675356 -0.18738499 100 0
0.064354517 -0.74912637 0.01312421 100 8
0.061130837 -0.71452618 -0.16556399 84 1
0.065243602 -0.76416731 0.040194016 11 9
0.061874554 -0.72770488 -0.1419619 100 2
0.062871307 -0.74249661 0.065192491 41 10
0.061207943 -0.72435731 -0.11513578 100 3
0.064417608 -0.76552516 0.094326884 100 11
0.06182963 -0.73785347 -0.09091454 100 4
0.065184772 -0.77952856 0.12389611 100 12
0.060015839 -0.720743 -0.063275069 37 5
0.064730681 -0.78065944 0.15226559 100 13
0.06291344 -0.76035458 -0.039984677 26 6
0.065126449 -0.79045892 0.18311015 100 14
0.06049658 -0.73740989 -0.012914781 100 7
0.063836515 -0.77979141 0.20964344 36 15
0.055233829 -0.6971457 -0.18738499 100 0
0.059594791 -0.75553787 0.013228924 37 8
0.055348489 -0.7032693 -0.16286457 100 1
0.058971073 -0.75265729 0.039565988 12 9
0.057098132 -0.73203373 -0.14272514 100 2
0.058279589 -0.7488665 0.065715425 42 10
0.055844411 -0.720828 -0.11451004 100 3
0.058766387 -0.76199788 0.0938394 100 11
0.056501187 -0.73429871 -0.090427063 100 4
0.059741236 -0.77996463 0.12389611 100 12
0.055715755 -0.72908115 -0.063972317 100 5
0.059713207 -0.78499711 0.15302883 100 13
0.05579409 -0.73687655 -0.03872861 30 6
0.060478415 -0.80059993 0.18535967 100 14
0.056675345 -0.75375718 -0.01319402 100 7
0.059111871 -0.78985035 0.21223164 37 15
0.050643913 -0.70136797 -0.18842028 100 0
0.055025384 -0.76390415 0.013368543 37 8
0.050158732 -0.69975108 -0.16196476 95 1
0.054416414 -0.76100993 0.039984677 11 9
0.052532028 -0.7382803 -0.14386998 100 2
0.053753775 -0.75919223 0.066586986 39 10
0.050936587 -0.72119141 -0.11451004 100 3
0.053995751 -0.7683208 0.094570614 100 11
0.051096577 -0.73071474 -0.089939587 100 4
0.054980591 -0.78823555 0.12514758 100 12
0.049934827 -0.71951431 -0.063100755 41 5
0.054231536 -0.78539485 0.15302883 100 13
0.051463295 -0.74720204 -0.039251972 36 6
0.053688787 -0.78350502 0.18131055 100 14
0.05059569 -0.74216408 -0.012984591 100 7
0.053996362 -0.79408926 0.21326691 37 15
0.045616649 -0.69784099 -0.18738499 100 0
0.049301762 -0.75828326 0.013263829 100 8
0.045646783 -0.7039656 -0.16286457 100 1
0.048073918 -0.7454263 0.039147299 12 9
0.046245668 -0.72099602 -0.14043543 100 2
0.048584856 -0.75954056 0.066586986 38 10
0.046652939 -0.73335773 -0.11638726 100 3
0.04875597 -0.77066022 0.09481436 100 11
0.04599658 -0.72906452 -0.089695849 34 4
0.04861059 -0.77479964 0.1229575 100 12
0.045778889 -0.73376507 -0.064320937 37 5
0.04937198 -0.79358375 0.15455531 100 13
0.045875616 -0.74156272 -0.038937956 29 6
0.048337322 -0.78580576 0.18176045 100 14
0.045665272 -0.74448723 -0.013019496 100 7
0.048804153 -0.80023164 0.21481982 39 15
0.040518586 -0.69428533 -0.18634972 100 0
0.044470064 -0.76659429 0.013403447 100 8
0.040956184 -0.70815808 -0.16376437 97 1
0.043556515 -0.7577076 0.039775331 12 9
0.041211125 -0.72130138 -0.14043543 100 2
0.042601272 -0.74792618 0.065541118 41 10
0.04097395 -0.72380447 -0.11482291 100 3
0.043597568 -0.77494574 0.095301837 100 11
0.041239187 -0.73531377 -0.090427063 100 4
0.043090358 -0.77314788 0.12264463 100 12
0.040655129 -0.73406678 -0.064320937 100 5
0.043830518 -0.79390913 0.15455531 100 13
0.041244425 -0.75183618 -0.039461315 32 6
0.043062314 -0.79001582 0.18266025 100 14
0.040683638 -0.74878144 -0.013089306 100 7
0.042174939 -0.7812624 0.20964344 36 15
0.035670657 -0.69455129 -0.18634972 100 0
0.038505938 -0.7549035 0.01319402 100 8
0.036011394 -0.70842677 -0.16376437 91 1
0.03866845 -0.76597202 0.040194016 12 9
0.036272783 -0.7235322 -0.14081705 100 2
0.037378818 -0.74820536 0.065541118 39 10
0.03631134 -0.73196471 -0.11607439 100 3
0.03857702 -0.78316194 0.09627679 100 11
0.036104809 -0.73558372 -0.090427063 100 4
0.038076326 -0.78132194 0.12389611 100 12
0.035336901 -0.73035258 -0.063972317 100 5
0.037814237 -0.78439075 0.1526472 100 13
0.036281135 -0.75809073 -0.039775331 29 6
0.037730966 -0.79419023 0.18356006 100 14
0.03507698 -0.74105734 -0.012949686 100 7
0.036991667 -0.78732699 0.21119635 40 15
0.031248972 -0.70443308 -0.1889379 100 0
0.032883178 -0.74716288 0.0130544 34 8
0.030723393 -0.70087343 -0.16196476 99 1
0.033406876 -0.7682187 0.040298689 11 9
0.031559128 -0.73161358 -0.14234352 100 2
0.032154448 -0.74844813 0.065541118 41 10
0.030611694 -0.71838528 -0.11388431 100 3
0.032438025 -0.76754558 0.094326884 100 11
0.03105206 -0.73780119 -0.090670794 31 4
0.032785494 -0.78551608 0.12452185 100 12
0.029495789 -0.71266532 -0.062403511 33 5
0.032094702 -0.7787509 0.15150236 100 13
0.030172398 -0.73836964 -0.03872861 29 6
0.032343324 -0.79832858 0.18445987 100 14
0.030144548 -0.74727833 -0.0130544 100 7
0.031339899 -0.78370541 0.21016107 31 15
0.0262582 -0.7027036 -0.18842028 100 0
0.027962092 -0.75536752 0.01319402 100 8
0.02554263 -0.69328117 -0.16016515 100 1
0.027605854 -0.75645763 0.039670657 10 9
0.026379908 -0.72985405 -0.1419619 100 2
0.027358312 -0.76060092 0.066586986 41 10
0.026017666 -0.73042613 -0.11576151 100 3
0.026799053 -0.7598179 0.093351923 100 11
0.025552358 -0.72808063 -0.089452103 100 4
0.027438138 -0.78967416 0.12514758 100 12
0.025332522 -0.73276162 -0.06414663 39 5
0.026993042 -0.7887665 0.15341043 100 13
0.025016872 -0.73856229 -0.03872861 29 6
0.026645992 -0.79073972 0.18266025 100 14
0.02526007 -0.75746351 -0.013228924 100 7
0.026122697 -0.79162836 0.21223164 37 15
0.021410592 -0.70480072 -0.1889379 100 0
0.022880269 -0.75753909 0.013228924 100 8
0.020934599 -0.7012341 -0.16196476 99 1
0.022397 -0.75463164 0.039565988 11 9
0.021468885 -0.73197913 -0.14234352 100 2
0.022105455 -0.76276493 0.0667613 43 10
0.021045201 -0.73058635 -0.11576151 100 3
0.022021765 -0.77387273 0.095058098 100 11
0.020691954 -0.73617852 -0.090427063 36 4
0.0215107 -0.7700966 0.1220189 100 12
0.020161415 -0.73092896 -0.063972317 34 5
0.021699643 -0.79678589 0.15493691 100 13
0.020259172 -0.74869812 -0.039251972 31 6
0.021020969 -0.78701037 0.18176045 100 14
0.019339025 -0.7336334 -0.012810066 100 7
0.020733731 -0.7917878 0.21223164 37 15
0.016293978 -0.6914109 -0.18531445 100 0
0.017776752 -0.76567703 0.013368543 100 8
0.016340606 -0.70915323 -0.16376437 88 1
0.017309383 -0.76275665 0.039984677 11 9
0.016226616 -0.72622287 -0.14119866 100 2
0.016559683 -0.74696255 0.065366805 43 10
0.016116602 -0.7386151 -0.11701299 100 3
0.016533447 -0.77003831 0.094570614 100 11
0.015553661 -0.73034847 -0.089695849 31 4
0.016299549 -0.77812779 0.12327038 100 12
0.014852926 -0.72109205 -0.063100755 38 5
0.016155411 -0.79102659 0.15379207 100 13
0.015232293 -0.75880557 -0.039775331 26 6
0.015603045 -0.79103464 0.18266025 100 14
0.014384057 -0.7357474 -0.012844971 100 7
0.015131329 -0.78805023 0.21119635 33 15
0.011498736 -0.69343948 -0.18583208 100 0
0.012171322 -0.74978709 0.013089306 100 8
0.01138947 -0.70925003 -0.16376437 84 1
0.012015379 -0.76485586 0.040089346 10 9
0.011186555 -0.7282815 -0.14158028 100 2
0.01137475 -0.74905211 0.065541118 41 10
0.01072536 -0.72290838 -0.11451004 100 3
0.01118592 -0.77211994 0.09481436 100 11
0.01059662 -0.74036366 -0.09091454 100 4
0.010949538 -0.78414816 0.12420898 100 12
0.0098455157 -0.72317034 -0.063275069 100 5
0.010500692 -0.78130472 0.15188397 100 13
0.0097775999 -0.74691093 -0.039147299 30 6
0.01022917 -0.80281579 0.18535967 100 14
0.009372863 -0.74582756 -0.013019496 100 7
0.0095586237 -0.78234154 0.20964344 36 15
0.0067130509 -0.69929808 -0.18738499 100 0
0.0069180266 -0.74785411 0.0130544 34 8
0.0063670333 -0.70151758 -0.16196476 100 1
0.0066579562 -0.7629239 0.039984677 12 9
0.0061183665 -0.73030502 -0.1419619 100 2
0.0061942232 -0.75509024 0.066064052 42 10
0.0056628175 -0.7209903 -0.11419717 100 3
0.0057654381 -0.7682091 0.094326884 100 11
0.0054713925 -0.74637467 -0.091645755 27 4
0.005488676 -0.78618079 0.12452185 100 12
0.004909337 -0.72122824 -0.063100755 100 5
0.005096613 -0.78921181 0.15341043 100 13
0.0044775386 -0.73298043 -0.038414594 28 6
0.004706603 -0.7931233 0.18311015 100 14
0.0041769454 -0.74787444 -0.0130544 100 7
0.0041573071 -0.79398012 0.21274926 36 15
0.001846039 -0.70512348 -0.1889379 100 0
0.0018372368 -0.75188327 0.01312421 100 8
0.0014693625 -0.70154494 -0.16196476 100 1
0.0014647329 -0.76295155 0.039984677 12 9
0.0011503573 -0.73229301 -0.14234352 100 2
0.00092741725 -0.75909978 0.066412672 42 10
0.00076134398 -0.72693831 -0.11513578 100 3
0.00053080817 -0.76029021 0.093351923 100 11
0.00025434422 -0.72852886 -0.089452103 29 4
0.00013899335 -0.79607689 0.12608619 100 12
-0.00012755679 -0.73120695 -0.063972317 34 5
-0.00041427655 -0.79119146 0.15379207 100 13
-0.00051730499 -0.74098295 -0.038833283 28 6
-0.00082443381 -0.78729063 0.18176045 100 14
-0.0010441262 -0.74788541 -0.0130544 100 7
-0.0012441229 -0.79205823 0.21223164 33 15
-0.0029535526 -0.70511967 -0.1889379 100 0
-0.0034209271 -0.75387746 0.013159114 37 8
-0.0033059462 -0.70153874 -0.16196476 100 1
-0.0038211818 -0.75495428 0.039565988 12 9
-0.0039301733 -0.72639346 -0.14119866 100 2
-0.0042395531 -0.75908852 0.066412672 43 10
-0.0043253824 -0.72890121 -0.11544865 100 3
-0.0048019765 -0.76424551 0.0938394 100 11
-0.0046917046 -0.7265287 -0.089208372 30 4
-0.0052438783 -0.77037907 0.1220189 100 12
-0.005188188 -0.7431432 -0.065018184 100 5
-0.00577087 -0.78724384 0.15302883 100 13
-0.0057362528 -0.74695283 -0.039147299 30 6
-0.0061679441 -0.78531814 0.18131055 100 14
-0.0060856855 -0.74186212 -0.012949686 100 7
-0.006823265 -0.79782557 0.21378455 36 15
-0.0077250944 -0.69155973 -0.18531445 100 0
-0.0086431718 -0.76183492 0.013298733 100 8
-0.0083401697 -0.7131902 -0.16466418 91 1
-0.0090073217 -0.75890499 0.039775331 12 9
-0.0088024549 -0.72046059 -0.14005381 100 2
-0.0093385959 -0.74310261 0.065018184 42 10
-0.0093370127 -0.73280531 -0.11607439 100 3
-0.010107775 -0.77213478 0.09481436 100 11
-0.0097370399 -0.72449327 -0.088964626 28 4
-0.010433697 -0.76637512 0.12139316 100 12
-0.010014458 -0.71719033 -0.062752135 39 5
-0.011351017 -0.79307353 0.15417367 100 13
-0.010820388 -0.74689651 -0.039147299 27 6
-0.011737075 -0.79110146 0.18266025 100 14
-0.011112808 -0.73180425 -0.012775162 100 7
-0.01207563 -0.7861709 0.21067871 34 15
-0.012536405 -0.69728577 -0.18686737 100 0
-0.013814813 -0.75375861 0.013159114 36 8
-0.013194518 -0.71311688 -0.16466418 96 1
-0.014530946 -0.77080506 0.040403362 12 9
-0.01402045 -0.73019606 -0.1419619 100 2
-0.014589511 -0.7529819 0.065889739 38 10
-0.014296906 -0.72482228 -0.11482291 100 3
-0.015577727 -0.7760148 0.095301837 100 11
-0.014989703 -0.74028772 -0.09091454 100 4
-0.01594647 -0.77418351 0.12264463 90 12
-0.015102796 -0.72706532 -0.063623689 34 5
-0.016624577 -0.78708947 0.15302883 100 13
-0.016420301 -0.76477396 -0.040089346 31 6
-0.017121576 -0.79100323 0.18266025 100 14
-0.016401511 -0.74570608 -0.013019496 100 7
-0.017563844 -0.78606749 0.21067871 32 15
-0.017452197 -0.69911253 -0.18738499 100 0
-0.019045681 -0.75764525 0.013228924 36 8
-0.017973999 -0.70521492 -0.16286457 100 1
-0.019777415 -0.7706883 0.040403362 12 9
-0.019041386 -0.73204631 -0.14234352 100 2
-0.019898284 -0.75485343 0.066064052 43 10
-0.019387489 -0.73063225 -0.11576151 100 3
-0.0206994 -0.76993757 0.094570614 100 11
-0.020103477 -0.73818064 -0.090670794 33 4
-0.021323964 -0.77800632 0.12327038 100 12
-0.020288868 -0.73092538 -0.063972317 37 5
-0.022008773 -0.78302926 0.15226559 100 13
-0.021004394 -0.74268341 -0.038937956 30 6
-0.022754947 -0.79476035 0.18356006 100 14
-0.02160712 -0.7455734 -0.013019496 100 7
-0.022857646 -0.78399867 0.21016107 33 15
-0.022333222 -0.70283926 -0.18842028 100 0
-0.024334487 -0.75749379 0.013228924 100 8
-0.022648016 -0.70118082 -0.16196476 100 1
-0.024896473 -0.76254666 0.039984677 11 9
-0.024345817 -0.73778212 -0.14348838 100 2
-0.025234222 -0.76067442 0.066586986 46 10
-0.024156788 -0.72060776 -0.11419717 100 3
-0.025872381 -0.76382256 0.0938394 100 11
-0.024789834 -0.72810704 -0.089452103 100 4
-0.027026573 -0.78573531 0.12452185 100 12
-0.025538925 -0.7387352 -0.064669557 100 5
-0.027406609 -0.78482336 0.1526472 100 13
-0.026188787 -0.74251866 -0.038937956 30 6
-0.028026039 -0.79069203 0.18266025 100 14
-0.027039159 -0.75540107 -0.01319402 100 7
-0.029028224 -0.80312592 0.21533746 37 15
-0.027389007 -0.70652711 -0.18945555 100 0
-0.029801272 -0.76530337 0.013368543 100 8
-0.027695559 -0.70490009 -0.16286457 95 1
-0.029456314 -0.74639386 0.039147299 13 9
-0.028820457 -0.72386736 -0.14081705 100 2
-0.030384017 -0.7564981 0.066238366 41 10
-0.029857462 -0.74016434 -0.11732586 100 3
-0.031232283 -0.76759559 0.094326884 100 11
-0.029872376 -0.72791618 -0.089452103 29 4
-0.031804893 -0.77171725 0.12233177 100 12
-0.030612906 -0.73654819 -0.064495243 100 5
-0.033460531 -0.79834366 0.15531853 100 13
-0.031578209 -0.75030518 -0.039356641 26 6
-0.033297554 -0.78463614 0.18131055 100 14
-0.031713821 -0.74120885 -0.012949686 100 7
-0.03457709 -0.80483979 0.21585509 36 15
-0.031933643 -0.7005347 -0.18790263 100 0
-0.034776244 -0.75708628 0.013228924 100 8
-0.032493029 -0.70469528 -0.16286457 100 1
-0.035222553 -0.75814068 0.039775331 12 9
-0.033873215 -0.72364855 -0.14081705 100 2
-0.035158616 -0.74831301 0.065541118 41 10
-0.034650378 -0.73204517 -0.11607439 100 3
-0.037535835 -0.78718722 0.096764266 100 11
-0.03501625 -0.73166162 -0.089939587 29 4
-0.037667129 -0.78134179 0.12389611 100 12
-0.035077807 -0.72238624 -0.063275069 34 5
-0.038511578 -0.79025376 0.15379207 100 13
-0.036913469 -0.75206125 -0.039461315 28 6
-0.039063085 -0.7902236 0.18266025 100 14
