# .PCD v0.7 - Point Cloud Data file format
VERSION 0.7
FIELDS x y z intensity ring
SIZE 4 4 4 4 2
TYPE F F F F U
COUNT 1 1 1 1 1
WIDTH 341
HEIGHT 1
VIEWPOINT 0 0 0 1 0 0 0
POINTS 341
DATA ascii
2.1866016 0.50441587 0.35541913 16 12
2.187639 0.47258434 0.35448053 81 12
2.2422223 0.46924213 0.28127447 5 11
2.1986194 0.45891574 0.35573202 79 12
2.1940238 0.44199488 0.35448053 79 12
2.2251737 0.43333644 0.27834961 46 11
2.1815429 0.42365426 0.35197759 84 12
2.2517061 0.42383653 0.20045821 20 10
2.2379 0.41962042 0.27956831 9 11
2.1766806 0.40696177 0.3507261 89 12
2.2310836 0.40384775 0.19836646 28 10
2.2192855 0.40011239 0.27688718 9 11
2.1833568 0.39245465 0.35135183 85 12
2.2437313 0.38957632 0.19923802 12 10
2.2063766 0.38190058 0.27493724 9 11
2.1554759 0.37037858 0.42512247 45 13
2.2674501 0.37862822 0.12047738 3 9
2.2365696 0.37226811 0.19836646 69 10
2.2090528 0.36610234 0.27493724 9 11
2.1847889 0.36090592 0.3507261 9 12
2.1638203 0.35627836 0.42626733 62 13
2.2601769 0.36121321 0.11995402 69 9
2.2410817 0.35695827 0.19854078 99 10
2.2154758 0.3512941 0.27542472 9 11
2.1774993 0.34410375 0.34916177 10 12
2.1701336 0.34177524 0.42703056 36 13
2.2665925 0.34602717 0.12016336 90 9
2.2257915 0.33860588 0.19697197 75 10
2.1759422 0.32830414 0.34853604 10 12
2.1666989 0.32536274 0.42588571 12 13
2.2873769 0.33410028 0.040349964 21 8
2.27494 0.33066186 0.12047738 49 9
2.2202702 0.3215287 0.19627473 72 10
2.2064118 0.31834245 0.27371857 76 11
2.1821463 0.31328651 0.34916177 11 12
2.2996128 0.31909788 0.040524486 19 8
2.2692795 0.31367785 0.1200587 8 9
2.2244349 0.30629224 0.19644904 67 10
2.2007663 0.30146796 0.27274361 85 11
2.1862376 0.29831171 0.34947464 14 12
2.151577 0.2924349 0.42206952 90 13
2.2938542 0.30199173 0.04038487 10 8
2.2694335 0.29756793 0.11995402 9 9
2.2028177 0.28609529 0.27274361 85 11
2.1843488 0.28253376 0.34884888 62 12
2.1613548 0.27840912 0.42359596 87 13
2.3385832 0.29916519 -0.041152775 0 7
2.2959065 0.28597024 0.04038487 27 8
2.2496529 0.27901301 0.11880264 10 9
2.2304716 0.27544835 0.19662334 9 10
2.204761 0.27071083 0.27274361 87 11
2.1705816 0.26536059 0.34634593 11 12
2.1632457 0.26331431 0.42359596 87 13
2.2899027 0.26900268 0.040245246 70 8
2.2555132 0.26376569 0.11901198 12 9
2.214529 0.25779766 0.19505455 10 10
2.2065973 0.25531209 0.27274361 82 11
2.170419 0.24997461 0.3460331 10 12
2.1669817 0.24842919 0.42397761 92 13
2.3167026 0.26354569 -0.040699009 80 7
2.2877936 0.25217146 0.040175438 87 8
2.2123559 0.24151182 0.19470593 10 10
2.2004735 0.23865932 0.27176866 87 11
2.170188 0.23422506 0.3457202 11 12
2.1453199 0.23002613 0.41939822 92 13
2.3026648 0.24486476 -0.040419776 79 7
2.2875094 0.23598829 0.040140536 93 8
2.259057 0.23145935 0.11901198 100 9
2.2179918 0.22607739 0.19505455 10 10
2.1922112 0.22228998 0.27054995 68 11
2.1737742 0.21888748 0.3460331 10 12
2.1488268 0.21523902 0.41977981 84 13
2.1291742 0.21214461 0.49399251 87 14
2.3082979 0.22917828 -0.040489584 45 7
2.287149 0.21942224 0.04010563 87 8
2.2467 0.21435465 0.11827926 88 9
2.2234828 0.21096484 0.19540317 10 10
2.1957221 0.20678332 0.27079371 90 11
2.1752493 0.20370635 0.3460331 12 12
2.1092925 0.19493054 0.48904356 43 14
2.3078873 0.21247129 -0.040454678 8 7
2.2441976 0.19792122 0.11806992 86 9
2.2289052 0.19539656 0.19575179 29 10
2.1951344 0.19127795 0.27054995 94 11
2.166811 0.18728487 0.34446874 11 12
2.1575232 0.1853441 0.42092466 10 13
2.3362474 0.19987726 -0.12288483 11 6
2.1183689 0.18086326 0.49084321 10 14
2.2913818 0.19483037 -0.040140536 8 7
2.2979944 0.18771859 0.040245246 10 8
2.2514968 0.18273365 0.11838394 95 9
2.2123415 0.17838988 0.19418299 85 10
2.2023835 0.17603956 0.27128118 90 11
2.1700346 0.17231052 0.34478158 21 12
2.3576112 0.18637682 -0.20690772 57 5
2.162679 0.17058702 0.4216879 12 13
2.1234944 0.1660037 0.491743 11 14
2.3006608 0.17945078 -0.040280156 9 7
2.2813017 0.17033207 0.039931107 11 8
2.2606847 0.16760147 0.11880264 91 9
2.2254548 0.16381808 0.19522884 27 10
2.1956394 0.16008236 0.27030623 90 11
2.1633041 0.15658619 0.34353012 76 12
2.3489184 0.1691962 -0.20603617 71 5
2.1501095 0.15449955 0.41901657 12 13
2.3507638 0.16809201 -0.12351287 92 6
2.1246016 0.15117587 0.491743 13 14
2.2764497 0.15399542 0.039826389 12 8
2.2598071 0.15168107 0.11869796 84 9
2.2265441 0.14827746 0.19522884 11 10
2.1808572 0.1437058 0.26835632 87 11
2.1663158 0.14160852 0.34384301 94 12
2.3639598 0.15369953 -0.20725635 49 5
2.3160036 0.14936388 -0.12162878 81 6
2.3169112 0.14820434 -0.040524486 85 7
2.2814615 0.13834113 0.039896201 12 8
2.2136033 0.1319001 0.19400868 10 10
2.1857705 0.12871043 0.2688438 85 11
2.3879242 0.14019619 -0.29370514 67 4
2.1751397 0.12694168 0.34509447 94 12
2.3749204 0.13776916 -0.2081279 7 5
2.1402972 0.12378389 0.41672686 87 13
2.3090141 0.132733 -0.12121009 85 6
2.1089952 0.12049641 0.48769391 81 14
2.3019176 0.1311159 -0.040245246 98 7
2.280375 0.12230307 0.039861299 12 8
2.2357767 0.11873721 0.11733723 38 9
2.2085013 0.11612915 0.19348574 10 10
2.3848798 0.12331804 -0.29321766 24 4
2.1522996 0.11053743 0.34134007 98 12
2.3618958 0.12047528 -0.20690772 7 5
2.1528735 0.1094368 0.41901657 89 13
2.1058922 0.10557476 0.48679405 87 14
2.2947884 0.11464319 -0.04010563 94 7
2.2425365 0.10340272 0.11765125 100 9
2.213239 0.10089059 0.19383438 10 10
2.1933041 0.098446563 0.269575 12 11
2.3995645 0.10728496 -0.29492384 62 4
2.1569657 0.095683947 0.34196579 98 12
2.3527269 0.10354631 -0.20603617 7 5
2.3286006 0.10126298 -0.12215213 9 6
2.1143658 0.091206223 0.4885937 83 14
2.2875412 0.098277524 -0.039966013 85 7
2.2798619 0.090373762 0.039826389 94 8
2.2432039 0.087744348 0.11765125 100 9
2.2138894 0.085436821 0.19383438 57 10
2.1919539 0.083057888 0.26933128 12 11
2.165477 0.080919236 0.34321725 59 12
2.3533924 0.087117538 -0.20603617 7 5
2.1404581 0.078862123 0.41634527 12 13
2.3212674 0.084711358 -0.12173345 9 6
2.1188459 0.076583721 0.48949349 87 14
2.2941666 0.082519621 -0.040070724 88 7
2.0677021 0.073651202 0.55439043 80 15
2.2744415 0.074258275 0.039721675 96 8
2.2497504 0.072273001 0.11796526 100 9
2.2024832 0.069600239 0.1927885 85 10
2.1904964 0.067691825 0.26908755 14 11
2.1620402 0.065679424 0.34259152 14 12
2.3559349 0.070745438 -0.20621049 63 5
2.1331072 0.063682638 0.41481876 13 13
2.3198056 0.068444878 -0.12162878 8 6
2.1154332 0.061676946 0.4885937 89 14
2.3006837 0.066675097 -0.040175438 94 7
2.077821 0.05949156 0.55697864 35 15
2.2589121 0.057968553 0.039442439 30 8
2.2302339 0.056064181 0.11691854 91 9
2.2108827 0.054419465 0.19348574 94 10
2.1829774 0.05220674 0.26811257 16 11
2.3655732 0.05574856 -0.29053652 20 4
2.3643389 0.054480907 -0.20690772 70 5
2.1393964 0.048550475 0.41596362 13 13
2.3182302 0.052204058 -0.1215241 9 6
2.1080191 0.046734169 0.48679405 94 14
2.080117 0.045025986 0.55749625 15 15
2.2692587 0.042383678 0.039616965 10 8
2.2405627 0.040283076 0.1174419 51 9
2.2052391 0.038493037 0.1929628 84 10
2.1872582 0.037033666 0.26860005 15 11
2.3718593 0.039331127 -0.29126775 30 4
2.1430016 0.034787908 0.33946282 99 12
2.3467324 0.037685465 -0.20533893 70 5
2.1494982 0.033766657 0.41787171 13 13
2.3125534 0.035520721 -0.12121009 9 6
2.108294 0.032015275 0.48679405 31 14
2.283401 0.033877157 -0.039861299 8 7
2.0861809 0.030223813 0.55904913 15 15
2.2815011 0.026282361 0.039826389 11 8
2.2407894 0.024640018 0.1174419 11 9
2.1974852 0.023013176 0.19226557 90 10
2.1874673 0.021381058 0.26860005 27 11
2.1510935 0.019898159 0.34071434 91 12
2.3389726 0.020820731 -0.20464167 73 5
2.1437953 0.01833499 0.41672686 13 13
2.3367112 0.019577082 -0.12246615 23 6
2.114315 0.016975798 0.48814377 16 14
2.2975824 0.017644143 -0.04010563 21 7
2.0747502 0.015571794 0.55594331 18 15
2.2656317 0.010281245 0.039547153 12 8
2.2369137 0.008589332 0.11723255 12 9
2.193609 0.0072745327 0.19191694 90 10
2.1955037 0.0061313119 0.269575 18 11
2.1590822 0.0045213276 0.34196579 92 12
2.3350763 0.0044834651 -0.20429306 76 5
2.1262019 0.0033392599 0.41329232 13 13
2.3208132 0.0028359396 -0.12162878 70 6
2.1085358 0.0022075523 0.48679405 34 14
2.2676542 0.0015837108 -0.039582059 60 7
2.0728767 0.00072415289 0.5554257 18 15
2.2389176 -0.0066430215 0.11733723 12 9
2.2015769 -0.0076849838 0.19261418 84 10
2.1796124 -0.0091299918 0.26762509 13 11
2.1630135 -0.010193037 0.34259152 92 12
2.3390353 -0.011839023 -0.20464167 73 5
2.3227763 -0.012972965 -0.12173345 86 6
2.1084998 -0.012512237 0.48679405 88 14
2.2976072 -0.014035458 -0.04010563 82 7
2.0728338 -0.013385962 0.5554257 18 15
2.2735529 -0.021428363 0.039686773 90 8
2.230828 -0.022193849 0.11691854 12 9
2.2174079 -0.023221487 0.19400868 48 10
2.1814804 -0.024368385 0.26786885 13 11
2.1549888 -0.025200952 0.34134007 91 12
2.3548334 -0.028360093 -0.20603617 42 5
2.1280091 -0.025999829 0.41367394 89 13
2.2966666 -0.028862283 -0.12037271 49 6
2.0927725 -0.02703057 0.48319483 95 14
2.2894552 -0.029970612 -0.039966013 85 7
2.0804164 -0.027960474 0.55749625 21 15
2.275347 -0.037332911 0.039721675 96 8
2.2266247 -0.037699673 0.11670919 12 9
2.2132077 -0.038631681 0.19366007 45 10
2.1812572 -0.039597269 0.26786885 12 11
2.1468599 -0.040097319 0.34008855 92 12
2.1317015 -0.040930763 0.41443717 89 13
2.2964094 -0.044895209 -0.12037271 10 6
2.104223 -0.041872729 0.48589426 98 14
2.2711966 -0.045591962 -0.039651867 42 7
2.2710328 -0.053123262 0.039651867 99 8
2.2303007 -0.053338911 0.11691854 12 9
2.1929662 -0.053594939 0.19191694 99 10
2.19085 -0.055073664 0.26908755 13 11
2.3303075 -0.060614254 -0.20394444 13 5
2.1372516 -0.055965908 0.41558203 92 13
2.3160052 -0.061455734 -0.12141944 10 6
2.1038792 -0.056561839 0.48589426 94 14
2.2768197 -0.061608933 -0.039756581 8 7
2.2626116 -0.068733774 0.039512251 99 8
2.1885557 -0.068778135 0.19156833 87 10
2.190412 -0.070367202 0.26908755 14 11
2.1559627 -0.070390567 0.3416529 13 12
2.3557146 -0.077735499 -0.20621049 79 5
2.109338 -0.069973953 0.41023937 30 13
2.3115277 -0.077489041 -0.12121009 10 6
2.0995381 -0.071116246 0.48499447 98 14
2.2783329 -0.07757055 -0.039791487 9 7
2.2580798 -0.084378615 0.039442439 99 8
2.2333302 -0.084624812 0.11712788 94 9
2.192004 -0.084208302 0.19191694 90 10
2.1759822 -0.085114211 0.26738134 17 11
2.1514711 -0.085283704 0.34102717 14 12
2.3352065 -0.093383364 -0.20446737 39 5
2.1205685 -0.085170828 0.41252908 16 13
2.1145673 -0.086408466 0.4885937 69 14
2.2897236 -0.093966253 -0.040000916 9 7
2.2634292 -0.10040668 0.039547153 100 8
2.2306898 -0.10012466 0.11702321 46 9
2.1993239 -0.099870712 0.19261418 87 10
2.1674032 -0.099937491 0.26640642 98 11
2.1606894 -0.1007617 0.34259152 14 12
2.1336496 -0.10062037 0.41520041 13 13
2.3182003 -0.11013458 -0.12162878 96 6
2.2830198 -0.1096613 -0.039896201 9 7
2.2379148 -0.11610918 0.1174419 11 9
2.1945939 -0.1150138 0.19226557 84 10
2.1686351 -0.11517155 0.26665017 96 11
2.1461256 -0.11510303 0.34040144 21 12
2.1328952 -0.11551347 0.41520041 59 13
2.3014207 -0.1254462 -0.1207914 93 6
2.2722151 -0.12504755 -0.039721675 9 7
2.2677956 -0.13234881 0.039651867 13 8
2.2210991 -0.13079058 0.11660452 12 9
2.185782 -0.12985939 0.19156833 39 10
2.179667 -0.13102321 0.26811257 94 11
2.1413262 -0.12984379 0.33977571 80 12
2.139852 -0.13125384 0.41672686 27 13
2.3164368 -0.14249097 -0.12162878 93 6
2.275254 -0.14155221 -0.039791487 8 7
2.2548435 -0.14739501 0.039442439 42 8
2.2320638 -0.14747095 0.11723255 12 9
2.1867847 -0.14562944 0.19174263 11 10
2.1846411 -0.14663567 0.2688438 95 11
2.1403425 -0.14516333 0.33977571 99 12
2.3034024 -0.15824193 -0.12100074 97 6
2.2477477 -0.1630923 0.039337724 89 8
2.2269959 -0.16275881 0.11702321 12 9
2.1956499 -0.16162372 0.19261418 12 10
2.1676989 -0.16108784 0.26689389 92 11
2.1530657 -0.16113402 0.34196579 91 12
2.2942753 -0.17371556 -0.12058206 93 6
2.2910008 -0.17467411 -0.04010563 89 7
2.2525344 -0.17925631 0.039442439 96 8
2.1984396 -0.17726846 0.1929628 12 10
2.1645432 -0.17605628 0.26665017 100 11
2.2910163 -0.18956356 -0.12047738 89 6
2.2817545 -0.19000016 -0.039966013 85 7
2.2651739 -0.19618532 0.039686773 100 8
2.2125683 -0.19279644 0.11639518 100 9
2.2011185 -0.19296001 0.19331144 12 10
2.1731482 -0.1920369 0.26786885 71 11
2.2564733 -0.2037669 -0.039547153 35 7
2.2557852 -0.21124852 0.039547153 78 8
2.2211106 -0.20917454 0.11691854 100 9
2.1798825 -0.20644343 0.19156833 12 10
2.1717544 -0.20720354 0.26786885 72 11
2.3000741 -0.22268748 -0.12110542 9 6
2.2629569 -0.22028993 -0.039686773 7 7
2.2235703 -0.22507787 0.11712788 98 9
2.1803701 -0.22185841 0.19174263 12 10
2.3183291 -0.24080288 -0.12215213 21 6
2.2752862 -0.23753633 -0.039931107 9 7
2.2406867 -0.24143822 0.039337724 10 8
2.2219448 -0.24059571 0.11712788 95 9
2.282845 -0.25323838 -0.12037271 53 6
2.2815218 -0.25430092 -0.040070724 14 7
2.2548399 -0.25889999 0.039616965 12 8
2.2122746 -0.25518635 0.11670919 91 9
2.3127573 -0.27291429 -0.12204745 60 6
2.2629025 -0.27584514 0.039791487 12 8
2.2064743 -0.27013919 0.11649985 95 9
2.2678285 -0.28488496 -0.039896201 85 7
2.2569547 -0.29112467 0.039721675 12 8
2.2223613 -0.28784549 0.1174419 76 9
2.2657843 -0.30071035 -0.039896201 98 7
2.2449603 -0.30552566 0.039547153 12 8
2.2616491 -0.3162441 -0.039861299 88 7
2.2130802 -0.31693858 0.039023582 38 8
2.2632854 -0.33300206 -0.039931107 91 7
2.2648578 -0.34940431 -0.040000916 91 7
2.2485445 -0.36297664 -0.039756581 85 7
2.2321527 -0.3763383 -0.039512251 27 7
