# .PCD v0.7 - Point Cloud Data file format
VERSION 0.7
FIELDS x y z intensity ring
SIZE 4 4 4 4 2
TYPE F F F F U
COUNT 1 1 1 1 1
WIDTH 1259
HEIGHT 1
VIEWPOINT 0 0 0 1 0 0 0
POINTS 1259
DATA ascii
-2.4002266 1.3657355 -0.048203547 36 7
-2.4005914 1.3670524 0.74022251 32 15
-2.3825867 1.3683882 0.047959212 30 8
-2.3723328 1.3630497 -0.63166255 52 1
-2.3754294 1.3670363 -0.53273875 37 2
-2.358568 1.358977 -0.43113342 34 3
-2.3711724 1.3678937 -0.33611569 35 4
-2.3898849 1.3798006 0.43707794 1 12
-2.3530536 1.3596305 -0.23776087 33 5
-2.3728006 1.3715941 0.53273875 26 13
-2.3719211 1.3721895 -0.14360988 38 6
-2.3661134 1.369933 0.63121265 25 14
-2.3585205 1.3660873 -0.047575258 38 7
-2.3582668 1.3670391 0.73038733 33 15
-2.3346541 1.3615299 -0.72417569 5 0
-2.3453426 1.3688599 0.047400735 35 8
-2.3324673 1.3618916 -0.6235643 52 1
-2.3268497 1.3607906 -0.52396154 38 2
-2.3183393 1.357443 -0.42550179 34 3
-2.3273146 1.3643351 -0.33124092 35 4
-2.3444147 1.3754592 0.43050769 6 12
-2.3160138 1.3598843 -0.23497188 33 5
-2.3377757 1.37321 0.52701449 30 13
-2.3330126 1.3715085 -0.14183044 41 6
-2.3312974 1.3715953 0.62446409 28 14
-2.3282461 1.3703473 -0.047156405 41 7
-2.3203685 1.3668014 0.72158754 31 15
-2.2985008 1.3620375 -0.71589351 38 0
-2.315089 1.3729602 0.046981879 35 8
-2.299439 1.3642215 -0.6172657 53 1
-2.3004153 1.3669728 -0.52014536 38 2
-2.2816439 1.3574351 -0.4204959 34 3
-2.2802129 1.3582007 -0.32587865 34 4
-2.2906389 1.3654944 0.42237309 11 12
-2.2913032 1.3664325 -0.23340309 35 5
-2.3062155 1.3764178 0.52205342 31 13
-2.2753704 1.3590851 -0.13889964 40 6
-2.2834318 1.3644416 0.61411637 25 14
-2.2997444 1.3752779 -0.04677245 42 7
-2.2878017 1.3686789 0.71434063 32 15
-2.2742796 1.3686863 -0.71123475 57 0
-2.283421 1.3752745 0.046528116 39 8
-2.2567167 1.3597269 -0.60826766 53 1
-2.250716 1.3582544 -0.51098651 38 2
-2.2554438 1.3627192 -0.41736722 34 3
-2.2437387 1.3572512 -0.32197884 34 4
-2.2458043 1.3595723 0.41580287 13 12
-2.2512732 1.3634193 -0.23026547 37 5
-2.281683 1.3829255 0.51861888 33 13
-2.2506979 1.3652192 -0.1379576 38 6
-2.2507675 1.3657994 0.60781777 27 14
-2.2407632 1.3607984 -0.045760211 39 7
-2.256969 1.3711801 0.70761132 34 15
-2.2286456 1.361973 -0.69984674 59 0
-2.2381828 1.3688745 0.045795113 33 8
-2.2274616 1.3628517 -0.6028688 53 1
-2.2230051 1.3622593 -0.50678873 41 2
-2.2090733 1.3553135 -0.41048408 34 3
-2.2209163 1.3641806 -0.32002893 37 4
-2.2163041 1.3624132 0.41204843 20 12
-2.2079976 1.3578379 -0.22677925 36 5
-2.2287457 1.3716695 0.50869679 33 13
-2.2209461 1.3679386 -0.13670154 39 6
-2.2231691 1.3698429 0.6028688 28 14
-2.207619 1.3613249 -0.045271542 38 7
-2.2177498 1.3686407 0.69829381 38 15
-2.1878974 1.3581402 -0.69001162 55 0
-2.1931386 1.3619241 0.045062114 31 8
-2.1980312 1.3660256 -0.59746999 45 1
-2.1936781 1.364913 -0.50220931 43 2
-2.179677 1.357785 -0.40672967 36 3
-2.1911287 1.3670425 -0.31710407 40 4
-2.193573 1.3691002 0.40954545 21 12
-2.1781864 1.3605529 -0.2246875 37 5
-2.1874847 1.3674231 0.50144607 30 13
-2.1895695 1.3692572 -0.13534079 41 6
-2.1970325 1.3749918 0.59836978 31 14
-2.1811142 1.3660892 -0.044922493 39 7
-2.1723671 1.3611386 0.68690574 36 15
-2.1557212 1.3585813 -0.68276465 54 0
-2.163281 1.3644 0.044643257 32 8
-2.1705527 1.3695168 -0.59252107 17 1
-2.1608605 1.3655113 -0.49686664 45 2
-2.1534514 1.3624076 -0.40360096 39 3
-2.1566176 1.3659923 -0.31344795 42 4
-2.1639407 1.3716893 0.40579104 17 12
-2.141716 1.3586503 -0.22189851 37 5
-2.1582351 1.3696572 0.49686664 30 13
-2.1428652 1.3609533 -0.13303801 45 6
-2.1577761 1.3714806 0.59027153 32 14
-2.1599526 1.3733934 -0.044678163 42 7
-2.1416235 1.3627888 0.68017644 34 15
-2.1266587 1.3611008 -0.67655301 54 0
-2.1385477 1.369763 0.044329114 35 8
-2.1199191 1.3583523 -0.5812735 8 1
-2.1314476 1.3678397 -0.49228725 45 2
-2.1206205 1.3624597 -0.39922079 41 3
-2.1219857 1.3649069 -0.30979189 40 4
-2.1360409 1.3750011 0.40234947 14 12
-2.1154296 1.3627787 -0.22015539 35 5
-2.1288176 1.371929 0.49228725 31 13
-2.1081352 1.3596418 -0.13146794 46 6
-2.1219521 1.369602 0.58307308 35 14
-2.1200736 1.3689138 -0.044049874 43 7
-2.119077 1.3693186 0.6760354 39 15
-2.104146 1.3674924 -0.67241186 54 0
-2.118875 1.3781172 0.044119682 37 8
-2.0907834 1.3603656 -0.57587469 7 1
-2.0922394 1.3633928 -0.48541811 42 2
-2.0862408 1.3610406 -0.39452776 38 3
-2.085813 1.3623197 -0.30589208 37 4
-2.0916662 1.3671843 0.39577925 12 12
-2.0794241 1.3597004 -0.21736643 35 5
-2.1044028 1.3770825 0.48885265 36 13
-2.0902376 1.3688552 -0.13094458 45 6
-2.0864992 1.3669275 0.57587469 33 14
-2.0837078 1.3661386 -0.043491397 42 7
-2.0916986 1.3724215 0.67034137 37 15
-2.0639117 1.3619328 -0.66257679 58 0
-2.0844123 1.375983 0.043596111 37 8
-2.0617235 1.362039 -0.57047588 8 1
-2.0567102 1.3602743 -0.47931221 48 2
-2.0621049 1.3653947 -0.39171195 41 3
-2.0597076 1.3658767 -0.30345467 39 4
-2.0609124 1.3671941 0.39171195 10 12
-2.0466421 1.3587564 -0.21492605 37 5
-2.0620334 1.370011 0.4812203 38 13
-2.0592477 1.368679 -0.12958384 46 6
-2.063925 1.372826 0.57227546 36 14
-2.0474858 1.3629231 -0.04293292 42 7
-2.0469332 1.3630702 0.65895331 42 15
-2.0273058 1.3576754 -0.65377688 56 0
-2.0415328 1.3682356 0.042898018 39 8
-2.0329814 1.3630186 -0.56507707 8 1
-2.0276053 1.3614663 -0.47473282 41 2
-2.0131772 1.353308 -0.38420308 41 3
-2.0322468 1.367674 -0.30077356 43 4
-2.0316563 1.3683064 0.38795751 10 12
-2.0156288 1.3585348 -0.21266 41 5
-2.0314987 1.3697468 0.47625926 40 13
-2.02812 1.3684987 -0.12822311 45 6
-2.0397551 1.3773868 0.56822634 37 14
-2.0215909 1.3656341 -0.042583872 42 7
-2.0101595 1.3589345 0.65015346 44 15
-2.0097904 1.3663646 -0.65118873 59 0
-2.0104382 1.3678312 0.042444255 36 8
-1.9928075 1.3563448 -0.55652893 11 1
-2.0050728 1.3667427 -0.47167987 39 2
-1.9938898 1.3606493 -0.38232586 42 3
-2.0029802 1.3683903 -0.2978487 44 4
-1.9992247 1.3668483 0.38357735 11 12
-1.9978735 1.3669481 -0.21178845 40 5
-2.0040655 1.3716983 0.47206149 43 13
-1.9888567 1.3623083 -0.126339 44 6
-2.0108016 1.3783711 0.56282753 38 14
-2.0021126 1.3729293 -0.042374443 43 7
-1.9926594 1.3674691 0.64756525 45 15
-1.9779427 1.3650005 -0.64394182 59 0
-1.9827402 1.3693333 0.042060301 37 8
-1.9576366 1.3525014 -0.54933047 24 1
-1.97288 1.3650677 -0.46633717 42 2
-1.9616086 1.3587883 -0.37794572 43 3
-1.9705414 1.366503 -0.29443637 45 4
-1.9798961 1.3740146 0.38170013 11 12
-1.9721566 1.3691529 -0.21004534 42 5
-1.9815418 1.3766943 0.46900854 41 13
-1.9661788 1.3670386 -0.12550163 47 6
-1.9693763 1.3697717 0.55382949 40 14
-1.9695016 1.3708792 -0.041885775 43 7
-1.9656268 1.3692015 0.64187121 44 15
-1.9430484 1.3610425 -0.63565958 59 0
-1.9569972 1.3713214 0.041711252 39 8
-1.9258094 1.3504707 -0.54303181 40 1
-1.9330131 1.3570324 -0.45908648 45 2
-1.9393849 1.3630221 -0.37544277 43 3
-1.93498 1.361946 -0.29053652 42 4
-1.9414251 1.3669883 0.3760685 10 12
-1.9381198 1.3656739 -0.20743066 31 5
-1.9526287 1.3769178 0.46442911 41 13
-1.9323473 1.3631209 -0.12393155 42 6
-1.9390694 1.3688768 0.54798079 41 14
-1.9321185 1.36498 -0.041292395 39 7
-1.9404854 1.3713994 0.63669485 48 15
-1.9085439 1.3563309 -0.62737739 58 0
-1.9180427 1.3640897 0.041082963 84 8
-1.9102211 1.3590292 -0.54123223 28 1
-1.9186952 1.3670766 -0.45794162 26 2
-1.9137403 1.3650575 -0.37231407 12 3
-1.9127411 1.3658563 -0.28858662 10 4
-1.9061197 1.3621329 0.37106261 13 12
-1.9090911 1.3652633 -0.20533893 8 5
-1.9176638 1.3719003 0.45832324 48 13
-1.9146644 1.3707645 -0.12340819 9 6
-1.908872 1.3676262 0.54213202 48 14
-1.8984025 1.3606261 -0.040768825 8 7
-1.8931886 1.3578905 0.62427157 47 15
-1.8864938 1.3605818 -0.6232363 58 0
-1.9003657 1.3715951 0.040908441 42 8
-1.8943667 1.3677689 -0.53943259 52 1
-1.90115 1.3746866 -0.45603353 60 2
-1.8929628 1.3702765 -0.37012401 54 3
-1.9095886 1.3838358 -0.2895616 42 4
-1.8965636 1.3754069 0.37106261 5 12
-1.8898381 1.3715369 -0.20429306 34 5
-1.8985074 1.3783337 0.45603353 14 13
-1.901816 1.3817506 -0.12319885 30 6
-1.8945494 1.3774809 0.54078233 11 14
-1.8920912 1.3761991 -0.040838633 33 7
-1.8789772 1.3676631 0.62271863 9 15
-1.8644778 1.364591 -0.61909521 59 0
-1.8778374 1.3753765 0.040629201 57 8
-1.8643368 1.3659874 -0.53358394 60 1
-1.8683875 1.3699585 0.12141944 2 9
-1.8788439 1.3786335 -0.45298058 62 2
-1.8690224 1.3729328 -0.36730817 64 3
-1.8790913 1.381845 -0.28639299 76 4
-1.8757787 1.3804175 0.36887249 19 12
-1.864414 1.3725563 -0.20254995 56 5
-1.8714519 1.3787445 0.45183572 43 13
-1.8664023 1.3760302 -0.1215241 60 6
-1.8725826 1.3810912 0.53718311 49 14
-1.872784 1.3822495 -0.040629201 53 7
-1.8709375 1.3818955 0.6232363 46 15
-1.8456 1.3706634 -0.61598933 61 0
-1.8604064 1.3821633 0.040454678 65 8
-1.8312968 1.361529 -0.52683532 58 1
-1.8429934 1.3707248 0.12037271 3 9
-1.8457927 1.3738075 -0.4472563 62 2
-1.8390414 1.3702803 -0.36324087 61 3
-1.8391699 1.3723731 -0.28176194 60 4
-1.8410113 1.3742473 0.36386663 25 12
-1.8324394 1.3688456 -0.20010957 49 5
-1.8507735 1.383548 0.44916439 55 13
-1.8361993 1.3731527 -0.12016336 70 6
-1.8316909 1.3707784 0.52818507 52 14
-1.8486832 1.3845018 -0.040315062 64 7
-1.8398423 1.3783821 0.61598933 57 15
-1.814625 1.3669208 -0.60874242 61 0
-1.839534 1.3866918 0.040210344 67 8
-1.8126515 1.3669225 -0.52413595 62 1
-1.8206251 1.3739331 0.11953534 3 9
-1.8173565 1.3724625 -0.4426769 60 2
-1.8679293 1.4111668 0.204816 1 10
-1.8168246 1.3735549 -0.36073789 60 3
-1.8107919 1.3704846 -0.27883708 58 4
-1.8093262 1.3703696 0.35948643 27 12
-1.8071994 1.3692545 -0.19836646 53 5
-1.8350554 1.3913692 0.44763795 58 13
-1.8138396 1.3762804 -0.119326 70 6
-1.8176612 1.3796799 0.52683532 54 14
-1.8153306 1.3789099 -0.039791487 63 7
-1.8132575 1.378333 0.6102953 60 15
-1.785084 1.3643063 -0.60201317 65 0
-1.8141669 1.3870349 0.039861299 67 8
-1.7875872 1.3677027 -0.51963693 61 1
-1.7953709 1.3741543 0.11848862 4 9
-1.7877105 1.3692815 -0.43771586 62 2
-1.7821294 1.365994 0.19644904 4 10
-1.7854867 1.3690622 -0.35635775 63 3
-1.7917334 1.3758384 -0.27737463 57 4
-1.7889911 1.3742298 0.35729638 34 12
-1.7786407 1.3672665 -0.19627473 54 5
-1.8050684 1.3885843 0.4426769 60 13
-1.7965153 1.3825046 -0.11880264 68 6
-1.7925456 1.3804455 0.5223363 55 14
-1.7898207 1.3793426 -0.039442439 63 7
-1.7808839 1.3729507 0.60253078 62 15
-1.7528532 1.3586723 -0.59424853 61 0
-1.7791585 1.3800564 0.039302818 67 8
-1.7659197 1.370281 -0.5160377 58 1
-1.7825783 1.3842053 0.11827926 5 9
-1.7672564 1.3732958 -0.43504456 62 2
-1.7633519 1.3707561 0.19540317 10 10
-1.7602942 1.3693645 -0.35322908 58 3
-1.7635325 1.3733664 -0.2744498 61 4
-1.7684468 1.378186 0.35510629 38 12
-1.7520084 1.3658668 -0.19435729 63 5
-1.7677122 1.3791018 0.43580776 62 13
-1.7679285 1.3802633 -0.11754657 68 6
-1.7662135 1.3794206 0.51738745 60 14
-1.7646347 1.3791795 -0.03909339 63 7
-1.7575604 1.3746389 0.59787202 65 15
-1.7418066 1.3696823 -0.59373093 65 0
-1.7524347 1.3785348 0.038918864 65 8
-1.7348731 1.3657006 -0.5097391 58 1
-1.7668389 1.3913639 0.11786059 5 9
-1.7516998 1.3804327 -0.43351805 65 2
-1.7412241 1.3731629 0.19400868 25 10
-1.7354236 1.3690798 -0.35010037 61 3
-1.7684078 1.3961027 0.27664346 1 11
-1.7445554 1.3782613 -0.27298734 64 4
-1.7466266 1.3803923 0.35260335 38 12
-1.7346166 1.3718851 -0.19348574 61 5
-1.7364889 1.3743515 0.4304651 62 13
-1.7287407 1.3687099 -0.1155578 60 6
-1.7443209 1.382036 0.51378822 60 14
-1.7408613 1.3802836 -0.038779248 57 7
-1.7390814 1.3793674 0.5947662 71 15
-1.7143186 1.3670529 -0.58751929 65 0
-1.7318269 1.3820045 0.038674533 67 8
-1.6996465 1.3568094 -0.50209075 55 1
-1.7305545 1.3824728 0.11608116 8 9
-1.7266852 1.3803692 -0.42970186 67 2
-1.7193886 1.3750281 0.19261418 33 10
-1.713485 1.3712878 -0.34759742 63 3
-1.7741122 1.4208239 0.27908084 2 11
-1.7165432 1.37521 -0.27006248 64 4
-1.7199935 1.3789608 0.34916177 43 12
-1.7128044 1.3736877 -0.19209124 61 5
-1.7194382 1.3799952 0.42855701 65 13
-1.7035716 1.3682382 -0.11451109 64 6
-1.713605 1.3767893 0.50748956 60 14
-1.7158412 1.3795712 -0.038430199 57 7
-1.7098423 1.3757309 0.58803689 62 15
-1.6957207 1.3716984 -0.58441341 62 0
-1.706835 1.3811811 0.038325485 67 8
-1.6825602 1.3625106 -0.49984124 57 1
-1.6947215 1.3728476 0.11430173 10 9
-1.6928477 1.3723093 -0.42359596 67 2
-1.6927276 1.3731906 0.19069678 43 10
-1.6918404 1.3729613 -0.34509447 64 3
-1.725876 1.4015812 0.27298734 6 11
-1.6899546 1.3733886 -0.26738134 68 4
-1.6937071 1.3769292 0.3457202 49 12
-1.6938995 1.378068 -0.19104539 58 5
-1.7021501 1.3857677 0.42664891 62 13
-1.6895728 1.3760185 -0.11419707 66 6
-1.6858246 1.373945 0.50209075 62 14
-1.6844729 1.3738221 -0.03794153 61 7
-1.6884636 1.3775676 0.5838958 69 15
-1.6624464 1.363606 -0.57613122 61 0
-1.6832402 1.381645 0.038011342 63 8
-1.6611986 1.364038 -0.49624202 65 1
-1.6758372 1.3770378 0.11367371 20 9
-1.6619965 1.3666369 -0.41825336 67 2
-1.6679542 1.3720244 0.18895365 57 10
-1.6745887 1.3784615 -0.34353012 69 3
-1.6930662 1.3946638 0.26933128 16 11
-1.6744395 1.37981 -0.26640642 68 4
-1.6642407 1.372382 0.3416529 52 12
-1.65965 1.3695699 -0.1882564 57 5
-1.6775377 1.3848233 0.42283276 62 13
-1.6691468 1.3788764 -0.11346437 70 6
-1.6641759 1.3757477 0.49849153 65 14
-1.6596724 1.3725123 -0.037592482 61 7
-1.6564804 1.3708472 0.57613122 65 15
-1.632095 1.3578809 -0.56888431 65 0
-1.6458914 1.3703318 0.037383057 65 8
-1.642651 1.3681192 -0.49354258 67 1
-1.6539088 1.3784738 0.11283633 33 9
-1.6493994 1.3756919 -0.41749012 66 2
-1.6430367 1.3708707 0.18721053 62 10
-1.6391467 1.3685964 -0.33821136 68 3
-1.6589155 1.3860846 0.26543146 30 11
-1.6525807 1.3812821 -0.26445648 68 4
-1.6440129 1.3750952 0.33946282 57 12
-1.637826 1.3708922 -0.1868619 58 5
-1.6467555 1.3788558 0.41749012 62 13
-1.6487635 1.3815159 -0.11273166 72 6
-1.6485579 1.3823239 0.49669194 65 14
-1.6439222 1.3789248 -0.037452865 66 7
-1.633553 1.3711996 0.57147247 67 15
-1.6181467 1.365504 -0.56733137 59 0
-1.6286458 1.3753375 0.037208531 67 8
-1.6122184 1.3619479 -0.48724398 65 1
-1.6350933 1.3822502 0.1122083 49 9
-1.6262656 1.375761 -0.41405553 71 2
-1.6288638 1.3784469 0.1866876 66 10
-1.6129705 1.3659633 -0.33476979 63 3
-1.6234534 1.3758142 0.2612879 55 11
-1.6277556 1.3799485 -0.2620191 69 4
-1.6238286 1.3775938 0.33727276 61 12
-1.6193421 1.3742738 -0.18581605 57 5
-1.622125 1.3776097 0.41367394 62 13
-1.6192937 1.376179 -0.11137092 74 6
-1.6242639 1.3808905 0.49219292 65 14
-1.6266398 1.3838897 -0.037278343 69 7
-1.6121731 1.3725514 0.56733137 69 15
-1.5997677 1.3692309 -0.56422555 69 0
-1.6116517 1.3798889 0.037034009 72 8
-1.5893523 1.3617587 -0.48319483 71 1
-1.6150318 1.3842491 0.1114756 69 9
-1.6064321 1.3778518 -0.41138422 67 2
-1.6086175 1.3807012 0.18546741 70 10
-1.5946429 1.36919 -0.33289257 69 3
-1.5929718 1.3687212 0.25787556 60 11
-1.6000198 1.3757482 -0.25909427 69 4
-1.6084235 1.3834623 0.33602124 64 12
-1.5946078 1.3725476 -0.18407291 58 5
-1.6020553 1.3799317 0.41100258 65 13
-1.5947583 1.374132 -0.1103242 76 6
-1.5983493 1.3781979 0.48724398 62 14
-1.6078551 1.3873732 -0.037068911 69 7
-1.5940187 1.3759195 0.56422555 62 15
-1.5772791 1.3686928 -0.5595668 70 0
-1.5989585 1.3884846 0.036964197 72 8
-1.5697483 1.3635993 -0.48004553 67 1
-1.5812106 1.3745257 0.10980085 73 9
-1.5789992 1.3735704 -0.40680483 69 2
-1.5796432 1.3746158 0.18320136 68 10
-1.5805768 1.3763973 -0.331954 69 3
-1.5788879 1.3758959 0.25714433 66 11
-1.5816401 1.3787807 -0.25763181 68 4
-1.5749092 1.37388 0.33101538 68 12
-1.5759814 1.3757851 -0.18302706 63 5
-1.5896682 1.3882215 0.41023937 65 13
-1.5836226 1.3839173 -0.11021954 80 6
-1.5696186 1.372646 0.48139524 59 14
-1.5742933 1.377219 -0.036510434 71 7
-1.571292 1.375562 0.5595668 64 15
-1.5473822 1.3618028 -0.55231988 67 0
-1.5727191 1.3850752 0.036580246 72 8
-1.5499548 1.3655075 -0.47689623 71 1
-1.5700784 1.3842101 0.10969618 75 9
-1.5517048 1.3689744 -0.40222538 66 2
-1.5520827 1.3697895 0.18110962 65 10
-1.5590842 1.376937 -0.32945102 68 3
-1.573706 1.3908294 0.25787556 65 11
-1.5481811 1.3687513 -0.253732 71 4
-1.5519637 1.3730615 0.32819954 69 12
-1.5424705 1.3656222 -0.18023807 63 5
-1.5637707 1.3849678 0.40604156 69 13
-1.5664494 1.3883156 -0.10969618 88 6
-1.5541658 1.3783983 0.47959566 63 14
-1.5392109 1.3656148 -0.035917051 64 7
-1.5457597 1.3723896 0.55387276 69 15
-1.5263073 1.3622814 -0.54817873 70 0
-1.5421314 1.3773717 0.036091577 76 8
-1.5316648 1.3685046 -0.47419682 71 1
-1.5469766 1.3831559 0.10875413 73 9
-1.5333313 1.3719198 -0.39993569 67 2
-1.5306051 1.3699614 0.17971513 67 10
-1.5258901 1.3667009 -0.32444513 69 3
-1.543263 1.3832325 0.2544632 66 11
-1.5415436 1.3821768 -0.25421947 68 4
-1.5349889 1.3772664 0.32663518 69 12
-1.5242428 1.3681046 -0.1791922 67 5
-1.5409187 1.3840439 0.40260699 71 13
-1.5270102 1.3725152 -0.10760273 71 6
-1.5432985 1.3876419 0.47914574 64 14
-1.5222071 1.3696396 -0.035742529 61 7
-1.5232201 1.3715135 0.54921407 71 15
-1.5053016 1.362532 -0.54403764 68 0
-1.517897 1.3744148 0.035742529 76 8
-1.5018567 1.360845 -0.46789822 71 1
-1.525687 1.3829234 0.10791675 73 9
-1.5094161 1.3691345 -0.39611951 67 2
-1.5151026 1.3752574 0.1790179 62 10
-1.5077776 1.3690877 -0.32256791 69 3
-1.5132437 1.3750157 0.25105089 66 11
-1.5171695 1.37955 -0.25178206 68 4
-1.5138885 1.3770493 0.32413223 72 12
-1.5028675 1.3679835 -0.17779772 67 5
-1.5108988 1.3762593 0.39726433 73 13
-1.508775 1.3748059 -0.10697471 74 6
-1.5177332 1.3839393 0.47419682 62 14
-1.5170399 1.3842765 -0.035847243 66 7
-1.5109954 1.379245 0.54817873 71 15
-1.4945691 1.3714406 -0.54352003 72 0
-1.4994273 1.376863 0.035533097 74 8
-1.4782072 1.3578531 -0.4633992 73 1
-1.4954097 1.3746178 0.10645135 73 9
-1.4998207 1.3796391 -0.39611951 69 2
-1.4998423 1.3801417 0.17832063 65 10
-1.4923699 1.3742287 -0.32131645 71 3
-1.4919292 1.3747847 0.24910097 67 11
-1.4931482 1.3763907 -0.24934469 74 4
-1.4926221 1.3768698 0.32162929 72 12
-1.4847355 1.3700744 -0.17675185 69 5
-1.4971694 1.3825159 0.39611951 70 13
-1.4844717 1.3717507 -0.10592799 76 6
-1.4853821 1.3730729 0.46699843 65 14
-1.4987746 1.3864232 -0.035637815 66 7
-1.4942416 1.3831981 0.54559058 69 15
-1.4694014 1.3673649 -0.537826 67 0
-1.4841659 1.3815874 0.03539348 74 8
-1.461562 1.3614985 -0.46114969 67 1
-1.4728677 1.3725103 0.1055093 67 9
-1.4717293 1.3724095 -0.39115849 75 2
-1.4726906 1.3742673 0.17622891 68 10
-1.4714292 1.3735714 -0.31881347 74 3
-1.4796354 1.382198 0.24861349 70 11
-1.4690018 1.3732251 -0.24690731 74 4
-1.4659016 1.3708072 0.31787488 74 12
-1.4693156 1.3749607 -0.17605458 64 5
-1.483182 1.3889085 0.39497465 73 13
-1.4707273 1.3777267 -0.10561397 72 6
-1.4729166 1.3807437 0.46609858 68 14
-1.4642656 1.3735948 -0.035044432 63 7
-1.4749309 1.3840835 0.54196709 73 15
-1.4403865 1.3587762 -0.53057909 68 0
-1.4657599 1.3836786 0.035184052 74 8
-1.4451766 1.3647256 -0.45890018 73 1
-1.4617987 1.3813872 0.10540463 71 9
-1.4507008 1.3718593 -0.38810554 81 2
-1.4473813 1.3691981 0.17431147 72 10
-1.4531971 1.3756621 -0.31693625 74 3
-1.4613029 1.3843029 0.24715105 68 11
-1.4596205 1.3831924 -0.24690731 74 4
-1.4448293 1.3701333 0.3153719 74 12
-1.4396859 1.365733 -0.17361423 79 5
-1.4580315 1.3841034 0.39077684 71 13
-1.4494884 1.3769565 -0.10477659 72 6
-1.449358 1.3773131 0.46159956 68 14
-1.4461874 1.3752617 -0.034835003 72 7
-1.4372431 1.3677117 0.53161436 69 15
-1.419698 1.3581154 -0.526438 70 0
-1.4346362 1.3728851 0.034660477 71 8
-1.4299841 1.3693899 -0.45710054 71 1
-1.4437083 1.3830156 0.10477659 71 9
-1.4356604 1.3762673 -0.38657904 75 2
-1.4277222 1.369615 0.17309129 70 10
-1.4266963 1.3691088 -0.31318185 74 3
-1.441824 1.3845929 0.24544489 72 11
-1.4356152 1.3795941 -0.24446991 76 4
-1.4297734 1.3744603 0.31412044 76 12
-1.4215012 1.3674631 -0.17256837 72 5
-1.4285315 1.3751867 0.38543418 68 13
-1.4328895 1.3798636 -0.10425323 74 6
-1.4326907 1.3806372 0.45935005 74 14
-1.4235965 1.3728312 -0.034520861 70 7
-1.4153867 1.3653917 0.5269556 73 15
-1.4048733 1.3623677 -0.52436739 70 0
-1.4178414 1.3759043 0.034485955 74 8
-1.4038508 1.3628033 -0.45170173 75 1
-1.4282875 1.3874942 0.10435791 73 9
-1.4203862 1.3807832 -0.38505259 77 2
-1.4112246 1.3723562 0.17221974 75 10
-1.4086094 1.3707699 -0.31130463 71 3
-1.4164789 1.3793902 0.24276376 68 11
-1.4205036 1.3837934 -0.24349497 83 4
-1.4116564 1.3761348 0.31224322 69 12
-1.4036015 1.3687612 -0.1715225 79 5
-1.4121127 1.3780223 0.38352609 73 13
-1.403216 1.3702977 -0.10278783 76 6
-1.4162903 1.3835481 0.45710054 71 14
-1.4142189 1.3824896 -0.034520861 70 7
-1.4044393 1.3738886 0.526438 75 15
-1.3911959 1.3680785 -0.52281445 72 0
-1.3998898 1.3771093 0.034276526 74 8
-1.387359 1.3657351 -0.44945222 72 1
-1.40031 1.3789661 0.10299717 75 9
-1.3969709 1.3766391 -0.3812364 72 2
-1.3959352 1.3765788 0.1715225 78 10
-1.3879958 1.369228 -0.30880168 71 3
-1.3943425 1.3764489 0.2405701 75 11
-1.388213 1.3713552 -0.23959514 76 4
-1.3910161 1.3746039 0.30974028 66 12
-1.3883452 1.3729227 -0.17082524 79 5
-1.3996665 1.3850856 0.38276285 74 13
-1.3910177 1.3770066 -0.10257848 76 6
-1.3913678 1.3783158 0.4521516 74 14
-1.3931717 1.3810667 -0.034241624 74 7
-1.3881963 1.3766149 0.52384979 73 15
-1.3709062 1.3666055 -0.51867342 75 0
-1.3874105 1.3840239 0.034206714 74 8
-1.3697538 1.3668879 -0.44675279 72 1
-1.3793433 1.3774179 0.1021598 79 9
-1.3734392 1.3724806 -0.37742022 74 2
-1.3780783 1.3775973 0.17047663 81 10
-1.3756102 1.3760904 -0.30817595 71 3
-1.3762815 1.3777232 0.23910768 75 11
-1.3704302 1.3723447 -0.23813272 76 4
-1.3730136 1.3758918 0.30786306 66 12
-1.370285 1.3741173 -0.16977938 82 5
-1.3832762 1.3876283 0.38085476 66 13
-1.3771416 1.3824397 -0.10226447 84 6
-1.3665886 1.3728034 0.44720268 65 14
-1.3724544 1.3791779 -0.033962384 76 7
-1.3731034 1.3807932 0.52177918 71 15
-1.3477458 1.3624089 -0.51349699 81 0
-1.3678732 1.3837216 0.033962384 78 8
-1.3601778 1.3764174 -0.44675279 74 1
-1.3682897 1.3855931 0.10205512 84 9
-1.3527924 1.370856 -0.37436727 74 2
-1.3516368 1.3701639 0.16838489 75 10
-1.3548759 1.374406 -0.30567297 73 3
-1.3638434 1.3844695 0.23862019 77 11
-1.3580302 1.3790498 -0.23764524 76 4
-1.3495191 1.371364 0.30473438 71 12
-1.3494831 1.3722851 -0.16838489 74 5
-1.3694263 1.3930515 0.37970993 68 13
-1.3548602 1.3791969 -0.10132242 83 6
-1.3542407 1.3795296 0.44630289 68 14
-1.3557898 1.3815894 -0.033787858 79 7
-1.3444934 1.3710355 0.51453227 72 15
-1.3274096 1.3607219 -0.5093559 81 0
-1.3470131 1.3817819 0.033683144 78 8
-1.3355751 1.3705271 -0.44180387 70 1
-1.3530097 1.3893881 0.10163644 84 9
-1.3404504 1.3774531 -0.37360403 70 2
-1.333703 1.3709975 0.16733903 81 10
-1.3314784 1.3696675 -0.3025443 71 3
-1.3458456 1.385414 0.23715776 75 11
-1.342838 1.3828008 -0.23667029 78 4
-1.3371611 1.3779169 0.30410865 66 12
-1.328774 1.3702301 -0.1669904 72 5
-1.3378035 1.3800238 0.37360403 71 13
-1.3340815 1.3771454 -0.10048504 83 6
-1.3418663 1.3861499 0.4454031 68 14
-1.3294238 1.373777 -0.033369001 72 7
-1.3322034 1.3776106 0.51349699 72 15
-1.3125204 1.3643869 -0.50728536 81 0
-1.326247 1.3796194 0.033403907 81 8
-1.313822 1.3671719 -0.43775475 74 1
-1.3391268 1.3944782 0.10132242 79 9
-1.3226455 1.3782783 -0.37131432 74 2
-1.3185817 1.3745244 0.16664177 75 10
-1.3109483 1.3675214 -0.30004135 69 3
-1.322409 1.380441 0.23472038 72 11
-1.3276598 1.3864067 -0.23569533 76 4
-1.3193146 1.3786551 0.3022314 67 12
-1.3136673 1.3737139 -0.16629316 77 5
-1.3199971 1.3808149 0.37131432 71 13
-1.3147771 1.3763165 -0.099752344 79 6
-1.3213915 1.3842075 0.44180387 68 14
-1.3156593 1.3786844 -0.033264287 76 7
-1.3145541 1.3784893 0.51039118 71 15
-1.2976451 1.3679107 -0.50521481 86 0
-1.3097044 1.3815885 0.033229381 90 8
-1.2935218 1.3649948 -0.43415552 75 1
-1.3101326 1.3834903 0.099857017 84 9
-1.3048946 1.3789226 -0.36902463 70 2
-1.3062156 1.3808012 0.16629316 81 10
-1.298655 1.3737692 -0.29941559 75 3
-1.301834 1.3780951 0.23277046 72 11
-1.2988677 1.3754358 -0.232283 74 4
-1.3015231 1.3792119 0.30035421 69 12
-1.3015517 1.3797252 -0.16594453 77 5
-1.304938 1.3842826 0.36978784 81 13
-1.2941809 1.3738312 -0.098914966 89 6
-1.3012511 1.3818202 0.43820465 65 14
-1.3032616 1.3849229 -0.033194479 74 7
-1.2969577 1.3791889 0.50728536 72 15
-1.2827851 1.3712932 -0.50314426 89 0
-1.2961724 1.3860897 0.033124667 78 8
-1.2786386 1.3682966 -0.43235591 72 1
-1.289778 1.3807 0.099019639 86 9
-1.279402 1.3705511 -0.36444521 74 2
-1.2856717 1.378231 0.16489866 81 10
-1.2838852 1.3767983 -0.29816413 75 3
-1.2870106 1.3811152 0.2317955 75 11
-1.2811167 1.3757536 -0.23082055 73 4
-1.2813377 1.3764719 0.29785126 71 12
-1.281032 1.3771075 -0.16455004 74 5
-1.2939056 1.3919208 0.36940622 75 13
-1.2766421 1.3738301 -0.098286942 79 6
-1.2836163 1.3823025 0.43550524 66 14
-1.2717977 1.370535 -0.032636002 78 7
-1.2796574 1.3794869 0.50417954 80 15
-1.2563899 1.3615363 -0.49641496 70 0
-1.281042 1.3892243 0.03298505 84 8
-1.2600498 1.3669385 -0.42920661 70 1
-1.274695 1.3837943 0.098600946 84 9
-1.261825 1.3707826 -0.3621555 70 2
-1.2600713 1.3693571 0.16280691 75 10
-1.2688941 1.3799113 -0.29691264 69 3
-1.2773368 1.3900669 0.2317955 72 11
-1.2663513 1.3785939 -0.2298456 73 4
-1.2583383 1.3708317 0.29472256 72 12
-1.2554637 1.3681793 -0.1624583 82 5
-1.2777669 1.3934609 0.36749816 81 13
-1.2629719 1.3782916 -0.097972922 83 6
-1.2675961 1.3838229 0.43325573 71 14
-1.2543383 1.3703095 -0.03242657 74 7
-1.2569566 1.3741325 0.49900314 80 15
-1.2540638 1.3786813 0.032531288 76 8
-1.2439225 1.3684915 -0.4269571 11 1
-1.2598737 1.3865261 0.098182261 84 9
-1.2577443 1.3851538 -0.36368197 13 2
-1.2424476 1.3692677 0.16176106 72 10
-1.2501817 1.3782744 -0.29472256 19 3
-1.2531804 1.3825505 0.22911438 70 11
-1.2633591 1.3947579 -0.2310643 33 4
-1.2436746 1.373508 0.2934711 71 12
-1.236524 1.3665692 -0.16123812 32 5
-1.2469403 1.3790474 0.36139226 78 13
-1.2441859 1.3764846 -0.097240217 38 6
-1.2552922 1.3897461 0.43235591 73 14
-1.2407216 1.3745798 -0.032321859 69 7
-1.2359265 1.369748 0.49434438 78 15
-1.2194321 1.3586023 -0.48916802 58 0
-1.2163657 1.356614 -0.42065847 51 1
-1.2421664 1.3863629 0.097554229 24 9
-1.2297095 1.3734235 -0.35833931 53 2
-1.2291121 1.3732393 0.16123812 17 10
-1.2128737 1.3560495 -0.28815234 29 3
-1.2368839 1.383865 0.22789569 27 11
-1.226061 1.3722388 -0.22594579 21 4
-1.2327403 1.3806832 0.29315823 15 12
-1.2152531 1.3615764 -0.15966932 19 5
-1.2218431 1.3699213 0.35681283 15 13
-1.2172705 1.365754 -0.09587948 17 6
-1.2393216 1.3909835 0.4301064 23 14
-1.2246881 1.3755256 -0.032147333 14 7
-1.2186291 1.3696833 0.49123856 36 15
-1.2137591 1.3714222 -0.49072096 81 0
-1.2084349 1.3658874 0.03183319 50 8
-1.2004116 1.3577726 -0.41840896 75 1
-1.2062482 1.3648548 0.095460795 42 9
-1.2099354 1.3699899 -0.35528636 71 2
-1.2089486 1.3698357 0.15984364 52 10
-1.2036157 1.3642737 -0.28815234 79 3
-1.2064313 1.3684274 0.22399586 27 11
-1.2098902 1.373317 -0.22472709 74 4
-1.1998135 1.3623583 0.28752658 33 12
-1.2109834 1.3760095 -0.16036656 61 5
-1.2083598 1.3739953 0.35566798 36 13
-1.1973962 1.3620079 -0.095042109 62 6
-1.1948538 1.3600731 0.41795903 37 14
-1.2084584 1.3765285 -0.031972811 58 7
-1.2016324 1.3692342 0.48813272 27 15
-1.1878799 1.3607329 -0.48399165 56 0
-1.1988701 1.3742902 0.03183319 93 8
-1.1847377 1.3585685 -0.41615945 51 1
-1.192754 1.3687253 0.095146775 93 9
-1.1938949 1.3710008 -0.3533783 57 2
-1.1956718 1.3735247 0.1593207 88 10
-1.1940619 1.3726431 -0.28815234 54 3
-1.1955462 1.3753185 0.22375213 71 11
-1.1874936 1.3665369 -0.22228971 55 4
-1.1850924 1.3647354 0.28627509 61 12
-1.1909014 1.3723915 -0.15897207 53 5
-1.2066981 1.3910866 0.35795769 65 13
-1.1904747 1.3733524 -0.095251448 60 6
-1.180226 1.3624898 0.41615945 56 14
-1.1859708 1.3696048 -0.031623758 73 7
-1.1895158 1.3746681 0.48709747 56 15
-1.1657486 1.3543509 -0.47881526 55 0
-1.1892465 1.3826265 0.03183319 57 8
-1.1701422 1.360896 -0.41435984 47 1
-1.1857728 1.3800486 0.095356122 66 9
-1.1727842 1.3658963 -0.34994373 51 2
-1.1730772 1.3667201 0.15757757 57 10
-1.1767339 1.3719491 -0.28627509 53 3
-1.1794566 1.3760951 0.22253343 55 11
-1.1779248 1.3747934 -0.22228971 58 4
-1.1691126 1.3654728 0.28471076 51 12
-1.1670431 1.3640192 -0.15705465 56 5
-1.1752641 1.3741132 0.3514702 52 13
-1.1756676 1.3755567 -0.094832763 55 6
-1.1782786 1.3795874 0.41885886 52 14
-1.1646947 1.3641635 -0.031309616 60 7
-1.1623354 1.3623642 0.47985053 55 15
-1.1487647 1.3536189 -0.47570941 55 0
-1.1653377 1.374119 0.031449236 58 8
-1.1568323 1.3645725 -0.41301015 48 1
-1.1670722 1.3776258 0.094623417 63 9
-1.1581458 1.3680569 -0.34841725 51 2
-1.160933 1.3718348 0.15722896 60 10
-1.1543717 1.3650475 -0.28314641 56 3
-1.165977 1.379747 0.22180222 58 11
-1.1657361 1.3799504 -0.22180222 58 4
-1.1455348 1.3569975 0.28126919 22 12
-1.1523533 1.3660419 -0.15635739 59 5
-1.1631111 1.3792828 0.35070693 54 13
-1.1596007 1.3760943 -0.094309397 56 6
-1.1635982 1.3818166 0.41705924 53 14
-1.1538548 1.3707316 -0.031274714 58 7
-1.142848 1.358618 0.47570941 54 15
-1.1318486 1.3527161 -0.47260359 54 0
-1.1416065 1.3653461 0.031065283 55 8
-1.1322805 1.3546727 -0.40761131 50 1
-1.1535851 1.3811413 0.094309397 66 9
-1.1485667 1.376109 -0.34841725 51 2
-1.1462218 1.3737868 0.15653172 60 10
-1.1397538 1.3670044 -0.28189492 56 3
-1.1474212 1.3771776 0.22009605 55 11
-1.1484513 1.3789032 -0.22033979 58 4
-1.1402406 1.3709898 -0.15600878 58 5
-1.1421574 1.3737824 0.3472724 24 13
-1.135926 1.3672577 -0.093158014 58 6
-1.147699 1.3824097 0.41480973 56 14
-1.1442573 1.3787537 -0.031274714 64 7
-1.1358017 1.3695377 0.47674471 55 15
-1.1248358 1.3635654 -0.47363886 55 0
-1.1345906 1.3763688 0.031135093 60 8
-1.1178384 1.356529 -0.40581173 50 1
-1.1299492 1.3722013 0.093158014 70 9
-1.1339425 1.3780295 -0.34689078 58 2
-1.1328059 1.3771392 0.15600878 59 10
-1.125165 1.3688239 -0.28064346 57 3
-1.1289588 1.3744169 0.21838988 58 11
-1.128719 1.374614 -0.21838988 58 4
-1.1653204 1.4201996 0.29096815 0 12
-1.1233007 1.3694767 -0.15496291 56 5
-1.1275607 1.3756492 0.34574592 7 13
-1.1162286 1.3627937 -0.092320636 64 6
-1.1197443 1.3675728 0.40806124 53 14
-1.1282723 1.3789701 -0.031100187 61 7
-1.1188759 1.3684601 0.47363886 54 15
-1.1104141 1.3653895 -0.47156835 54 0
-1.1251956 1.3840598 0.031135093 60 8
-1.1034263 1.3582492 -0.40401211 51 1
-1.1180645 1.3767601 0.092948668 70 9
-1.1109275 1.3689477 -0.34269297 59 2
-1.1168901 1.3772762 0.15513723 62 10
-1.1133338 1.373382 -0.28001773 56 3
-1.1183279 1.3805273 0.21814615 57 11
-1.1116009 1.3732029 -0.21692745 58 4
-1.093496 1.3513193 0.2753247 0 12
-1.111207 1.374187 -0.15461428 61 5
-1.1191634 1.3850147 0.34612754 7 13
-1.1069264 1.3703601 -0.092320636 60 6
-1.1064974 1.3708076 0.40671152 58 14
-1.1022968 1.3665792 -0.030646425 59 7
-1.1046848 1.370029 0.47156835 56 15
-1.0914251 1.3608598 -0.46742722 55 0
-1.1067524 1.3809582 0.030890759 56 8
-1.092937 1.3642076 -0.40356219 53 1
-1.1046817 1.3798541 0.092634656 66 9
-1.0939846 1.3674718 -0.34040326 58 2
-1.09629 1.3708426 0.15356842 59 10
-1.0987859 1.3749485 -0.27876624 59 3
-1.102469 1.3805451 0.21692745 58 11
-1.102228 1.3807375 -0.21692745 61 4
-1.0914264 1.3681856 0.27720189 13 12
-1.0894055 1.3661414 -0.15287116 55 5
-1.1023688 1.383388 0.34383783 37 13
-1.0948442 1.3749297 -0.092111297 60 6
-1.0935 1.3737335 0.4053618 53 14
-1.0904796 1.3709208 -0.030576617 59 7
-1.0866786 1.3671216 0.46794486 53 15
-1.0711149 1.3548073 -0.46276847 58 0
-1.0861676 1.3743396 0.030576617 60 8
-1.0833863 1.3718046 -0.40356219 53 1
-1.0915508 1.3826386 0.092320636 70 9
-1.0846518 1.3748862 -0.34040326 53 2
-1.078058 1.3675106 0.15234824 60 10
-1.0820661 1.3730863 -0.27688903 57 3
-1.0869056 1.3802196 0.21570876 55 11
-1.0851969 1.3790385 -0.21546502 60 4
-1.0784241 1.3709253 0.2762633 51 12
-1.0675286 1.3580499 -0.15112805 58 5
-1.0805573 1.3756108 0.34002164 50 13
-1.082993 1.3792086 -0.091901943 64 6
-1.0826806 1.3798004 0.40491191 54 14
-1.0734788 1.3690585 -0.030367188 58 7
-1.0690061 1.363843 0.46432137 55 15
-1.0618682 1.3620666 -0.46276847 58 0
-1.0691729 1.3724241 0.030367188 62 8
-1.0584582 1.3591596 -0.39771348 56 1
-1.0806451 1.3886492 0.092215963 71 9
-1.0726166 1.3793255 -0.33964002 54 2
-1.0699481 1.3763896 0.15252255 64 10
-1.0627592 1.368127 -0.27438608 56 3
-1.0662891 1.3736606 0.2135151 61 11
-1.0709171 1.3801199 -0.21449007 60 4
-1.0627755 1.3706149 0.27469894 54 12
-1.0604628 1.3686188 -0.15147668 55 5
-1.06636 1.3767257 0.33849517 52 13
-1.0586689 1.367782 -0.090645887 60 6
-1.0658673 1.378077 0.4022125 56 14
-1.0690284 1.3826612 -0.030506806 64 7
-1.0547336 1.3651586 0.46225086 54 15
-1.0476249 1.3633194 -0.46069792 59 0
-1.0595655 1.3798548 0.030367188 62 8
-1.0406375 1.355695 -0.39456415 52 1
-1.0478282 1.3660495 0.090227202 71 9
-1.0617665 1.385222 -0.33925843 54 2
-1.0578895 1.3806627 0.15217392 66 10
-1.0459766 1.3661027 -0.27250886 57 3
-1.0506419 1.3731883 0.21229641 57 11
-1.0516081 1.3749484 -0.21254015 61 4
-1.0483826 1.3717232 0.27344745 52 12
-1.0460452 1.3696554 -0.15077944 55 5
-1.05434 1.3810158 0.33773196 54 13
-1.0454599 1.3703759 -0.090331867 66 6
-1.0455881 1.3715364 0.39816338 53 14
-1.0472287 1.3741858 -0.030157758 64 7
-1.0475187 1.3755618 0.4632861 54 15
-1.0357488 1.36752 -0.45966265 59 0
-1.0486996 1.3856238 0.030332282 63 8
-1.0287961 1.3598188 -0.39366436 53 1
-1.0394703 1.3749247 0.090331867 81 9
-1.0355021 1.37067 -0.33391577 56 2
-1.0398198 1.3768849 0.15095374 62 10
-1.0387938 1.376525 -0.27313459 59 3
-1.0398344 1.3789048 0.21205269 61 11
-1.0372038 1.3759159 -0.2115652 60 4
-1.0257069 1.361653 0.27000591 49 12
-1.0295069 1.3671941 -0.14973356 55 5
-1.0423121 1.3852053 0.33696869 54 13
-1.0382681 1.3808337 -0.090541214 66 6
-1.0327154 1.3739483 0.39681366 56 14
-1.0268011 1.3670731 -0.029843615 67 7
-1.0344102 1.3782066 0.46173319 53 15
-1.0146204 1.3592365 -0.45448625 61 0
-1.0308731 1.3815107 0.03008795 62 8
-1.0227723 1.3716547 -0.39501405 56 1
-1.0265065 1.3771641 0.090017848 71 9
-1.0214572 1.3713887 -0.3323893 56 2
-1.0182861 1.3681278 0.14921063 62 10
-1.022325 1.374055 -0.2712574 57 3
-1.0221336 1.3747995 0.21034651 57 11
-1.0204699 1.3735627 -0.21010277 58 4
-1.0128813 1.3638455 0.26906732 51 12
-1.0104382 1.3615485 -0.14833906 52 5
-1.0314467 1.3908713 0.33658707 56 13
-1.0228978 1.3798467 -0.090017848 64 6
-1.0207784 1.3779927 0.39591387 55 14
-1.0100938 1.3645647 -0.029634187 70 7
-1.0135148 1.369686 0.4565568 57 15
-0.99847466 1.3567756 -0.45138043 61 0
-1.0129095 1.3773973 0.029843615 65 8
-1.007641 1.3707341 -0.39276454 54 1
-1.0145023 1.3810778 0.089808509 77 9
-1.0095347 1.375321 -0.33162606 54 2
-1.0018778 1.3653893 0.14816476 62 10
-1.0033629 1.3684145 -0.26875445 57 3
-1.0136839 1.383503 0.21059024 58 11
-1.0064048 1.3740711 -0.20912781 63 4
-1.0010018 1.3676955 0.26844159 50 12
-0.9962036 1.3621368 -0.14764182 56 5
-1.0045753 1.3740869 0.33086282 54 13
-1.0014579 1.3708268 -0.088971131 58 6
-1.0042391 1.3756417 0.39321443 55 14
-1.0019608 1.3730239 -0.029669091 71 7
-0.99596018 1.3658019 0.45293337 60 15
-0.98897892 1.3637128 -0.45138043 58 0
-0.99857581 1.3779581 0.029703995 65 8
-0.98432803 1.3587974 -0.38736573 53 1
-1.001323 1.3832725 0.089494489 74 9
-0.99415535 1.3743818 -0.32971796 52 2
-0.99465686 1.3755792 0.14851339 62 10
-0.98684376 1.365779 -0.26687723 54 3
-0.99354231 1.3760613 0.20839658 54 11
-0.9898169 1.3714058 -0.20766538 60 4
-0.99027359 1.3730483 0.26812872 49 12
-0.98201025 1.3625931 -0.14694458 59 5
-0.99381024 1.3794738 0.3304812 56 13
-0.98719567 1.3713013 -0.088552445 64 6
-0.9923349 1.3794553 0.39231464 56 14
-0.98768091 1.3734913 -0.029529471 75 7
-0.98414618 1.3695841 0.45189807 60 15
-0.97943431 1.370584 -0.45138043 61 0
-0.98893088 1.3848963 0.029703995 63 8
-0.96576095 1.352947 -0.3837665 53 1
-0.98004276 1.3739699 0.088447772 72 9
-0.98111826 1.3764923 -0.32857311 56 2
-0.98271626 1.3792448 0.14816476 62 10
-0.974994 1.3694164 -0.26625147 56 3
-0.97240436 1.3667886 0.2059592 54 11
-0.97101462 1.3653411 -0.20571546 60 4
-0.97837514 1.3767078 0.26750296 51 12
-0.97478074 1.3726645 -0.1472932 58 5
-0.98301905 1.3847773 0.33009958 59 13
-0.97182041 1.3700145 -0.088029087 66 6
-0.97253799 1.3720409 0.38826552 51 14
-0.97575593 1.3770901 -0.029459663 71 7
-0.97679347 1.3795747 0.45293337 60 15
-0.96316874 1.367911 -0.44827461 61 0
-0.97578704 1.3868598 0.029599281 62 8
-0.96077645 1.3660321 -0.38556612 53 1
-0.96123999 1.3677055 0.087610394 74 9
-0.96697134 1.3768817 -0.32704663 51 2
-0.96505064 1.3746567 0.14694458 59 10
-0.96087217 1.3697212 -0.26500002 57 3
-0.96511686 1.3767953 0.20644669 57 11
-0.96145904 1.3720866 -0.20571546 57 4
-0.95967591 1.3705596 0.26500002 52 12
-0.95603687 1.366376 -0.1458987 58 5
-0.96882659 1.3851711 0.32857311 60 13
-0.95880044 1.3718542 -0.087715074 60 6
-0.95958817 1.3740039 0.3869158 55 14
-0.95123732 1.362553 -0.0290059 67 7
-0.96161187 1.3784382 0.45034516 62 15
-0.94258398 1.3587288 -0.44309825 61 0
-0.96266335 1.3887079 0.029494567 65 8
-0.94899642 1.3695028 -0.38466629 49 1
-0.95053118 1.3727407 0.087505728 77 9
-0.94393039 1.3642251 -0.32246721 56 2
-0.9463625 1.368252 0.14555009 59 10
-0.94679374 1.3698958 -0.26374856 56 3
-0.95096987 1.3769655 0.20547174 55 11
-0.94509059 1.3689635 -0.20425305 60 4
-0.94111115 1.3642175 0.26249707 53 12
-0.93766552 1.3597302 -0.14450422 62 5
-0.95244944 1.382201 0.3262834 60 13
-0.95033175 1.3801599 -0.087819748 66 6
-0.95021409 1.3805033 0.3869158 55 14
-0.93716878 1.3625702 -0.02886628 70 7
-0.93992871 1.367605 0.44465113 60 15
-0.92653489 1.3557063 -0.4399924 61 0
-0.94529223 1.3836703 0.029250234 67 8
-0.93172127 1.3648283 -0.38151699 51 1
-0.94454265 1.3841283 0.087819748 72 9
-0.94125891 1.3803509 -0.32475692 53 2
-0.93005651 1.364946 0.14450422 59 10
-0.92632687 1.3599825 -0.26061985 57 3
-0.93710738 1.3768425 0.20449677 57 11
-0.93774307 1.3788109 -0.20474051 58 4
-0.93180341 1.3705918 0.26249707 53 12
-0.92814994 1.3662434 -0.14450422 59 5
-0.93505728 1.3774465 0.32361206 62 13
-0.93418705 1.3766803 -0.087191716 62 6
-0.9339906 1.3774265 0.3842164 56 14
-0.93099916 1.3740456 -0.028970996 71 7
-0.92626452 1.3675733 0.44258058 65 15
-0.91512722 1.3587772 -0.43895712 61 0
-0.92891043 1.3802819 0.029040804 67 8
-0.91044438 1.3533528 -0.37656805 53 1
-0.92928529 1.382401 0.087296382 77 9
-0.91955745 1.3689617 -0.32055911 58 2
-0.91852272 1.367937 0.14415559 64 10
-0.9124074 1.3598549 -0.25936839 57 3
-0.91641784 1.366863 0.20205939 55 11
-0.92170507 1.375268 -0.20327808 60 4
-0.92111301 1.3754224 0.2621842 55 12
-0.91415685 1.3660663 -0.14380698 61 5
-0.92020237 1.3756199 0.321704 59 13
-0.91012448 1.3615824 -0.085830979 60 6
-0.92435217 1.3839129 0.3842164 58 14
-0.91940391 1.3770249 -0.028901186 71 7
-0.91562307 1.3723991 0.44206294 62 15
-0.90455157 1.3635225 -0.43843949 65 0
-0.91593701 1.3817332 0.02893609 65 8
-0.90097398 1.3596759 -0.37656805 54 1
-0.91299582 1.3788632 0.086668357 76 9
-0.91539437 1.3835346 -0.32246721 59 2
-0.9122476 1.3793015 0.14467853 62 10
-0.90506977 1.3694875 -0.25999412 51 3
-0.90247738 1.3666016 0.20108443 57 11
-0.89895797 1.361789 -0.20035322 61 4
-0.91366369 1.3851173 0.26280993 56 12
-0.90240461 1.3690879 -0.14345835 58 5
-0.91489708 1.3885683 0.32323048 66 13
-0.89840007 1.3645668 -0.085621633 60 6
-0.90395772 1.3740522 0.37971738 59 14
-0.9075706 1.3800684 -0.028831376 72 7
-0.90495867 1.3771434 0.44154531 64 15
-0.89078295 1.3633357 -0.43636894 65 0
-0.90408194 1.384745 0.02886628 63 8
-0.88506931 1.3561411 -0.37386864 53 1
-0.89134628 1.366801 0.085516959 81 9
-0.89499468 1.3734431 -0.31865105 60 2
-0.89389634 1.3722811 0.14328404 60 10
-0.89333171 1.3724617 -0.25936839 51 3
-0.89183241 1.3712047 0.2008407 58 11
-0.88942897 1.3680317 -0.20035322 63 4
-0.88998145 1.3699276 0.25874263 59 12
-0.89306462 1.3751987 -0.14345835 64 5
-0.8912878 1.3735119 0.31826943 58 13
-0.8921116 1.3758329 -0.085935652 66 6
-0.8903442 1.3736323 0.37791777 58 14
-0.88378191 1.3645513 -0.028377613 67 7
-0.89112383 1.3769403 0.43947476 65 15
-0.87601727 1.361398 -0.43378076 56 0
-0.89247173 1.3875033 0.028796472 72 8
-0.87874168 1.3672047 -0.37521836 51 1
-0.87770373 1.3661152 0.085098274 81 9
-0.88350469 1.3761989 -0.31788781 59 2
-0.87461215 1.3633952 0.14171523 59 10
-0.87970376 1.3718592 -0.2581169 57 3
-0.88033628 1.3739007 0.20035322 61 11
-0.88413823 1.3808949 -0.20132817 55 4
-0.87744153 1.3709625 0.25780404 61 12
-0.8716343 1.3629366 -0.14154093 66 5
-0.89013445 1.3929354 0.32132238 64 13
-0.88272595 1.3818735 -0.085935652 62 6
-0.87863576 1.3765293 0.37701797 60 14
-0.87208343 1.3673162 -0.028307803 67 7
-0.87446088 1.3715714 0.43585131 67 15
-0.85638726 1.3510127 -0.42860436 61 0
-0.86992395 1.3734276 0.028377613 63 8
-0.86420274 1.364922 -0.37296885 53 1
-0.8702814 1.3755847 0.08530762 81 9
-0.87387484 1.3823338 -0.31788781 59 2
-0.85999048 1.3608953 0.14084367 60 10
-0.85955828 1.3612646 -0.25498822 57 3
-0.86966395 1.3783342 0.20010948 57 11
-0.87048233 1.3801649 -0.20035322 55 4
-0.86363608 1.37037 0.25655255 61 12
-0.85915089 1.3637807 -0.14101799 64 5
-0.86599004 1.3757014 0.31597972 62 13
-0.8688035 1.3812399 -0.085516959 62 6
-0.87132019 1.3857776 0.37791777 65 14
-0.85850096 1.3664476 -0.028168185 70 7
-0.85870117 1.367826 0.43274546 67 15
-0.84898031 1.3602363 -0.42963964 59 0
-0.85843813 1.3759241 0.028307803 65 8
-0.84640521 1.3576924 -0.36936963 53 1
-0.86089784 1.3814766 0.08530762 79 9
-0.860295 1.3815833 -0.31636134 61 2
-0.85152054 1.3685579 0.14101799 59 10
-0.84610003 1.3603739 -0.25373673 57 3
-0.85292691 1.3724197 0.1984033 60 11
-0.85663742 1.3794625 -0.19937825 63 4
-0.85428828 1.3762168 0.25655255 59 12
-0.85065991 1.3714383 -0.1411923 66 5
-0.85739964 1.383382 0.31636134 66 13
-0.84465528 1.3633521 -0.084051557 62 6
-0.85547 1.3818852 0.37521836 64 14
-0.8510443 1.375809 -0.028237993 68 7
-0.84632283 1.36871 0.43119255 65 15
-0.8386901 1.3643378 -0.429122 65 0
-0.84985805 1.3835874 0.028342709 69 8
-0.83714408 1.3634223 -0.36936963 57 1
-0.84078783 1.3704293 0.084260903 78 9
-0.84447211 1.3775128 -0.31407163 60 2
-0.84218597 1.3743219 0.14101799 59 10
-0.83658218 1.3662475 -0.25373673 59 3
-0.83918142 1.3715672 0.19742836 60 11
-0.83894199 1.3717136 -0.19742836 66 4
-0.83847982 1.3720336 0.25467533 59 12
-0.83898735 1.3739432 -0.14084367 69 5
-0.84387195 1.3824831 0.31483486 66 13
-0.83303672 1.3658055 -0.08384221 62 6
-0.83566028 1.3711833 0.37071934 59 14
-0.83957905 1.3781545 -0.028168185 67 7
-0.83775127 1.3762351 0.43171018 69 15
-0.82614422 1.3652014 -0.42756909 59 0
-0.83914346 1.3877757 0.028307803 65 8
-0.82558906 1.3658979 -0.36846983 58 1
-0.83119994 1.3762656 0.084260903 78 9
-0.83077717 1.3766514 -0.31254515 61 2
-0.83154172 1.3784621 0.14084367 60 10
-0.82498407 1.3686711 -0.25311098 59 3
-0.82548898 1.3705906 0.19645341 63 11
-0.82729745 1.3741359 -0.19694087 63 4
-0.82480705 1.3710836 0.25342387 61 12
-0.82629621 1.3746436 -0.14032075 63 5
-0.83318794 1.3866583 0.31445324 64 13
-0.82348198 1.3715875 -0.08384221 62 6
-0.82205784 1.3702991 0.36891973 60 14
-0.81862527 1.3651172 -0.027784232 71 7
-0.82315886 1.3737643 0.429122 65 15
-0.80868429 1.3576577 -0.42342797 61 0
-0.82227528 1.3815715 0.028063469 69 8
-0.81802589 1.3749778 -0.36936963 55 1
-0.81748915 1.3751677 0.08384221 81 9
-0.81513041 1.3722901 -0.31025544 60 2
-0.81274319 1.3688152 0.13927487 64 10
-0.81540877 1.3743972 -0.25311098 60 3
-0.81792492 1.3797352 0.19694087 63 11
-0.81768405 1.379878 -0.19694087 64 4
-0.81118989 1.3700091 0.25217238 60 12
-0.80677211 1.3630904 -0.13857763 65 5
-0.82148886 1.3890611 0.31369001 64 13
-0.81185424 1.3738641 -0.083632864 62 6
-0.81271148 1.375863 0.36891973 57 14
-0.81110781 1.3742433 -0.02785404 72 7
-0.8017711 1.3595096 0.42291033 60 15
-0.79137033 1.3499377 -0.41928688 59 0
-0.80476409 1.3733344 0.027784232 69 8
-0.80446815 1.3739284 -0.36757001 57 1
-0.80609202 1.3772529 0.083632864 81 9
-0.80775279 1.3811963 -0.31101868 60 2
-0.80115694 1.3710155 0.13892625 64 10
-0.79806393 1.3662699 -0.25060806 61 3
-0.80651307 1.3818419 0.19645341 60 11
-0.80603069 1.3821234 -0.19645341 66 4
-0.80184573 1.3754989 0.25217238 61 12
-0.79523063 1.3652462 -0.13822901 63 5
-0.80584598 1.3845817 0.31140029 62 13
-0.80348814 1.3810847 -0.083737537 64 6
-0.80308634 1.3815031 0.36891973 63 14
-0.79647213 1.3712265 -0.027679518 70 7
-0.79540932 1.3699472 0.42446327 69 15
-0.78506017 1.3603126 -0.42083979 56 0
-0.79315889 1.3754544 0.027714422 67 8
-0.78536558 1.3624892 -0.36307099 62 1
-0.79845095 1.3863084 0.08384221 81 9
-0.7941736 1.3799953 -0.3094922 61 2
-0.78981912 1.372983 0.13857763 64 10
-0.78456861 1.3649578 -0.24935657 61 3
-0.78695989 1.3702248 0.19401602 63 11
-0.79438591 1.3842733 -0.19596592 64 4
-0.78829175 1.3742094 0.25092092 60 12
-0.7866708 1.3724931 -0.13840331 72 5
-0.79030609 1.379952 0.30911061 64 13
-0.78191942 1.3658607 -0.082481474 64 6
-0.7914868 1.383693 0.36801991 61 14
-0.78787202 1.3784897 -0.027714422 71 7
-0.78199255 1.3687572 0.4223927 69 15
-0.77435225 1.3642155 -0.42032215 59 0
-0.78255093 1.3792187 0.027679518 65 8
-0.77367359 1.3646837 -0.3621712 58 1
-0.7786662 1.3746083 0.082795486 95 9
-0.78258532 1.3820893 -0.30872896 61 2
-0.77899289 1.3768655 0.13840331 60 10
-0.77380896 1.3688176 -0.2490437 64 3
-0.77639806 1.3739572 0.19377227 66 11
-0.77787054 1.3776853 -0.19425975 68 4
-0.77843797 1.379815 0.25092092 61 12
-0.77609116 1.3762163 -0.13822901 67 5
-0.780653 1.3854357 0.30911061 62 13
-0.77212548 1.371421 -0.082481474 70 6
-0.77225 1.3722022 0.36352089 60 14
-0.7752887 1.3787273 -0.027609706 77 7
-0.77312428 1.3760022 0.42291033 65 15
-0.76104248 1.3628412 -0.4182516 61 0
-0.77266145 1.3847831 0.027679518 65 8
-0.76412809 1.3700514 -0.3621712 60 1
-0.76905131 1.3800105 0.082795486 97 9
-0.7650345 1.3739319 -0.30567604 60 2
-0.7664547 1.3770477 0.13788037 64 10
-0.76423395 1.3741863 -0.2490437 64 3
-0.76558286 1.3777422 0.19352853 65 11
-0.76341397 1.3744055 -0.19304106 63 4
-0.76015878 1.3696711 0.24810509 64 12
-0.76453131 1.3781165 -0.13788037 65 5
-0.76715457 1.3839835 0.30758414 62 13
-0.75962925 1.3715363 -0.082167462 68 6
-0.76265138 1.37756 0.36352089 61 14
-0.75886893 1.3718576 -0.027365373 79 7
-0.76349908 1.3813661 0.42291033 64 15
-0.745929 1.3579618 -0.41514575 58 0
-0.76033026 1.3847519 0.027574802 67 8
-0.75454408 1.375353 -0.3621712 62 1
-0.75771934 1.3817109 0.082586147 94 9
-0.75000429 1.3687769 -0.3033863 62 2
-0.75299591 1.3753742 0.13718314 64 10
-0.75296581 1.3758907 -0.24841796 64 3
-0.75523412 1.38118 0.19328479 60 11
-0.75475258 1.3814433 -0.19328479 68 4
-0.74797767 1.3696126 0.24716648 57 12
-0.74725753 1.3694285 -0.13648589 65 5
-0.75935334 1.3927529 0.30834734 62 13
-0.75314391 1.3819361 -0.082481474 70 6
-0.74928784 1.3760049 0.36172128 61 14
-0.74353886 1.3665829 -0.027155945 82 7
-0.74300295 1.3661659 0.41669869 64 15
-0.7329942 1.3562095 -0.41307521 61 0
-0.74304289 1.3759501 0.027295565 67 8
-0.73776007 1.366738 -0.35857198 60 1
-0.74615854 1.3834515 0.082376808 91 9
-0.73856813 1.3705229 -0.30262309 61 2
-0.73700249 1.3681891 0.13596295 75 10
-0.73678917 1.3689375 -0.24622789 66 3
-0.74275333 1.3811737 0.19255358 63 11
-0.74439204 1.3848003 -0.19304106 64 4
-0.74026775 1.3782812 0.24779223 63 12
-0.73390979 1.36759 -0.13578865 70 5
-0.74150383 1.3823184 0.30491278 62 13
-0.73970312 1.3801192 -0.082062788 70 6
-0.73782331 1.3777666 0.36082149 61 14
-0.73610699 1.3751383 -0.027225753 82 7
-0.72980273 1.3645056 0.41462815 64 15
-0.72532147 1.3647056 -0.41411048 58 0
-0.73060524 1.3758056 0.027190849 63 8
-0.72271842 1.3615274 -0.35587254 60 1
-0.73461032 1.3850979 0.082167462 92 9
-0.73082054 1.3791149 -0.3033863 62 2
-0.72463495 1.3680192 0.13544002 61 10
-0.72167003 1.3635724 -0.24435066 63 3
-0.72845298 1.3775513 0.19133489 66 11
-0.73192322 1.3846984 -0.19230984 71 4
-0.73062748 1.3834156 0.24779223 60 12
-0.7224853 1.3691558 -0.13544002 66 5
-0.72633982 1.3770425 0.30262309 64 13
-0.72911948 1.3834825 -0.081958115 72 6
-0.72818667 1.382884 0.36082149 60 14
-0.72648942 1.3802435 -0.027225753 82 7
-0.72205728 1.372987 0.41566339 64 15
-0.71398693 1.3663117 -0.41307521 61 0
-0.71913141 1.3773273 0.027121039 63 8
-0.71319556 1.3665397 -0.35587254 60 1
-0.7175349 1.3760251 0.081330083 92 9
