# .PCD v0.7 - Point Cloud Data file format
VERSION 0.7
FIELDS x y z intensity ring
SIZE 4 4 4 4 2
TYPE F F F F U
COUNT 1 1 1 1 1
WIDTH 284
HEIGHT 1
VIEWPOINT 0 0 0 1 0 0 0
POINTS 284
DATA ascii
2.5250583 0.54778326 0.40923262 83 12
2.5248621 0.52977169 0.40860689 81 12
2.5426106 0.51637614 0.31856647 73 11
2.5246267 0.51134759 0.40798113 87 12
2.5262823 0.49289042 0.40766826 84 12
2.5360007 0.47780728 0.31686032 12 11
2.5316031 0.47560635 0.40798113 84 12
2.5424054 0.46249157 0.226082 80 10
2.5256016 0.45761484 0.31515417 11 11
2.5554945 0.44784343 0.13596882 1 9
2.529871 0.44198787 0.2246875 87 10
2.5463362 0.44303286 0.31734779 10 11
2.5204804 0.4371748 0.40516531 13 12
2.5289648 0.4236581 0.22433887 90 10
2.5434933 0.42426547 0.31661656 12 11
2.5176246 0.41859582 0.40422669 11 12
2.5217605 0.41792679 0.49686664 31 13
2.5536108 0.41085142 0.13555014 13 9
2.5318611 0.4059923 0.22433887 87 10
2.5243874 0.40163127 0.40485242 14 12
2.5110435 0.3981604 0.49419534 62 13
2.5533998 0.3939186 0.04509702 38 8
2.5465465 0.39149645 0.13502678 12 9
2.5385723 0.38891008 0.2246875 87 10
2.5197325 0.38422376 0.31296051 86 11
2.5251768 0.38370121 0.40453959 10 12
2.5215266 0.38179597 0.49572179 82 13
2.5560875 0.37608296 0.04509702 77 8
2.5432892 0.37283954 0.13471277 17 9
2.5353112 0.37031418 0.22416456 75 10
2.5321758 0.36805099 0.31417918 87 11
2.521929 0.36521345 0.40360096 23 12
2.528017 0.36474386 0.49648505 81 13
2.5527098 0.35739714 0.044992302 94 8
2.5478084 0.35535091 0.13481744 12 9
2.5405827 0.35117954 0.31491041 94 11
2.512676 0.34598142 0.40172374 11 12
2.5227213 0.34601891 0.49495855 81 13
2.540133 0.34614909 -0.044747971 3 7
2.5433083 0.33754271 0.044782877 102 8
2.5582061 0.338157 0.13523613 12 9
2.5244904 0.33235553 0.22277008 12 10
2.5410621 0.33273402 0.31466666 84 11
2.5190048 0.32850197 0.40234947 12 12
2.5173457 0.32694525 0.4934321 78 13
2.5436184 0.31952956 0.044747971 96 8
2.5505953 0.3190496 0.13471277 39 9
2.53268 0.31546193 0.22329301 12 10
2.5177131 0.31181297 0.31149808 19 11
2.5192761 0.31066743 0.40203664 12 12
2.5156691 0.30888554 0.49266884 71 13
2.5527124 0.31117302 -0.044887587 12 7
2.5497587 0.30223596 0.044817779 93 8
2.5368924 0.29936403 0.13387538 93 9
2.5269055 0.29684421 0.22259577 12 10
2.5178566 0.29399818 0.31125432 75 11
2.5233459 0.29330006 0.40234947 11 12
2.5594928 0.29523942 -0.13502678 61 6
2.5548737 0.29289827 -0.044887587 12 7
2.5577688 0.28509247 0.044922493 102 8
2.5389695 0.28120279 0.13387538 110 9
2.5269845 0.2785362 0.22242144 58 10
2.521821 0.27663073 0.31149808 90 11
2.5116339 0.27373776 0.40015942 10 12
2.5314951 0.27456132 0.49495855 8 13
2.5575686 0.27648601 -0.13481744 92 6
2.5489035 0.27419922 -0.044747971 14 7
2.5597434 0.26678222 0.044922493 15 8
2.5428574 0.26367658 0.13398007 109 9
2.5209401 0.26006988 0.22172421 88 10
2.52966 0.2591849 0.31222928 90 11
2.5056231 0.25539532 0.39890796 12 12
2.5177243 0.25529701 0.4919056 11 13
2.5653975 0.25922766 -0.13513145 96 6
2.5467763 0.25599909 -0.044678163 13 7
2.5456209 0.24735813 0.044643257 15 8
2.5545764 0.2468783 0.13450342 78 9
2.5333841 0.24170679 0.31247303 108 11
2.5528255 0.2413127 -0.22433887 44 5
2.5135815 0.23716167 0.49076074 12 13
2.559191 0.2405626 -0.13471277 97 6
2.5145652 0.23548239 0.58307308 71 14
2.5504925 0.23839788 -0.044713065 11 7
2.5492775 0.22975983 0.044678163 14 8
2.5403235 0.22761086 0.13366605 19 9
2.5282948 0.22519878 0.22207282 17 10
2.521168 0.22279136 0.31076685 92 11
2.514848 0.22090596 0.39984655 96 12
2.5643718 0.22435297 -0.22521043 18 5
2.5132587 0.21899843 0.49037915 13 13
2.5548387 0.22217111 -0.13439874 101 6
2.5103235 0.21741843 0.58172345 80 14
2.5521331 0.22014208 -0.044713065 25 7
2.5488265 0.21179132 0.044643257 45 8
2.541887 0.20942931 0.13366605 32 9
2.5298414 0.20710339 0.22207282 17 10
2.5226619 0.20518366 0.31076685 88 11
2.5203023 0.20322199 0.40047228 87 12
2.5658755 0.20644604 -0.22521043 8 5
2.5205972 0.20191753 0.49152401 46 13
2.5444176 0.2029307 -0.13377072 101 6
2.507895 0.19957857 0.5808236 80 14
2.5482829 0.1933956 0.044608355 98 8
2.523371 0.19017628 0.13261932 93 9
2.5332124 0.18958421 0.22224714 19 10
2.5240655 0.18712786 0.31076685 15 11
2.5137794 0.18504195 0.39922079 92 12
2.563313 0.18778862 -0.22486182 9 5
2.5258615 0.18460174 0.49228725 26 13
2.5557323 0.18588804 -0.13429408 93 6
2.5014844 0.18106465 0.57902402 81 14
2.5390019 0.18333486 -0.044433825 114 7
2.5455809 0.17532571 0.044538539 99 8
2.5405781 0.17364474 0.13345671 115 9
2.5185716 0.17081586 0.22085266 13 10
2.539175 0.1704326 0.31247303 16 11
2.5130391 0.16735668 0.39890796 70 12
2.5486572 0.16883516 -0.22346732 10 5
2.5231707 0.16670454 0.49152401 13 13
2.5629466 0.16843405 -0.13460809 32 6
2.5104656 0.16410503 0.5808236 87 14
2.5442109 0.16586499 -0.044503637 57 7
2.5387592 0.15705605 0.044398922 29 8
2.547709 0.15627074 0.13377072 117 9
2.517714 0.15310781 0.22067833 19 10
2.5303953 0.15210609 0.31125432 12 11
2.5358367 0.15110074 0.40234947 18 12
2.5537517 0.1512737 -0.22381593 13 5
2.5164597 0.14818326 0.48999751 13 13
2.5620663 0.15042014 -0.13450342 14 6
2.5076594 0.14634761 0.57992381 85 14
2.5453327 0.14765479 -0.044503637 15 7
2.5497775 0.13987723 0.044573449 16 8
2.5407844 0.13760372 0.13335203 117 9
2.5087976 0.13455403 0.21980678 96 10
2.5195019 0.13380525 0.30979189 21 11
2.5230443 0.13222717 0.40015942 91 12
2.5607145 0.13375448 -0.22433887 10 5
2.5095904 0.13020454 0.48847106 11 13
2.5610821 0.13197976 -0.13439874 67 6
2.5125122 0.12903717 0.5808236 76 14
2.5502958 0.13008516 -0.044573449 16 7
2.5447206 0.12134212 0.044468731 18 8
2.5337031 0.11948723 0.13293335 117 9
2.523607 0.11768692 0.22102696 93 10
2.5144455 0.11549941 0.30906066 92 11
2.5081191 0.1138929 0.39765644 105 12
2.5476735 0.11479919 -0.22311871 57 5
2.5123992 0.11276916 0.48885265 12 13
2.5459788 0.11338716 -0.13356137 89 6
2.5551372 0.11245463 -0.044643257 23 7
2.497437 0.10904059 0.66982371 18 15
2.5515001 0.10381757 0.044573449 16 8
2.5364711 0.10187588 0.13303801 119 9
2.5283489 0.10022379 0.22137558 97 10
2.5211418 0.098175384 0.30979189 108 11
2.5108273 0.096457183 0.39796934 98 12
2.5563765 0.097313434 -0.22381593 77 5
2.5190108 0.095450789 0.48999751 12 13
2.552696 0.095833689 -0.13387538 92 6
2.5024011 0.09307085 0.57812423 12 14
2.5481656 0.085867517 0.044503637 15 8
2.5170393 0.082178853 0.22032972 49 10
2.5416062 0.081206031 0.31222928 26 11
2.5074909 0.078801863 0.39734361 94 12
2.5569935 0.079462968 -0.22381593 58 5
2.5274651 0.07810501 0.49152401 31 13
2.5612884 0.078254156 -0.13429408 105 6
2.50299 0.075599715 0.57812423 12 14
2.5404677 0.076286703 -0.044364017 114 7
2.4871297 0.073817335 0.66671789 39 15
2.5467038 0.068022475 0.044468731 18 8
2.5516224 0.066816978 0.13377072 23 9
2.5115764 0.064452469 0.21980678 14 10
2.5222666 0.062964901 0.30979189 19 11
2.5158787 0.061486203 0.39859506 92 12
2.5515106 0.061467122 -0.22329301 30 5
2.5122473 0.060081355 0.48847106 82 13
2.5617723 0.060372308 -0.13429408 47 6
2.5112495 0.058304638 0.57992381 12 14
2.5429378 0.05859632 -0.044398922 112 7
2.4798591 0.05627678 0.66464734 75 15
2.5371201 0.050044302 0.044294208 64 8
2.5500298 0.048963323 0.13366605 46 9
2.5259092 0.047177222 0.22102696 19 10
2.5186753 0.045283262 0.30930442 19 11
2.5280974 0.044128615 0.40047228 98 12
2.5047536 0.042409353 0.48694456 87 13
2.5421612 0.042155143 -0.13324735 14 6
2.5432849 0.04084184 -0.044398922 112 7
2.5474052 0.032458026 0.044468731 93 8
2.5223498 0.030817958 0.13220063 93 9
2.5162158 0.029425414 0.22015539 96 10
2.51893 0.027698489 0.30930442 17 11
2.522418 0.026416037 0.39953369 73 12
2.5167677 0.025039028 0.4892343 84 13
2.5443907 0.024425657 -0.13335203 16 6
2.4962294 0.023090756 0.57632458 91 14
2.5435081 0.023085367 -0.044398922 112 7
2.5495696 0.014685729 0.044503637 84 8
2.5304925 0.013250921 0.13261932 121 9
2.5263219 0.011906348 0.22102696 93 10
2.5270021 0.010144242 0.31027937 17 11
2.5087135 0.0087573277 0.39734361 19 12
2.5227709 0.0074855443 0.49037915 62 13
2.5464969 0.0066658808 -0.13345671 19 6
2.5002275 0.005673259 0.57722443 65 14
2.539608 0.0053181848 -0.044329114 108 7
2.5536094 -0.0031198238 0.044573449 19 8
2.5365152 -0.0044270582 0.13293335 113 9
2.518374 -0.0057140188 0.22032972 97 10
2.5309815 -0.0075095957 0.31076685 17 11
2.5205655 -0.0087984689 0.39922079 17 12
2.5286515 -0.010150711 0.49152401 14 13
2.5584645 -0.011163478 -0.13408473 18 6
2.5355284 -0.020799527 0.044259302 20 8
2.530431 -0.022082737 0.13261932 19 9
2.5122957 -0.023240011 0.21980678 95 10
2.5328524 -0.025198601 0.31101057 55 11
2.5046403 -0.026229488 0.39671785 40 12
2.5108504 -0.027609356 0.48808944 14 13
2.5583241 -0.029024512 -0.13408473 16 6
2.5414338 -0.030163761 -0.044364017 36 7
2.5393207 -0.038560934 0.044329114 17 8
2.5402 -0.039904647 0.13314268 22 9
2.5180488 -0.040875454 0.22032972 86 10
2.5127668 -0.042544436 0.30857319 120 11
2.5063715 -0.043748874 0.39703071 85 12
2.5086336 -0.045102295 0.48770785 64 13
2.5420837 -0.04659133 -0.13324735 43 6
2.5551567 -0.048169278 -0.044608355 105 7
2.5489855 -0.056509256 0.044503637 40 8
2.529876 -0.057410914 0.13261932 24 9
2.5256691 -0.058638584 0.22102696 97 10
2.5143931 -0.060133144 0.30881694 99 11
2.5119293 -0.061390229 0.39796934 96 12
2.5476863 -0.064488769 -0.13356137 90 6
2.546762 -0.065799721 -0.044468731 102 7
2.5425322 -0.074128173 0.044398922 98 8
2.5354025 -0.075248994 0.13293335 23 9
2.5258164 -0.078053184 0.31027937 47 11
2.5114393 -0.078925163 0.39796934 91 12
2.5511668 -0.082402207 -0.13377072 89 6
2.5342488 -0.083184116 -0.044259302 112 7
2.5499463 -0.092165366 0.044538539 99 8
2.5368114 -0.093020648 0.13303801 21 9
2.5226133 -0.093822673 0.22085266 18 10
2.5252101 -0.095684662 0.31027937 16 11
2.5206971 -0.096835412 0.39953369 65 12
2.5335886 -0.10131653 -0.044259302 112 7
2.5372541 -0.1094479 0.044329114 93 8
2.5500484 -0.11178343 0.13377072 23 9
2.5119255 -0.11143008 0.21998109 44 10
2.5244806 -0.11331148 0.31027937 17 11
2.5368152 -0.11918943 -0.044329114 16 7
2.5324113 -0.12740017 0.044259302 96 8
2.5110862 -0.12896377 0.21998109 93 10
2.5196407 -0.13116685 0.30979189 23 11
2.5459049 -0.13743563 -0.044503637 17 7
2.5394459 -0.14553417 0.044398922 96 8
2.5282993 -0.14622357 0.13272399 117 9
2.5180805 -0.14695548 0.22067833 93 10
2.5246084 -0.14910503 0.31052312 63 11
2.5548635 -0.15581457 -0.044678163 19 7
2.5463502 -0.16377252 0.044538539 90 8
2.5312035 -0.16412921 0.13293335 26 9
2.5209694 -0.1647912 0.22102696 93 10
2.5337627 -0.17229033 -0.044329114 17 7
2.5531235 -0.18211441 0.044678163 22 8
2.5260115 -0.1815099 0.13272399 24 9
2.5118091 -0.18181138 0.22032972 97 10
2.5265155 -0.18952622 -0.0442244 18 7
2.5318542 -0.19837202 0.044329114 77 8
2.5426025 -0.20055367 0.13366605 24 9
2.5410748 -0.2084679 -0.044503637 20 7
2.5244298 -0.21553236 0.0442244 90 8
2.5391505 -0.21812838 0.13356137 21 9
2.5368021 -0.2344389 0.044468731 93 8
2.5137017 -0.23363154 0.13230531 79 9
2.5379164 -0.24392651 -0.044503637 105 7
2.5390835 -0.2525391 0.044538539 93 8
2.5381408 -0.26184362 -0.044538539 37 7
2.5372586 -0.27025896 0.044538539 96 8
2.5333233 -0.28773996 0.044503637 71 8
