# .PCD v0.7 - Point Cloud Data file format
VERSION 0.7
FIELDS x y z intensity ring
SIZE 4 4 4 4 2
TYPE F F F F U
COUNT 1 1 1 1 1
WIDTH 206
HEIGHT 1
VIEWPOINT 0 0 0 1 0 0 0
POINTS 206
DATA ascii
3.0399246 0.4543196 0.48682413 30 12
3.0341787 0.43344814 0.37633255 50 11
3.0489647 0.43338871 0.48776269 52 12
3.0352359 0.41145828 0.37608883 10 11
3.0499587 0.41182807 0.48744985 71 12
3.0192881 0.38999444 0.26634794 49 10
3.0380342 0.3902598 0.37608883 9 11
3.0390437 0.38877216 0.48525977 74 12
3.0041375 0.36673483 0.26477915 62 10
3.0406845 0.36904079 0.37608883 10 11
3.033839 0.36659825 0.48400828 42 12
3.0078392 0.347487 0.15868263 47 9
3.0185008 0.34711736 0.265825 86 10
3.0333257 0.3466768 0.37487015 10 11
3.046138 0.34652549 0.48557264 8 12
3.0161486 0.32712594 0.15899664 11 9
3.0129271 0.32518059 0.26512775 78 10
3.0396197 0.32591501 0.3753576 14 11
3.0347333 0.32378399 0.48338255 9 12
2.9999969 0.30578631 0.052636456 72 8
3.0064366 0.30485237 0.15836863 12 9
3.0111592 0.30373856 0.26477915 76 10
3.0102174 0.30152091 0.37145779 64 11
3.0329888 0.30219799 0.48275682 11 12
2.9861324 0.28332531 0.052357223 73 8
2.9985492 0.28291938 0.15784526 14 9
3.0072553 0.28215238 0.26425621 68 10
3.0260847 0.28178665 0.37316394 96 11
3.0232224 0.27992362 0.4808796 11 12
2.9413948 0.2676881 -0.051554412 6 7
2.9900296 0.26264623 0.052392125 87 8
3.0044765 0.26180181 0.15805461 14 9
3.0319338 0.26099572 0.37365144 94 11
2.9571404 0.24831949 -0.051798742 31 7
2.9778798 0.24011828 0.052147791 99 8
3.0122039 0.24129868 0.15836863 22 9
2.9990268 0.23866291 0.26321036 9 10
3.027787 0.23882473 0.37292022 85 11
3.022939 0.23684981 0.48025388 83 12
2.9729991 0.23032698 -0.15627518 17 6
2.958802 0.2276673 -0.051798742 21 7
2.9654853 0.21881285 0.05190346 48 8
3.0018249 0.21991405 0.15774059 63 9
3.0006201 0.21771853 0.26321036 25 10
3.0194428 0.21749511 0.37170154 61 11
3.0244813 0.21626636 0.48025388 77 12
2.9645364 0.20938146 -0.15575182 30 6
2.9623141 0.2071449 -0.051833645 65 7
2.982903 0.19917032 0.052182697 18 8
2.9893367 0.19802786 0.15700789 14 9
2.9961026 0.19637543 0.26268741 65 10
3.0030591 0.19525239 0.36950788 76 11
3.0278883 0.1952748 0.48056671 51 12
2.9745021 0.19078928 -0.26076996 55 5
3.0368719 0.19372398 0.59150791 49 13
2.9460263 0.18689784 -0.15470509 11 6
2.9816499 0.18759048 -0.052147791 111 7
2.9642899 0.17663063 0.051833645 73 8
2.9906771 0.17663161 0.15700789 15 9
3.0014088 0.17516294 0.26303601 52 10
3.0162702 0.17444572 0.37097031 80 11
3.0232921 0.17326368 0.47962815 10 12
3.0362198 0.17187813 0.59112626 33 13
2.9492826 0.16592397 -0.15480977 12 6
2.9609532 0.16502401 -0.051763836 116 7
2.9754632 0.15593743 0.052008174 80 8
2.9898701 0.1551228 0.15690321 15 9
2.9906466 0.15307125 0.26199016 7 10
3.0134761 0.15265647 0.37048283 87 11
2.9789181 0.1482998 -0.26094431 7 5
3.0256071 0.14956547 0.58883661 8 13
2.9623635 0.14540121 -0.1554378 17 6
2.9745052 0.13455115 0.051973268 102 8
3.0048702 0.13434829 0.15763591 26 9
2.9837036 0.13131635 0.2612929 13 10
3.0144916 0.13109004 0.37048283 85 11
3.0057263 0.12913224 0.47649944 83 12
3.0246382 0.12782799 0.58845496 10 13
2.9533505 0.12378112 -0.15491444 12 6
2.9530218 0.12221856 -0.051589314 16 7
2.9633625 0.113842 0.051763836 98 8
2.9837611 0.11306118 0.15648453 87 9
2.9825177 0.1114503 0.26111859 12 10
3.0153139 0.11056653 0.37048283 20 11
3.0183802 0.10909655 0.47837666 79 12
3.0214956 0.10762516 0.58769172 12 13
2.9497702 0.10249455 -0.051519506 11 7
2.9600875 0.093025438 0.051694028 98 8
2.9724998 0.091857694 0.15585649 120 9
2.9891977 0.090807185 0.26164153 10 10
3.0100596 0.089337751 0.36975163 14 11
3.0111701 0.087792791 0.4771252 79 12
2.9507689 0.08345335 -0.15470509 104 6
2.9584095 0.082119301 -0.051659122 17 7
2.9690754 0.071006574 0.15564716 109 9
2.963865 0.069329314 0.25937548 39 10
3.002672 0.068141252 0.36877668 12 11
2.9959106 0.066418462 0.47462222 79 12
3.0227036 0.065429114 0.58769172 71 13
2.9333088 0.062468346 -0.15376306 109 6
2.9389184 0.061048407 -0.051310074 15 7
2.9670961 0.051791456 0.051798742 16 8
2.9734929 0.050345831 0.15585649 109 9
2.968261 0.048702732 0.25972411 82 10
3.0110137 0.047300275 0.36975163 12 11
3.0211236 0.044294842 0.58731008 71 13
2.9396644 0.042074222 -0.15407708 101 6
2.9593868 0.030992197 0.051659122 18 8
2.9817603 0.029665187 0.15627518 95 9
2.9764979 0.028054286 0.26042137 99 10
3.0053153 0.026226314 0.3690204 12 11
3.0143237 0.024726612 0.47743803 10 12
3.0115433 0.023126962 0.58540201 74 13
2.9378893 0.021537229 -0.1539724 105 6
2.9474828 0.020064276 -0.051449694 118 7
2.9575319 0.010324046 0.05162422 16 8
2.9766212 0.0072737322 0.26042137 87 10
2.9974849 0.005232193 0.36804545 69 11
2.9986198 0.0036641916 0.47493511 10 12
3.0175214 0.0021074119 0.5865469 68 13
2.9239872 0.0010214855 -0.1532397 25 6
2.9395523 -0.00051304867 -0.051310074 110 7
2.9735291 -0.010379616 0.05190346 22 8
2.9659059 -0.011905972 0.1554378 21 9
2.9765992 -0.013507471 0.26042137 90 10
2.9914932 -0.015663564 0.36731425 86 11
2.9965971 -0.01725935 0.47462222 10 12
2.929915 -0.019432217 -0.15355371 18 6
2.939477 -0.021034816 -0.051310074 101 7
2.9653857 -0.031054577 0.051763836 48 8
2.9657505 -0.032611445 0.1554378 82 9
2.9844015 -0.034379352 0.26111859 46 10
2.9932959 -0.036571827 0.36755794 55 11
3.0003536 -0.038229283 0.47524795 47 12
3.0152934 -0.03999871 0.58616525 9 13
2.9257135 -0.039831858 -0.15334436 74 6
3.0241501 -0.042227842 0.69824809 28 14
2.929261 -0.041414209 -0.051135551 21 7
2.9570994 -0.05161636 0.05162422 15 8
2.9614568 -0.053243518 0.15522847 120 9
2.9562001 -0.054697383 0.25867823 99 10
3.0108302 -0.057810899 0.36975163 12 11
2.9960637 -0.059096694 0.47462222 12 12
3.0247443 -0.061774932 0.58807337 54 13
2.9533198 -0.060831878 -0.15480977 68 6
3.0140398 -0.063135132 0.69599855 60 14
2.9248915 -0.062289178 -0.051065743 84 7
2.9526687 -0.072161667 0.051554412 15 8
2.9689865 -0.074634485 0.15564716 109 9
2.9557328 -0.075849928 0.25867823 84 10
2.990509 -0.078309245 0.36731425 12 11
2.9935894 -0.080481291 0.47430936 10 12
2.9869516 -0.081867948 0.58082259 60 13
2.9483719 -0.083385475 -0.051484596 118 7
2.9440818 -0.093035847 0.051414788 16 8
2.9630969 -0.096742891 0.25937548 87 10
2.9898722 -0.09970668 0.36731425 79 11
2.9969034 -0.1015121 0.47493511 10 12
2.9902313 -0.10285361 0.58158582 74 13
2.925735 -0.10319147 -0.051100649 107 7
2.9593463 -0.11420389 0.051694028 27 8
2.959672 -0.11576848 0.15522847 15 9
2.9703126 -0.11774234 0.26007274 90 10
2.981169 -0.12025727 0.36633927 92 11
3.0000691 -0.1225931 0.47556084 11 12
2.9249434 -0.12361424 -0.051100649 110 7
2.9345055 -0.13376833 0.051275171 70 8
2.9488158 -0.13596791 0.15470509 17 9
2.9733987 -0.13866162 0.26042137 46 10
2.9762912 -0.14087896 0.36585179 90 11
2.9912474 -0.14315665 0.47430936 11 12
2.9120252 -0.14344072 -0.050891217 122 7
2.9554663 -0.15540665 0.051659122 98 8
2.9537783 -0.15686882 0.15501912 20 9
2.9624104 -0.1588828 0.2595498 12 10
2.9811819 -0.16197687 0.36658302 85 11
2.9842582 -0.16371123 0.47337076 57 12
2.90696 -0.16354221 -0.050821409 34 7
2.9423325 -0.1753221 0.051449694 105 8
2.9625793 -0.17808528 0.15554248 26 9
2.9512854 -0.17895733 0.25867823 11 10
2.9879038 -0.18327147 0.36755794 85 11
2.9217131 -0.18484253 -0.051100649 17 7
2.9270699 -0.1949289 0.051205363 104 8
2.9532928 -0.19822846 0.1551238 104 9
2.9599035 -0.200229 0.2595498 11 10
2.9707079 -0.20304343 0.36560807 77 11
2.924341 -0.20551565 -0.051170457 20 7
2.9296262 -0.21565239 0.051275171 95 8
2.9458618 -0.21839833 0.15480977 120 9
2.9643941 -0.22133303 0.26007274 14 10
2.9288161 -0.22638856 -0.051275171 19 7
2.9439952 -0.23738541 0.051554412 14 8
2.9363022 -0.23831257 0.15439108 113 9
2.9468901 -0.24072513 0.25867823 56 10
2.9112234 -0.24548565 -0.050995931 20 7
2.9482422 -0.25845626 0.051659122 20 8
2.9465044 -0.25985864 0.15501912 113 9
2.9094388 -0.26580369 -0.050995931 65 7
2.9105318 -0.27563879 0.051030833 54 8
2.950583 -0.28099066 0.15533313 44 9
2.9075122 -0.28610879 -0.050995931 124 7
2.910526 -0.29615369 0.051065743 89 8
2.9113562 -0.30753717 -0.051100649 76 7
2.9262795 -0.31841245 0.051379886 99 8
2.9060485 -0.33726931 0.051065743 13 8
