# .PCD v0.7 - Point Cloud Data file format
VERSION 0.7
FIELDS x y z intensity ring
SIZE 4 4 4 4 2
TYPE F F F F U
COUNT 1 1 1 1 1
WIDTH 1184
HEIGHT 1
VIEWPOINT 0 0 0 1 0 0 0
POINTS 1184
DATA ascii
-1.4341942 -0.78097433 -0.37701797 45 1
-6.2912536 -3.4229853 0.37535352 12 9
-1.4626735 -0.79515874 -0.32361206 42 2
-6.2286844 -3.3847167 0.62020022 7 10
-1.4998996 -0.81437898 -0.27031878 11 3
-16.750849 -9.0911875 2.3401353 1 11
-6.2594185 -3.3943446 -0.87429076 7 4
-19.525295 -10.579318 3.5172729 4 12
-6.3104901 -3.4177651 -0.62786996 11 5
-18.134981 -9.8137312 4.0081339 7 13
-6.2615418 -3.3856034 -0.37305072 8 6
-17.544844 -9.4825068 4.6042981 7 14
-17.402813 -9.3939724 5.2990613 1 15
-1.3840415 -0.74242765 -0.42083979 39 0
-6.408463 -3.4347479 0.12691391 17 8
-1.4394768 -0.77119404 -0.37701797 44 1
-6.4253407 -3.439465 0.38194785 19 9
-1.468052 -0.7851845 -0.32361206 36 2
-6.3587589 -3.3995419 0.63083327 6 10
-1.4897267 -0.79577434 -0.26750296 15 3
-19.92416 -10.63404 2.7730153 2 11
-6.559104 -3.4992929 -0.91280144 5 4
-17.391727 -9.2707186 3.1214936 9 12
-6.4654851 -3.4449997 -0.64094335 10 5
-18.239489 -9.7103605 4.0165296 6 13
-17.701897 -9.4122658 4.6285925 3 14
-17.621544 -9.3537683 5.3456488 1 15
-1.4114044 -0.74446392 -0.42756909 25 0
-6.5166006 -3.4358134 0.12858933 12 8
-1.4379293 -0.75749272 -0.37521836 43 1
-6.5298958 -3.4384553 0.38676277 16 9
-1.4646753 -0.770603 -0.321704 21 2
-6.4969683 -3.4153278 0.64216352 8 10
-1.4898628 -0.78285915 -0.26656437 15 3
-26.107216 -13.70659 3.6204948 1 11
-6.6396265 -3.4829268 -0.92060113 11 4
-17.575142 -9.2154169 3.1430817 1 12
-6.5987983 -3.4571052 -0.65175062 13 5
-17.261473 -9.0355949 3.7871773 9 13
-17.682552 -9.2442198 4.6065478 5 14
-16.099043 -8.4056511 4.8663158 1 15
-1.4575946 -0.75619072 -0.4399924 27 0
-6.6256442 -3.4344091 0.13026476 15 8
-1.4395913 -0.74589443 -0.37431854 45 1
-6.6388779 -3.4368601 0.39178702 13 9
-1.4822258 -0.76667297 -0.3243753 15 2
-6.6191769 -3.422266 0.65192497 8 10
-1.5023119 -0.77606577 -0.26781586 11 3
-21.869707 -11.292632 3.0221162 5 11
-6.698463 -3.4558544 -0.9254759 5 4
-22.212982 -11.450252 3.9581053 3 12
-6.6646838 -3.4340103 -0.6559341 23 5
-19.033188 -9.7985363 4.1611629 6 13
-17.732935 -9.1174059 4.6033983 3 14
-1.3696154 -0.70358485 -0.026876707 1 7
-19.07395 -9.7942667 5.7452655 1 15
-1.4902414 -0.76029921 -0.44827461 47 0
-6.7539816 -3.4428113 0.13232414 10 8
-1.4637347 -0.74581027 -0.37926748 22 1
-6.7493329 -3.4359906 0.39691594 23 9
-1.4804105 -0.75300574 -0.32284883 11 2
-6.7435513 -3.4286008 0.6618607 8 10
-1.5110821 -0.76761109 -0.26844159 11 3
-21.809778 -11.074306 3.0033484 2 11
-21.707201 -11.003165 3.8545456 1 12
-19.034637 -9.6359453 4.1470428 10 13
-17.15807 -8.6746845 4.4387341 4 14
-1.3351049 -0.67441022 -0.0261088 1 7
-17.933025 -9.054697 5.3829184 1 15
-1.5212836 -0.7631309 -0.45603919 10 0
-6.8076506 -3.4119923 0.13291752 8 8
-1.4757468 -0.73932117 -0.3810671 11 1
-6.810071 -3.4087417 0.39911404 33 9
-1.4925253 -0.74642402 -0.3243753 15 2
-6.8665318 -3.432508 0.67162216 14 10
-1.5198064 -0.75907296 -0.26906732 53 3
-21.879454 -10.918234 3.0023735 11 11
-1.5383387 -0.7673229 -0.21107772 3 4
-17.195435 -8.5695839 3.0429637 1 12
-19.140207 -9.5262814 4.1558199 9 13
-17.940729 -8.913662 4.6249938 8 14
-1.3289187 -0.6599701 -0.025899371 1 7
-17.980228 -8.9215527 5.3782601 1 15
-1.4745907 -0.72686809 -0.44051 31 0
-1.4423239 -0.7103368 0.028063469 1 8
-1.480872 -0.72900087 -0.3810671 10 1
-1.4959381 -0.73512018 -0.32399368 40 2
-1.5126554 -0.74235225 -0.26687723 45 3
-21.817902 -10.697927 2.9836054 2 11
-1.5597008 -0.7644273 -0.21327138 9 4
-17.077435 -8.3624506 3.0116765 4 12
-1.4245847 -0.69697243 -0.13875194 1 5
-18.79179 -9.1897383 4.0661402 21 13
-1.3189667 -0.64444363 -0.076933861 1 6
-18.307228 -8.9369478 4.7032766 3 14
-1.3298993 -0.64892286 -0.025829561 1 7
-17.052279 -8.3132725 5.0832062 1 15
-1.4778907 -0.71571338 -0.4399924 47 0
-1.364445 -0.66018641 0.026457848 1 8
-1.4701364 -0.71100813 -0.37701797 11 1
-9.157052 -4.4247227 0.53298938 3 9
-1.5028017 -0.72551221 -0.3243753 54 2
-11.444622 -5.522696 1.1117586 2 10
-1.5106837 -0.72834229 -0.26562575 44 3
-24.744587 -11.919406 3.3723688 14 11
-1.5471138 -0.74490821 -0.21083398 14 4
-17.32053 -8.3320866 3.044215 1 12
-0.77935487 -0.37457576 -0.075651184 3 5
-18.565266 -8.9189034 4.0035543 20 13
-1.3018268 -0.6248489 -0.075677805 2 6
-18.544889 -8.8931866 4.7482672 2 14
-1.3416103 -0.6430797 -0.025969181 1 7
-17.935778 -8.5895338 5.328567 1 15
-1.4828511 -0.70537871 -0.4399924 34 0
-1.3834696 -0.65751135 0.026737086 2 8
-1.4785846 -0.70240009 -0.37791777 11 1
-9.3284597 -4.4274821 0.54115385 1 9
-1.5078299 -0.71500331 -0.3243753 52 2
-11.817773 -5.6013832 1.1441805 2 10
-1.5175167 -0.7186234 -0.26593861 60 3
-20.788019 -9.8353367 2.8237131 9 11
-1.5433038 -0.72984588 -0.20961528 21 4
-20.400274 -9.6388159 3.5735896 1 12
-0.79276127 -0.37422884 -0.076697052 3 5
-1.298931 -0.61233854 -0.075259112 4 6
-19.054321 -8.9744101 4.8625422 2 14
-1.3243563 -0.62347728 -0.025550324 1 7
-13.380227 -6.293406 3.962002 1 15
-1.4579847 -0.68110949 -0.43119255 48 0
-1.3699056 -0.6393798 0.02638804 2 8
-1.4763882 -0.68876499 -0.37611815 24 1
-9.5220661 -4.43819 0.5505743 3 9
-1.4914279 -0.69451398 -0.31979591 49 2
-12.102246 -5.6330891 1.167887 5 10
-1.5207055 -0.70717907 -0.26562575 60 3
-20.807684 -9.671854 2.8173759 5 11
-1.5357584 -0.7132014 -0.20790912 24 4
-17.524771 -8.1310091 3.0598586 1 12
-0.79529017 -0.36882421 -0.076697052 3 5
-18.92312 -8.767767 4.0539279 4 13
-1.317674 -0.60996759 -0.07609649 8 6
-1.3504583 -0.6242854 -0.025969181 1 7
-13.256154 -6.1252031 3.9128265 2 15
-1.4485406 -0.66472363 -0.42705145 45 0
-1.4142168 -0.64837486 0.027155945 1 8
-1.4810421 -0.67869985 -0.37611815 39 1
-9.7409172 -4.4597402 0.5614602 1 9
-1.4979061 -0.6851626 -0.32017753 66 2
-12.665786 -5.7908297 1.2184372 2 10
-1.5129063 -0.69106632 -0.26343569 71 3
-17.972946 -8.205904 2.4259312 14 11
-1.5423836 -0.70355511 -0.20815286 37 4
-1.3265669 -0.60455161 0.23089729 0 12
-0.7887165 -0.35927272 -0.075825498 3 5
-19.000231 -8.6468897 4.057744 5 13
-1.3327044 -0.60594428 -0.076724522 18 6
-1.3962352 -0.63453597 0.35407296 0 14
-1.3109771 -0.59523737 -0.025131466 1 7
-13.286984 -6.0300398 3.9097207 3 15
-1.4477478 -0.65246701 -0.42549852 26 0
-1.4962901 -0.67340165 -0.37881759 49 1
-10.124436 -4.5522289 0.58176655 1 9
-1.5025352 -0.67495084 -0.32017753 60 2
-13.248365 -5.9484973 1.2705564 2 10
-1.5049589 -0.67509282 -0.26124558 73 3
-17.754452 -7.9568295 2.3888831 11 11
-1.5290204 -0.6849249 -0.20571546 20 4
-17.814138 -7.9723821 3.0911453 1 12
-0.7784127 -0.34820086 -0.074605316 10 5
-19.099871 -8.5357866 4.0665212 12 13
-1.3495641 -0.60255867 -0.077457219 22 6
-1.3791671 -0.61548758 0.34867415 0 14
-1.3515261 -0.60258615 -0.025829561 1 7
-1.3270521 -0.59111953 0.38926387 1 15
-1.4681684 -0.64937693 -0.43015727 15 0
-1.4831287 -0.65506572 -0.37431854 49 1
-10.337902 -4.5638709 0.59223378 1 9
-1.510687 -0.66629261 -0.32094073 54 2
-13.712564 -6.042243 1.3109967 2 10
-1.5040954 -0.66244489 -0.26030698 49 3
-17.946291 -7.8965559 2.4074073 5 11
-1.4047394 -0.61751527 -0.18841003 9 4
-0.77900022 -0.34195718 -0.074431002 21 5
-21.34351 -9.3602619 4.5301871 6 13
-1.344488 -0.58934963 -0.076933861 27 6
-1.3762901 -0.60271728 0.34687454 0 14
-1.3190594 -0.57710564 -0.025131466 1 7
-13.434351 -5.8749104 3.9288731 0 15
-1.4778707 -0.64167655 -0.43171018 11 0
-1.3832402 -0.60001522 0.026318228 1 8
-1.4768257 -0.64030409 -0.37161914 51 1
-10.582107 -4.5836735 0.60437566 1 9
-1.5098965 -0.65339071 -0.31979591 51 2
-14.098989 -6.098258 1.3439416 2 10
-1.5032437 -0.64957756 -0.25936839 37 3
-21.239811 -9.1736908 2.8407748 9 11
-1.3797477 -0.59535533 -0.1845102 19 4
-1.3641316 -0.58805269 0.23527746 0 12
-0.78496939 -0.33822358 -0.074779622 21 5
-19.381645 -8.34305 4.1016302 4 13
-1.3247175 -0.56969142 -0.075573131 9 6
-1.3463439 -0.57871372 0.33832639 1 14
-1.3413315 -0.57600421 -0.025480513 1 7
-13.406569 -5.7543778 3.9092031 0 15
-1.4875358 -0.63387406 -0.43326309 18 0
-1.3504941 -0.57492048 0.025620133 1 8
-1.4865294 -0.6325258 -0.37296885 53 1
-10.852012 -4.6131129 0.61798304 1 9
-1.5034665 -0.63849378 -0.31750616 46 2
-1.5003557 -0.63624573 -0.2581169 17 3
-21.400457 -9.0707359 2.8539364 5 11
-1.3819404 -0.58517587 -0.18426646 22 4
-1.3608255 -0.57567525 0.23402599 0 12
-0.78908849 -0.33364853 -0.074953936 10 5
-20.703953 -8.7456951 4.368763 3 13
-1.3451254 -0.5676502 -0.076515175 9 6
-1.330501 -0.56120509 0.33337748 1 14
-1.3120512 -0.55288363 -0.024852226 1 7
-13.424065 -5.6539874 3.9029913 0 15
-1.4864689 -0.62149882 -0.43171018 40 0
-1.3617569 -0.56879753 0.025759753 1 8
-1.4979936 -0.62539607 -0.37476847 50 1
-11.178097 -4.6621499 0.63473052 1 9
-1.4987166 -0.6244697 -0.3155981 34 2
-25.519743 -10.628069 2.4185719 7 10
-1.4882375 -0.61918873 -0.25530109 11 3
-27.594833 -11.46968 3.6692426 2 11
-1.380392 -0.57347137 -0.18353525 14 4
-1.3336962 -0.55352628 0.22870721 0 12
-0.76563197 -0.31744835 -0.072513573 4 5
-19.413624 -8.0453577 4.0848393 2 13
-1.3378861 -0.55389714 -0.075887144 3 6
-1.3451911 -0.55637157 0.33607689 1 14
-1.3139361 -0.54317594 -0.024817321 3 7
-1.4800466 -0.60670972 -0.42860436 47 0
-1.3767978 -0.56382406 0.025969181 1 8
-1.4969126 -0.61270827 -0.37341875 49 1
-11.443305 -4.6792493 0.64791918 6 9
-1.5048572 -0.61473399 -0.31597972 31 2
-1.4870367 -0.60654598 -0.25436246 8 3
-1.397231 -0.56906176 -0.18524142 10 4
-1.3411876 -0.54569077 0.22933295 0 12
-0.76598376 -0.31134546 -0.072339267 4 5
-19.567537 -7.949532 4.1054463 2 13
-1.3380191 -0.54304129 -0.075677805 3 6
-1.3490425 -0.54696685 0.33607689 1 14
-1.3251094 -0.53699392 -0.024956942 6 7
-1.480661 -0.59492177 -0.42756909 59 0
-1.3844119 -0.55568862 0.026038991 2 8
-1.490302 -0.59788936 -0.37071934 49 1
-1.5164025 -0.60713196 -0.31750616 29 2
-1.4802295 -0.59175009 -0.25248525 9 3
-1.3882641 -0.55414236 -0.18353525 9 4
-1.352304 -0.53924125 0.23058443 0 12
-0.78294629 -0.31188872 -0.073733754 3 5
-19.737469 -7.8584871 4.1294885 1 13
-1.3399218 -0.53294873 -0.075573131 6 6
-1.3818045 -0.5490489 0.34327531 0 14
-1.332543 -0.52920592 -0.02502675 4 7
-13.600581 -5.3958378 3.9205911 0 15
-1.4793854 -0.58244747 -0.42601615 50 0
-1.3957015 -0.54893738 0.026178611 2 8
-1.4835576 -0.58319318 -0.36801991 44 1
-1.5260872 -0.59868163 -0.31865105 37 2
-1.4971997 -0.5864448 -0.25467533 11 3
-1.3773091 -0.53865272 -0.18158534 8 4
-1.3560357 -0.52978694 0.23058443 0 12
-0.79252869 -0.30931285 -0.074431002 10 5
-0.85049552 -0.33176526 0.17745239 5 13
-1.3622192 -0.53083348 -0.076619849 7 6
-19.247726 -7.4927716 4.7685127 1 14
-1.3417958 -0.5220657 -0.025131466 1 7
-17.826168 -6.9286404 5.1246176 1 15
-1.4796115 -0.57123142 -0.42498088 46 0
-1.3918486 -0.53679043 0.026038991 1 8
-1.4873929 -0.57334101 -0.36801991 40 1
-1.5135328 -0.58220381 -0.31521648 30 2
-1.4992121 -0.57579422 -0.25436246 15 3
-1.3437812 -0.51529157 -0.17671056 6 4
-1.3595195 -0.52078199 0.23058443 0 12
-0.78898031 -0.30191362 -0.073908068 22 5
-0.89118505 -0.34084532 0.18546635 1 13
-1.3936958 -0.53247952 -0.078189924 10 6
-1.3855094 -0.52879769 0.34237552 0 14
-1.3713861 -0.52313316 -0.025620133 1 7
-17.886171 -6.815763 5.1287584 1 15
-1.4600722 -0.5520066 -0.4182516 36 0
-1.5004752 -0.56638402 -0.37026942 16 1
-1.5161382 -0.57018077 -0.25655255 2 3
-0.791682 -0.29725832 -0.10383269 8 4
-1.3890158 -0.52099025 0.23496459 0 12
-0.78174013 -0.29290307 -0.073036514 28 5
-0.89538139 -0.33530387 0.18584797 0 13
-1.391767 -0.52063769 -0.077875912 2 6
-1.4110729 -0.52729785 0.34777433 0 14
-1.3487784 -0.50375146 -0.025131466 1 7
-18.070875 -6.7420492 5.1680989 1 15
-1.4475845 -0.53576499 -0.41359285 57 0
-1.4879413 -0.54981589 -0.3662203 0 1
-0.85248429 -0.31416011 0.079486035 2 10
-0.8718819 -0.32078996 0.11406972 2 11
-0.80678052 -0.29651785 -0.10553886 8 4
-19.428055 -7.1327405 3.2779281 1 12
-0.79306793 -0.2910068 -0.073908068 26 5
-0.88664043 -0.32499102 0.18355827 0 13
-0.8814826 -0.32275122 -0.049195804 2 6
-19.250303 -7.0446153 4.7325201 1 14
-1.4748093 -0.53445578 -0.42032215 38 0
-0.82356697 -0.29812723 0.015288308 12 8
-0.75865215 -0.27447847 -0.18625948 1 1
-0.89034015 -0.32177168 0.049614493 6 9
-0.826491 -0.29820704 0.076871365 6 10
-0.81054616 -0.29197443 0.1057826 8 11
-0.81064796 -0.29169148 -0.1057826 12 4
-1.5559361 -0.55925149 0.26187131 0 12
-0.78940517 -0.28358105 -0.073385134 31 5
-0.88513631 -0.31762213 0.18279503 1 13
-0.81221414 -0.2911348 -0.04521827 23 6
-1.4915028 -0.53432924 0.3657704 0 14
-0.85477853 -0.30588666 -0.015846785 6 7
-23.639835 -8.4549828 6.7272248 1 15
-1.4929788 -0.52957124 -0.42446327 27 0
-0.81992257 -0.29051098 0.015183594 3 8
-0.71641576 -0.25369602 -0.17546181 1 1
-0.87372023 -0.30871445 -0.1801237 1 2
-0.83038044 -0.29323784 0.077045679 3 10
-0.8275429 -0.29158619 0.10773251 3 11
-0.79201835 -0.27891392 -0.10310147 18 4
-0.78755784 -0.27687973 -0.073036514 32 5
-19.688675 -6.9141717 4.0562177 1 13
-0.83679307 -0.29353282 -0.046474334 4 6
-1.4948142 -0.51850259 -0.42394564 29 0
-0.8369959 -0.29016334 0.015462833 3 8
-0.76236445 -0.26399243 -0.18625948 8 1
-0.87580132 -0.30276003 -0.1801237 1 2
-0.83994037 -0.29003492 0.077742919 3 10
-0.8482756 -0.2924161 0.11016989 3 11
-0.78643864 -0.27079248 -0.10212652 23 4
-19.569647 -6.7345538 3.2779281 1 12
-0.79324007 -0.27266994 -0.073385134 31 5
-0.91914105 -0.31558871 0.18890092 0 13
-0.80854577 -0.27745786 -0.044799585 4 6
-17.144123 -5.8764324 4.1840897 1 14
-0.88918483 -0.30443606 -0.016405262 5 7
-15.196377 -5.1999207 4.3036432 1 15
-1.5037971 -0.51017761 -0.42549852 8 0
-0.84278917 -0.28559631 0.015532642 2 8
-0.76229793 -0.25817192 -0.18580957 68 1
-0.81279552 -0.2746419 -0.16676706 6 2
-0.804142 -0.27156153 0.074256696 4 10
-0.88039541 -0.29662806 0.11406972 2 11
-0.81460172 -0.27430212 -0.10553886 24 4
-19.870823 -6.6834083 3.3204784 1 12
-0.78185791 -0.26282057 -0.072164953 41 5
-19.651855 -6.598309 4.0295048 1 13
-0.85212225 -0.28577796 -0.047102366 3 6
-17.91357 -6.0042281 4.3618011 0 14
-0.83911449 -0.28060094 0.23707826 4 15
-0.71148545 -0.23585241 -0.20084359 1 0
-0.82193482 -0.27230641 0.015113784 3 8
-0.76408172 -0.2528438 -0.18580957 68 1
-0.79414016 -0.26232925 -0.16256927 60 2
-0.82115471 -0.27093533 0.075651184 3 10
-0.85599756 -0.28193468 0.11065737 3 11
-0.80518275 -0.26488641 -0.10407643 26 4
-20.035954 -6.5874825 3.3405018 1 12
-0.77799481 -0.25549087 -0.071642019 38 5
-19.372849 -6.3544869 3.9631031 1 13
-0.82368159 -0.27001658 -0.045427613 4 6
-18.098133 -5.9153852 5.1018414 1 15
-0.7259391 -0.23517163 -0.20446704 4 0
-0.82001066 -0.26533058 0.015043975 3 8
-0.75465983 -0.24403933 -0.18311015 55 1
-0.78100467 -0.25195676 -0.15951632 100 2
-0.80780977 -0.26044858 0.074256696 4 10
-0.85794508 -0.27595159 0.11065737 3 11
-0.81074685 -0.26061475 -0.10456391 25 4
-20.833778 -6.6889954 3.4656496 1 12
-0.77402449 -0.24836329 -0.071119085 39 5
-18.720165 -5.999578 3.8211412 1 13
-0.85217714 -0.27278408 -0.046893019 3 6
-18.897236 -6.0308747 5.3151083 1 15
-0.72387922 -0.22893298 -0.20343177 3 0
-0.86755908 -0.2742064 0.015881689 2 8
-0.75820351 -0.23935169 -0.18356006 30 1
-0.83426517 -0.26320297 0.045846302 12 9
-0.78831917 -0.24840491 -0.16066119 100 2
-0.83241415 -0.26198021 0.076348431 3 10
-0.84465271 -0.26534599 0.10870746 3 11
-0.7936061 -0.24900527 -0.10212652 33 4
-0.77764088 -0.24354878 -0.071293391 46 5
-18.341881 -5.7374563 3.7356586 0 13
-0.82732624 -0.25863415 -0.045427613 4 6
-0.71988803 -0.22477162 0.17411213 2 14
-0.79676175 -0.24831626 0.22361965 5 15
-0.7401877 -0.22856021 -0.20757288 31 0
-0.82741278 -0.25517786 0.015113784 6 8
-0.75981516 -0.23418522 -0.18356006 13 1
-0.78252786 -0.24058755 -0.15913472 70 2
-0.82084656 -0.25221181 0.07512825 7 10
-0.83889288 -0.2571159 0.10773251 3 11
-0.78389436 -0.24010931 -0.10066409 35 4
-0.80023932 -0.24465761 -0.073210821 34 5
-0.91442513 -0.27921897 0.18584797 0 13
-0.83675319 -0.25518265 -0.045846302 4 6
-0.67666322 -0.20623116 0.16331446 17 14
-0.66354835 -0.2017279 0.18583208 21 15
-0.72696692 -0.21893071 -0.20343177 87 0
-0.82913059 -0.24953991 0.015113784 6 8
-0.76516402 -0.22999714 -0.18445987 35 1
-0.77098423 -0.23130631 -0.15646338 61 2
-0.780599 -0.23389414 0.071293391 9 10
-0.86291498 -0.25839448 -0.14266825 1 3
-0.85583836 -0.25595018 0.10968242 3 11
-0.79696387 -0.23803973 -0.10212652 42 4
-0.7713781 -0.22995789 -0.070421837 49 5
-0.89753586 -0.26722607 0.1820318 1 13
-0.83464217 -0.24834195 -0.045636959 4 6
-0.66874647 -0.19872677 0.16106495 34 14
-0.805161 -0.23895812 -0.014660021 10 7
-0.6426807 -0.19061486 0.17962041 58 15
-0.72473323 -0.21288837 -0.20239651 100 0
-0.83852774 -0.24599729 0.015253403 3 8
-0.75923175 -0.2225903 -0.18266025 27 1
-0.83955139 -0.24582028 0.045846302 12 9
-0.7857706 -0.22977553 -0.15913472 33 2
-0.81468391 -0.23807605 0.074256696 8 10
-0.81918734 -0.23908177 -0.13515939 2 3
-0.85379291 -0.24885792 0.10919494 3 11
-0.79284793 -0.23094398 -0.1013953 48 4
-0.76722491 -0.22289947 -0.069898903 87 5
-0.89179248 -0.25892091 0.18050532 1 13
-0.80374545 -0.23305339 -0.043857537 10 6
-0.67198938 -0.19459526 0.16151486 34 14
-0.8682369 -0.25126055 -0.015776975 7 7
-0.6514194 -0.18826897 0.18169098 57 15
-0.72248721 -0.20676057 -0.20136122 100 0
-0.81330669 -0.23244408 0.014764735 7 8
-0.75327194 -0.21514387 -0.18086064 27 1
-0.80283397 -0.22899637 0.043752864 15 9
-0.78357929 -0.22320852 -0.15837148 18 2
-0.81057739 -0.230746 0.073733754 8 10
-0.79423529 -0.22579445 -0.13077922 2 3
-0.81349778 -0.23096374 0.10383269 4 11
-0.79826033 -0.22648689 -0.10188278 47 4
-0.77259654 -0.21862276 -0.070247531 90 5
-0.84823817 -0.23986752 0.17134649 1 13
-0.79189831 -0.22363687 -0.043124832 22 6
-0.69396281 -0.19571778 0.16646378 10 14
-0.789132 -0.22240959 -0.014310974 11 7
-0.63226229 -0.17795911 0.17599694 12 15
-0.7313568 -0.20378594 -0.20343177 88 0
-0.7956447 -0.22139971 0.014415688 8 8
-0.74912304 -0.20831372 -0.17951094 30 1
-0.80826199 -0.22445478 0.043962207 14 9
-0.7756592 -0.21510939 -0.15646338 14 2
-0.80832845 -0.22401746 0.073385134 8 10
-0.79579228 -0.22024414 -0.13077922 2 3
-0.81505102 -0.22542107 0.10383269 9 11
-0.77877408 -0.21509525 -0.099201649 68 4
-0.78174978 -0.21547668 -0.070944771 100 5
-0.81582081 -0.22456123 0.16447736 1 13
-0.77995944 -0.21439746 -0.042392131 36 6
-0.67085028 -0.18427914 0.16061506 26 14
-0.7713809 -0.21160486 -0.013961925 25 7
-0.6800369 -0.1864198 0.1889379 31 15
-0.73459148 -0.19930887 -0.20394942 76 0
-0.80099338 -0.21702486 0.014485498 12 8
-0.7580477 -0.20524696 -0.18131055 31 1
-0.77121049 -0.20852201 0.041868769 17 9
-0.77521008 -0.20931287 -0.15608177 16 2
-0.82329977 -0.22214334 0.074605316 7 10
-0.79918039 -0.21533617 -0.1310921 20 3
-0.82806742 -0.22296469 0.10529512 8 11
-0.78022015 -0.20978931 -0.099201649 63 4
-0.83370835 -0.22385946 0.13672373 1 12
-0.78897136 -0.21169952 -0.071467713 100 5
-0.77181774 -0.20680802 0.15531853 1 13
-0.80262387 -0.21476229 -0.043543518 64 6
-0.66267604 -0.17719178 0.15836555 24 14
-0.77666742 -0.20738107 -0.014031734 37 7
-0.6663577 -0.17780225 0.18479681 89 15
-0.73219544 -0.19331774 -0.20291413 58 0
-0.82372195 -0.21717545 0.014869451 21 8
-0.76131159 -0.20057881 -0.18176045 39 1
-0.78613269 -0.20682488 0.04260147 33 9
-0.7709204 -0.20253477 -0.15493691 19 2
-0.81323016 -0.21349882 0.073559448 20 10
-0.80444926 -0.21089321 -0.13171785 85 3
-0.84496695 -0.22120011 0.10724504 8 11
-0.77970958 -0.20397127 -0.098957919 86 4
-0.80463296 -0.21019116 0.13171785 2 12
-0.77500695 -0.20216332 -0.070073217 100 5
-0.79790461 -0.20798732 0.16027956 10 13
-0.79053718 -0.20577222 -0.042810816 34 6
-0.65823871 -0.17109041 0.15701583 27 14
-0.77806103 -0.20208965 -0.014031734 99 7
-0.65449286 -0.16975099 0.18117334 100 15
-0.75036842 -0.19252229 -0.20757288 23 0
-0.7903496 -0.20248649 0.014241164 100 8
-0.77590835 -0.19864216 -0.18490976 25 1
-0.79723269 -0.20380478 0.043124832 100 9
-0.80084938 -0.20443177 -0.16066119 69 2
-0.80118692 -0.2043688 0.072339267 100 10
-0.78484511 -0.19990875 -0.12827627 100 3
-0.82725209 -0.21040282 0.10480764 45 11
-0.79458207 -0.2019459 -0.10066409 100 4
-0.79459262 -0.20165335 0.12984063 57 12
-0.76288015 -0.19332169 -0.068853036 100 5
-0.76698309 -0.19421917 0.15379207 13 13
-0.80357242 -0.20318586 -0.043438848 62 6
-0.71987939 -0.18175648 0.17141271 2 14
-0.79884225 -0.20154491 -0.014380784 28 7
-0.62756217 -0.15809859 0.17340876 25 15
-0.75356859 -0.18774623 -0.20809051 19 0
-0.78980345 -0.1964809 0.014206259 48 8
-0.74323493 -0.18475825 -0.17681152 37 1
-0.81026661 -0.20112115 0.043752864 13 9
-0.79844588 -0.19789122 -0.15989795 78 2
-0.79679227 -0.19733378 0.071816333 100 10
-0.78238636 -0.1934762 -0.12765054 100 3
-0.8036471 -0.19843613 0.10163904 97 11
-0.79211795 -0.19544269 -0.10017661 92 4
-0.79214507 -0.19515589 0.12921488 100 12
-0.77191681 -0.19002968 -0.069550283 52 5
-0.75306821 -0.18511061 0.15073912 10 13
-0.79527283 -0.19519073 -0.04291549 104 6
-0.75138229 -0.18427907 0.17861113 4 14
-0.80605668 -0.19739011 -0.014485498 32 7
-0.67181164 -0.164267 0.18531445 11 15
-0.74547219 -0.18021093 -0.20550233 10 0
-0.80861664 -0.19532613 0.014520402 100 8
-0.76345086 -0.18413408 -0.18131055 17 1
-0.79802513 -0.19232556 0.043020159 100 9
-0.81122696 -0.19520764 -0.16218765 67 2
-0.81558573 -0.19595557 0.073385134 82 10
-0.79328918 -0.19045189 -0.12921488 100 3
-0.81270081 -0.19481243 0.102614 58 11
-0.77222681 -0.1848252 -0.097495481 100 4
-0.82227308 -0.19665158 0.13390793 22 12
-0.78679001 -0.18787527 -0.070770465 61 5
-0.7581616 -0.18075949 0.15150236 4 13
-0.80824035 -0.19255011 -0.043543518 125 6
-0.81331748 -0.19345969 0.19300801 1 14
-0.80741513 -0.19175777 -0.014485498 37 7
-17.422462 -4.1345553 4.7979875 2 15
-0.71282703 -0.16719195 -0.19618484 1 0
-0.80996048 -0.18967636 0.014520402 50 8
-0.77037901 -0.18026516 -0.18266025 38 1
-0.79934835 -0.18674979 0.043020159 13 9
-0.79153872 -0.18463393 -0.15798986 64 2
-0.80913919 -0.1885905 0.072687887 100 10
-0.79459941 -0.18490922 -0.12921488 100 3
-0.81980854 -0.19062456 0.10334522 61 11
-0.7928037 -0.18405385 -0.099932872 97 4
-0.7793656 -0.18064725 0.12671193 71 12
-0.79387355 -0.18386424 -0.071293391 55 5
-0.80719405 -0.18665226 0.16104279 3 13
-0.77648175 -0.17926499 -0.041764095 74 6
-0.8127166 -0.18748108 0.19255811 3 14
-0.77557415 -0.17862779 -0.013892116 28 7
-17.051083 -3.9240181 4.6882482 4 15
-0.81318301 -0.18460143 0.014555307 52 8
-0.76398629 -0.17329304 -0.18086064 37 1
-0.80449688 -0.18218674 0.043229505 100 9
-0.77937269 -0.17621113 -0.15531853 71 2
-0.79485679 -0.17956616 0.071293391 100 10
-0.79198569 -0.17862703 -0.12858914 100 3
-0.82108712 -0.18503988 0.10334522 57 11
-0.78241807 -0.1760387 -0.098470435 100 4
-0.79792327 -0.17923467 0.12952776 27 12
-0.77566648 -0.17409301 -0.069550283 56 5
-0.82568759 -0.185017 0.16447736 27 13
-0.80692023 -0.18051592 -0.043334179 100 6
-0.82158113 -0.18364514 0.19435771 4 14
-0.80214399 -0.17900647 -0.014345878 43 7
-0.80135733 -0.17868412 0.2199962 12 15
-0.82809198 -0.18206801 0.014799641 81 8
-0.78608501 -0.17268816 -0.18580957 11 1
-0.82912898 -0.18184097 0.044485565 22 9
-0.81123924 -0.17762053 -0.16142441 19 2
-0.81941694 -0.17926118 0.073385134 100 10
-0.77774417 -0.16986011 -0.12608619 100 3
-0.83396429 -0.18198615 0.10480764 54 11
-0.78553778 -0.17113139 -0.09871418 100 4
-0.82421809 -0.17925668 0.13359505 18 12
-0.7787804 -0.16923223 -0.06972459 100 5
-0.8346023 -0.18105753 0.16600384 42 13
-0.80422622 -0.17417368 -0.043124832 35 6
-0.83233541 -0.1801095 0.19660722 3 14
-0.81898075 -0.17692025 -0.014625117 68 7
-0.80066669 -0.17281792 0.21947856 19 15
-0.82540023 -0.17559494 0.014729831 100 8
-0.78724229 -0.16733344 -0.18580957 1 1
-0.85183895 -0.18075335 0.045636959 19 9
-0.83547711 -0.17697679 -0.16600384 6 2
-0.82256734 -0.17409194 0.073559448 28 10
-0.79434395 -0.16782916 -0.12858914 38 3
-0.83712602 -0.17671534 0.10505138 26 11
-0.78862685 -0.16618995 -0.098957919 34 4
-0.84281677 -0.17730215 0.13641086 3 12
-0.77796453 -0.1635177 -0.069550283 100 5
-0.83581537 -0.17537235 0.16600384 16 13
-0.80343831 -0.16828617 -0.043020159 57 6
-0.92891306 -0.19439857 0.21910232 0 14
-0.82408088 -0.17215957 -0.014694927 37 7
-18.733192 -3.9101582 5.1277227 1 15
-0.84718001 -0.17374688 0.045322943 38 9
-0.80781192 -0.16537935 -0.16027956 3 2
-0.83544517 -0.17088445 0.074605316 11 10
-0.79353249 -0.16202314 -0.12827627 9 3
-0.851955 -0.17364208 0.10675755 8 11
-0.78779465 -0.16042198 -0.09871418 100 4
-0.94272935 -0.19162908 0.15236719 1 12
-0.78494495 -0.1592709 -0.070073217 100 5
-0.86969972 -0.17631021 0.17249134 3 13
-0.81239551 -0.164398 -0.043438848 33 6
-21.082428 -4.2586231 4.9655695 1 14
-23.69529 -4.7735071 6.4766884 1 15
-0.85128051 -0.16886693 0.015148689 9 8
-0.84249437 -0.16666561 0.045008924 13 9
-0.81665111 -0.16125701 -0.16180603 3 2
-0.84052718 -0.16581923 0.074953936 11 10
-0.80627322 -0.15876924 -0.13015349 6 3
-0.83756387 -0.16462725 0.10480764 9 11
-0.78110385 -0.15338798 -0.09773922 100 4
-0.94404417 -0.18504293 0.15236719 1 12
-0.78799301 -0.15416981 -0.070247531 100 5
-21.077162 -4.119895 4.1745191 2 13
-0.83900726 -0.16369462 -0.044799585 19 6
-5.4495859 -1.0612664 1.2817712 0 14
-0.81067312 -0.15772593 -0.014415688 11 7
-0.9633826 -0.18708815 0.26296017 1 15
-0.83476132 -0.15954144 0.014834546 10 8
-0.85933292 -0.1637713 0.045846302 12 9
-0.82354301 -0.15665239 -0.16295089 2 2
-0.82209074 -0.15622769 0.073210821 12 10
-0.80542117 -0.1527684 -0.12984063 4 3
-0.86209822 -0.16320691 0.10773251 7 11
-0.77240306 -0.14608677 -0.096520528 100 4
-0.78121841 -0.14718905 -0.069550283 100 5
-21.483566 -4.0438333 4.2493162 1 13
-0.83031499 -0.1559892 -0.044276223 15 6
-21.407984 -4.0141344 5.0285559 1 14
-0.79209942 -0.14838044 -0.01406664 12 7
-0.83933479 -0.15692559 0.22879605 5 15
-0.83388817 -0.15334795 0.014799641 14 8
-0.84866834 -0.15560663 0.04521827 12 9
-0.82268536 -0.15054597 -0.16256927 4 2
-0.82316142 -0.15048441 0.073210821 12 10
-0.79480833 -0.14501442 -0.12796341 9 3
-0.86321658 -0.15718435 0.10773251 7 11
-0.79098147 -0.14388834 -0.09871418 100 4
-0.94653577 -0.17184409 0.15236719 1 12
-0.78810829 -0.14279738 -0.070073217 100 5
-0.87320131 -0.15805797 0.17249134 2 13
-0.81172931 -0.14663835 -0.043229505 16 6
-5.4562001 -0.98369241 1.2799715 0 14
-0.81673229 -0.14710061 -0.014485498 11 7
-26.672552 -4.7943482 7.2614274 1 15
-0.83296913 -0.14717484 0.014764735 21 8
-0.85366786 -0.15037116 0.045427613 12 9
-0.85465407 -0.15023711 -0.16867517 7 2
-0.83204138 -0.14611262 0.073908068 16 10
-0.81331283 -0.14253093 -0.13077922 9 3
-0.83689153 -0.1465127 0.10432017 9 11
-0.78023386 -0.13631292 -0.097251743 35 4
-0.94771236 -0.16523184 0.15236719 1 12
-0.78317356 -0.13640398 -0.069550283 100 5
-0.88202053 -0.15330279 0.17401782 3 13
-0.82257259 -0.14267448 -0.043752864 26 6
-21.603384 -3.7432036 5.0618486 1 14
-0.82562125 -0.14275782 -0.014625117 21 7
-26.738834 -4.6186013 7.2707448 1 15
-0.84775227 -0.14384322 0.015009069 21 8
-0.8310402 -0.14055997 0.044171553 14 9
-0.85178512 -0.14376292 -0.16791193 33 2
-0.84873396 -0.14309561 0.075302556 18 10
-0.81621224 -0.13731951 -0.1310921 11 3
-0.84765756 -0.14245775 0.10553886 8 11
-0.78310138 -0.13132736 -0.097495481 44 4
-0.94881511 -0.15877713 0.15236719 1 12
-0.7958746 -0.13304108 -0.070596151 100 5
-0.8714245 -0.1453574 0.1717281 8 13
-0.82352471 -0.13707207 -0.043752864 32 6
-23.139328 -3.8472896 5.4154716 1 14
-0.82854652 -0.13746215 -0.014660021 20 7
-26.712479 -4.4270124 7.2552156 1 15
-0.84673798 -0.13774852 0.014974165 28 8
-0.82409161 -0.13362151 0.043752864 30 9
-0.81785893 -0.13231778 -0.16104279 55 2
-0.83788711 -0.13540798 0.074256696 20 10
-0.81322759 -0.1311316 -0.13046636 13 3
-0.85255128 -0.13716717 0.10602634 8 11
-0.77809733 -0.12504897 -0.096764266 42 4
-0.89916193 -0.14418347 0.1442326 1 12
-0.79282707 -0.12699041 -0.070247531 100 5
-0.87239373 -0.13942264 0.1717281 4 13
-0.81852162 -0.13051982 -0.043438848 33 6
-23.207319 -3.6964455 5.4253697 1 14
-0.8018142 -0.12742525 -0.014171354 23 7
-21.331604 -3.3824151 5.7871938 4 15
-0.8516078 -0.13259706 0.015043975 27 8
-0.82695574 -0.12831526 0.043857537 29 9
-0.81292027 -0.12584665 -0.15989795 66 2
-0.82502866 -0.12742628 0.073036514 25 10
-0.81800598 -0.12619545 -0.1310921 11 3
-0.85542721 -0.13166283 0.10627007 8 11
-0.7848376 -0.12051784 -0.097495481 48 4
-0.89231241 -0.1368618 0.14298111 1 12
-0.76612186 -0.11723316 -0.067807168 47 5
-0.86752355 -0.13243993 0.17058325 2 13
-0.83518654 -0.12735406 -0.044276223 35 6
-5.4348655 -0.82679868 1.2691739 0 14
-0.82047772 -0.12452516 -0.014485498 22 7
-26.954338 -4.0860891 7.3049088 1 15
-0.84262282 -0.12517904 0.014869451 39 8
-0.83573431 -0.12370849 0.044276223 28 9
-0.81572115 -0.12045533 -0.16027956 75 2
-0.82981908 -0.12238895 0.073385134 24 10
-0.80714095 -0.11875654 -0.12921488 13 3
-0.87397957 -0.12843461 0.10846373 7 11
-0.78956801 -0.11574849 -0.097982958 55 4
-0.85415429 -0.12491234 0.13672373 1 12
-0.78070235 -0.11403131 -0.069027349 48 5
-0.87811863 -0.12794736 0.17249134 2 13
-0.8439613 -0.12266939 -0.044694912 39 6
-25.98494 -3.7722752 6.0619812 1 14
-0.82526445 -0.11951064 -0.014555307 32 7
-0.83553559 -0.11831927 0.014729831 41 8
-0.82666856 -0.11662215 0.043752864 45 9
-0.83401906 -0.11736225 -0.16371413 63 2
-0.82668686 -0.11618333 0.073036514 29 10
-0.81966811 -0.11490516 -0.1310921 11 3
-0.84731066 -0.11862946 0.10505138 13 11
-0.79623568 -0.11119505 -0.09871418 53 4
-0.91367942 -0.12727128 0.1461098 1 12
-0.78146046 -0.10871459 -0.069027349 49 5
-0.86924607 -0.12061802 0.17058325 1 13
-0.83092791 -0.11500532 -0.043962207 42 6
-5.3741937 -0.74286431 1.2525275 0 14
-0.83002079 -0.11443671 -0.014625117 63 7
-0.84028518 -0.11316299 0.014799641 43 8
-0.82150471 -0.1101959 0.043438848 46 9
-0.83090675 -0.11116205 -0.16295089 67 2
-0.84325731 -0.11266435 0.074431002 31 10
-0.82043123 -0.10932319 -0.1310921 11 3
-0.8559894 -0.11375727 0.10602634 12 11
-0.7792635 -0.10342234 -0.096520528 66 4
-0.89494163 -0.11845705 0.14298111 1 12
-0.7822004 -0.1032565 -0.069027349 56 5
-22.40906 -2.9541903 4.393568 1 13
-0.81584972 -0.10726392 -0.043124832 45 6
-0.82681489 -0.10826521 -0.014555307 64 7
-0.90415728 -0.11807141 0.24432519 3 15
-0.84700555 -0.10805329 0.014904355 66 8
-0.83017933 -0.10546505 0.043857537 44 9
-0.82387185 -0.10437135 -0.16142441 73 2
-0.84402329 -0.10677476 0.074431002 31 10
-0.81529486 -0.10285112 -0.13015349 13 3
-0.85479307 -0.1075308 0.1057826 12 11
-0.77799696 -0.097732112 -0.09627679 74 4
-0.84478527 -0.10582256 0.13484652 1 12
-0.7888332 -0.098534241 -0.069550283 66 5
-22.386278 -2.7923276 4.3851724 1 13
-0.83639854 -0.10403057 -0.044171553 56 6
-0.8335042 -0.10322746 -0.014660021 83 7
-21.542637 -2.6603739 5.8161817 1 15
-0.85170996 -0.10261584 0.014974165 63 8
-0.84279364 -0.10109374 0.044485565 56 9
-0.81678295 -0.097684756 -0.15989795 69 2
-0.83881319 -0.10017081 0.073908068 36 10
-0.82383919 -0.098091178 -0.13140497 12 3
-0.87129295 -0.10343289 0.10773251 11 11
-0.79443061 -0.094167814 -0.098226704 72 4
-0.84550345 -0.099922471 0.13484652 1 12
-0.77761364 -0.091761589 -0.068504408 68 5
-0.89106166 -0.10483336 0.17439944 1 13
-0.84900641 -0.099585131 -0.044799585 57 6
-0.82228732 -0.096014664 -0.014450593 100 7
-21.687334 -2.5246565 5.8503461 1 15
-0.83053255 -0.094333775 0.014590211 85 8
-0.85536993 -0.096701056 0.045113601 78 9
-0.82523251 -0.093002267 -0.16142441 55 2
-0.83553213 -0.093867682 0.073559448 41 10
-0.82056165 -0.092040807 -0.13077922 13 3
-0.870004 -0.097279184 0.10748877 15 11
-0.80690593 -0.089938544 -0.099689126 81 4
-0.85009044 -0.094601944 0.13547227 1 12
-0.76833421 -0.085232049 -0.067632854 84 5
-0.88396633 -0.097746909 0.17287296 1 13
-0.85164976 -0.094022974 -0.044904254 71 6
-1.2978209 -0.14282221 0.3014344 0 14
-0.8348642 -0.09158016 -0.014660021 100 7
-22.088091 -2.4190395 5.9538736 3 15
-0.83713633 -0.089168482 0.014694927 100 8
-0.84609354 -0.089674585 0.044590238 97 9
-0.82976651 -0.087651268 -0.16218765 57 2
-0.84605873 -0.089222975 0.074431002 38 10
-0.813326 -0.085484028 -0.12952776 15 3
-0.85881621 -0.089962393 0.10602634 17 11
-0.78775615 -0.082379565 -0.097251743 112 4
-0.85858917 -0.08948376 0.13672373 1 12
-0.79465854 -0.082680792 -0.069898903 83 5
-0.89828068 -0.093145095 0.17554428 2 13
-0.8463254 -0.087459333 -0.044590238 92 6
-1.2910093 -0.13318498 0.29963478 1 14
-0.85337114 -0.087735906 -0.014974165 95 7
-22.48111 -2.303375 6.0553308 1 15
-0.85762227 -0.085451022 0.015043975 100 8
-0.85264683 -0.084504455 0.044904254 100 9
-0.83229768 -0.082194127 -0.16256927 49 2
-0.84864378 -0.083509512 0.074605316 42 10
-0.81585491 -0.080139011 -0.12984063 13 3
-0.85150611 -0.083340853 0.10505138 17 11
-0.78831208 -0.076877974 -0.097251743 114 4
-0.85917836 -0.083637647 0.13672373 1 12
-0.79125017 -0.076746315 -0.069550283 92 5
-0.89890909 -0.086871855 0.17554428 2 13
-0.85087717 -0.082080096 -0.044799585 100 6
-1.2550514 -0.12062675 0.29108664 2 14
-0.85197228 -0.081585497 -0.014939261 100 7
-0.86154282 -0.082350247 0.23190187 4 15
-0.85222435 -0.078908503 0.014939261 100 8
-0.84327179 -0.077634297 0.044380896 100 9
-0.82894111 -0.076023191 -0.16180603 43 2
-0.8591131 -0.078639105 0.07547687 41 10
-0.81442732 -0.074262135 -0.12952776 15 3
-0.86392885 -0.078471594 0.10651381 24 11
-0.78684008 -0.071331285 -0.097008012 107 4
-0.84990442 -0.076749109 0.13515939 1 12
-0.77389508 -0.069749251 -0.067981474 133 5
-0.91707808 -0.082331061 0.17897885 2 13
-0.84745079 -0.075782068 -0.044590238 100 6
-1.2577844 -0.1122543 0.29153654 1 14
-0.84454048 -0.075076133 -0.014799641 23 7
-0.86594534 -0.076674305 0.23293714 4 15
-0.8467645 -0.072593533 0.014834546 52 8
-0.8517409 -0.072570957 0.044799585 100 9
-0.82748312 -0.070213005 -0.16142441 64 2
-0.85169989 -0.071968414 0.074779622 50 10
-0.81885064 -0.069048733 -0.13015349 15 3
-0.86444294 -0.07258939 0.10651381 24 11
-0.7892971 -0.066001594 -0.097251743 124 4
-0.86812401 -0.072440788 0.13797522 1 12
-0.78031981 -0.064839512 -0.068504408 129 5
-0.89806479 -0.074307956 0.17516267 2 13
-0.85391843 -0.070504934 -0.044904254 100 6
-1.2352313 -0.10155446 0.28613773 0 14
-0.84305096 -0.069015346 -0.014764735 30 7
-0.83949107 -0.068576232 0.22569022 5 15
-0.84326363 -0.06636624 0.014764735 62 8
-0.8562091 -0.066934027 0.045008924 100 9
-0.82012385 -0.063825063 -0.15989795 100 2
-0.85614282 -0.06647788 0.07512825 67 10
-0.80355674 -0.06211251 -0.12765054 16 3
-0.86888713 -0.066857263 0.10700129 32 11
-0.80160367 -0.061539356 -0.09871418 132 4
-0.85285151 -0.065174237 0.13547227 1 12
-0.78868955 -0.060132589 -0.069201656 135 5
-0.88484645 -0.067153096 0.17249134 3 13
-0.85638136 -0.064692385 -0.045008924 39 6
-1.2630991 -0.095194474 0.29243636 0 14
-0.84549528 -0.063424855 -0.014799641 34 7
-0.86692023 -0.064727753 0.23293714 4 15
-0.84170133 -0.06048166 0.014729831 65 8
-0.85863709 -0.061246745 0.045113601 100 9
-0.83424753 -0.059214171 -0.16256927 48 2
-0.8386991 -0.059236128 0.073559448 66 10
-0.81578392 -0.057474382 -0.12952776 15 3
-0.8475396 -0.059414577 0.10432017 32 11
-0.80003351 -0.055803485 -0.098470435 134 4
-0.86312848 -0.060053285 0.13703661 3 12
-0.7771644 -0.053799473 -0.068155795 144 5
-0.88529372 -0.060974278 0.17249134 3 13
-0.84683913 -0.058177236 -0.044485565 45 6
-1.2831749 -0.087703206 0.29693538 0 14
-0.85788804 -0.058334403 -0.015009069 43 7
-0.88276011 -0.059871089 0.23707826 4 15
-0.84409851 -0.054733392 0.014764735 78 8
-0.84907806 -0.054609872 0.044590238 100 9
-0.82876283 -0.053012807 -0.16142441 10 2
-0.85101295 -0.054286934 0.074605316 69 10
-0.82010806 -0.052028067 -0.13015349 15 3
-0.84199017 -0.053121008 0.10358895 33 11
-0.78850776 -0.049608845 -0.097008012 134 4
-0.86944121 -0.054395881 0.13797522 3 12
-0.78546667 -0.049004655 -0.068853036 137 5
-0.88568825 -0.054946847 0.17249134 5 13
-0.83327037 -0.051402953 -0.043752864 48 6
-1.2642915 -0.07777039 0.29243636 0 14
-0.84828538 -0.051883392 -0.014834546 58 7
-0.85616052 -0.052065313 0.22983132 5 15
-0.84445149 -0.048986718 0.014764735 93 8
-0.84743607 -0.048714686 0.044485565 16 9
-0.81930417 -0.046810422 -0.15951632 12 2
-0.85137123 -0.048344422 0.074605316 93 10
-0.81255436 -0.045997974 -0.12890202 18 3
-0.85620594 -0.048169244 0.10529512 30 11
-0.78487086 -0.043881003 -0.096520528 138 4
-0.84217888 -0.046937775 0.13359505 4 12
-0.79175776 -0.043850213 -0.069375969 158 5
-0.88997084 -0.048978213 0.17325458 3 13
-0.84955502 -0.046605073 -0.044590238 56 6
-1.2433993 -0.067775659 0.28748745 1 14
-0.85062373 -0.046068121 -0.014869451 75 7
-0.85649514 -0.046236191 0.22983132 5 15
-0.84277588 -0.042988077 0.014729831 102 8
-0.84376609 -0.042595681 0.044276223 18 9
-0.8254934 -0.041384559 -0.16066119 10 2
-0.83576131 -0.041752897 0.073210821 68 10
-0.82272041 -0.040813521 -0.13046636 18 3
-0.85850412 -0.042288288 0.10553886 35 11
-0.78713405 -0.038635034 -0.096764266 143 4
-0.86418945 -0.042114791 0.13703661 5 12
-0.78009754 -0.037880253 -0.068330102 158 5
-0.88243961 -0.042541079 0.1717281 4 13
-0.83589482 -0.04000479 -0.043857537 52 6
-1.2613505 -0.060145877 0.29153654 0 14
-0.85091758 -0.040277235 -0.014869451 81 7
-0.85293758 -0.04007427 0.22879605 5 15
-0.83705568 -0.036985662 0.014625117 115 8
-0.86399013 -0.037722539 0.045322943 24 9
-0.82575601 -0.035764635 -0.16066119 10 2
-0.84797579 -0.036430471 0.074256696 100 10
-0.80916417 -0.034621388 -0.12827627 16 3
-0.87067187 -0.036948849 0.10700129 32 11
-0.80523467 -0.033890117 -0.098957919 139 4
-0.85656148 -0.035900775 0.13578513 5 12
-0.79228705 -0.032929648 -0.069375969 164 5
-0.88075358 -0.036298614 0.17134649 2 13
-0.85610354 -0.035133049 -0.044904254 58 6
-0.85117805 -0.034335528 -0.014869451 92 7
-0.83774817 -0.033647541 0.22465494 5 15
-0.83729351 -0.03114121 0.014625117 126 8
-0.83154255 -0.03078199 -0.1921082 1 1
-0.86024052 -0.031543665 0.045113601 22 9
-0.82990944 -0.030141408 -0.16142441 12 2
-0.8422308 -0.030441726 0.073733754 82 10
-0.80938613 -0.028971706 -0.12827627 16 3
-0.85702169 -0.030377081 0.10529512 30 11
-0.78560805 -0.027708739 -0.096520528 148 4
-0.84494627 -0.029506136 0.13390793 10 12
-0.78851044 -0.027397761 -0.069027349 165 5
-0.88882858 -0.030572616 0.17287296 2 13
-0.83437085 -0.028407885 -0.043752864 50 6
-1.2542695 -0.042485055 0.28973696 0 14
-0.84739488 -0.02840714 -0.014799641 92 7
-0.86113214 -0.028566744 0.2308666 14 15
-1.3284941 -0.040589135 -0.35613501 2 0
-0.83948487 -0.025501918 0.014660021 125 8
-0.75771844 -0.022753295 -0.17501192 1 1
-0.86043537 -0.025687449 0.045113601 28 9
-0.8340202 -0.024607485 -0.16218765 10 2
-0.84441435 -0.02461917 0.073908068 84 10
-0.81943733 -0.023747824 -0.12984063 18 3
-0.8631615 -0.024713447 0.10602634 34 11
-0.79371953 -0.022447966 -0.097495481 142 4
-0.86882275 -0.024420282 0.13766235 7 12
-0.78270757 -0.021726403 -0.068504408 168 5
-0.90668309 -0.024851 0.17630751 2 13
-0.85251355 -0.023217188 -0.044694912 66 6
-1.231159 -0.033099394 0.28433815 0 14
-0.84357464 -0.022384429 -0.014729831 92 7
-0.87289375 -0.023010181 0.23397243 4 15
-1.3364648 -0.031728808 -0.35820559 9 0
-0.84763902 -0.019827843 0.014799641 125 8
-0.77733785 -0.018047448 -0.17951094 1 1
-0.86059368 -0.019679852 0.045113601 22 9
-0.82828337 -0.018651929 -0.16104279 12 2
-0.84655422 -0.018915346 0.074082382 76 10
-0.82550782 -0.018157003 -0.13077922 13 3
-0.85934371 -0.018600924 0.10553886 35 11
-0.79385394 -0.017044947 -0.097495481 145 4
-0.85317248 -0.018020447 0.13515939 5 12
-0.80275983 -0.016675323 -0.070247531 162 5
-0.91860825 -0.018921399 0.17859723 2 13
-0.83068955 -0.01682039 -0.043543518 55 6
-1.2313601 -0.024503184 0.28433815 1 14
-0.83371085 -0.01644489 -0.014555307 83 7
-0.86144418 -0.016690923 0.2308666 4 15
-1.2960905 -0.021718359 -0.34733516 26 0
-0.84575731 -0.013876918 0.014764735 122 8
-0.83589941 -0.01356925 -0.19300801 21 1
-0.84473401 -0.013417738 0.044276223 15 9
-0.8283934 -0.012868768 -0.16104279 9 2
-0.83670491 -0.012852025 0.073210821 68 10
-0.83351511 -0.012511829 -0.13203071 14 3
-0.87334681 -0.012805043 0.10724504 28 11
-0.80586296 -0.011674728 -0.098957919 141 4
-0.86710376 -0.01225922 0.13734947 3 12
-0.79688001 -0.010988186 -0.06972459 154 5
-0.92657024 -0.012614749 0.1801237 2 13
-0.84676337 -0.01123261 -0.044380896 54 6
-1.2451413 -0.016082546 0.28748745 1 14
-0.82980627 -0.010573135 -0.014485498 54 7
-0.81904227 -0.010150056 0.21947856 6 15
-1.2923471 -0.01263165 -0.34629989 40 0
-0.83583558 -0.0078778472 0.014590211 107 8
-0.81453854 -0.0075349528 -0.18805908 12 1
-0.85679018 -0.0076267226 0.044904254 16 9
-0.82846302 -0.0070853755 -0.16104279 9 2
-0.83677423 -0.0070104101 0.073210821 68 10
-0.82370555 -0.0066133933 -0.13046636 18 3
-0.85951966 -0.0066007036 0.10553886 26 11
-0.81187993 -0.006093347 -0.099689126 138 4
-0.8395136 -0.0060075005 0.1329693 4 12
-0.77701294 -0.0054248227 -0.067981474 155 5
-0.95804709 -0.0063540922 0.1862296 1 13
-0.83084339 -0.0052204202 -0.043543518 48 6
-1.2588627 -0.0076900772 0.29063675 1 14
-0.84785682 -0.0048833946 -0.014799641 60 7
-0.83841133 -0.0045363391 0.22465494 5 15
-1.2943356 -0.0036144536 -0.34681752 41 0
-0.83187044 -0.0021780294 0.014520402 95 8
-0.80482763 -0.0018261105 -0.18580957 6 1
-0.85682225 -0.0017947524 0.044904254 100 9
-0.83634508 -0.0014597373 -0.16256927 9 2
-0.84477234 -0.0011795819 0.073908068 48 10
-0.81780535 -0.00099920144 -0.12952776 15 3
-0.85557455 -0.00074671395 0.10505138 26 11
-0.80197722 -0.00041981891 -0.098470435 140 4
-0.86323959 -0.00030143966 0.13672373 3 12
-0.79297107 6.9323733e-08 -0.069375969 149 5
-1.0365982 0.00036166274 0.20149431 1 13
-0.840846 0.00044031296 -0.04406688 52 6
-1.3153992 0.0011479483 0.30368391 2 14
-0.84587049 0.0010332363 -0.014764735 49 7
-0.86160499 0.001203031 0.2308666 4 15
-1.2943302 0.0051956023 -0.34681752 49 0
-0.84786278 0.003699576 0.014799641 63 8
-0.79312909 0.0035989825 -0.18311015 4 1
-0.86080843 0.0042067636 0.045113601 100 9
-0.83240849 0.0043585286 -0.16180603 9 2
-0.86069965 0.0046568783 0.075302556 67 10
-0.82174313 0.0047329348 -0.13015349 15 3
-0.85952985 0.0051005851 0.10553886 26 11
-0.79799139 0.0050139516 -0.097982958 130 4
-0.86322063 0.005725116 0.13672373 3 12
-0.80490673 0.0054788431 -0.070421837 141 5
-0.96393317 0.0068977773 0.18737444 1 13
-0.83882523 0.0062953243 -0.043962207 48 6
-1.5901251 0.012211686 0.36712012 6 14
-0.83584577 0.0067106117 -0.014590211 38 7
-0.86157686 0.007067774 0.2308666 4 15
-1.2961966 0.014026629 -0.34733516 59 0
-0.84981751 0.0094928546 0.014834546 62 8
-0.82231545 0.0093291746 -0.18985869 5 1
-0.84078866 0.0098322649 0.04406688 100 9
-0.83432263 0.010048106 -0.16218765 7 2
-0.84869462 0.010369333 0.074256696 48 10
-0.82564229 0.01037591 -0.13077922 13 3
-0.8594752 0.010951113 0.10553886 26 11
-0.80587846 0.010549537 -0.098957919 127 4
-0.86316168 0.011600547 0.13672373 1 12
-0.80883515 0.011011798 -0.070770465 145 5
-0.89711982 0.012526934 0.17439944 1 13
-0.83676589 0.011976309 -0.043857537 100 6
-1.7770647 0.025744647 0.41031075 6 14
-0.82378393 0.012221902 -0.014380784 27 7
-0.86923534 0.013047967 0.23293714 4 15
-1.2864133 0.022678992 -0.34474698 50 0
-0.85173267 0.015313118 0.014869451 100 8
-0.80664557 0.014643332 -0.18625948 2 1
-0.85468066 0.015813751 0.044799585 100 9
-0.83619785 0.015763944 -0.16256927 9 2
-0.83665216 0.015918378 0.073210821 42 10
-0.82555258 0.01599565 -0.13077922 18 3
-0.85540843 0.016872616 0.10505138 26 11
-0.79784918 0.015876766 -0.097982958 100 4
-0.86503774 0.017515635 0.13703661 3 12
-0.78682697 0.016206743 -0.068853036 124 5
-0.88131118 0.018306976 0.17134649 1 13
-0.8526395 0.018008932 -0.044694912 100 6
-1.7904795 0.038443089 0.41346005 7 14
-0.84367388 0.018261489 -0.014729831 24 7
-0.8652603 0.019031094 0.23190187 4 15
-1.28043 0.031516381 -0.34319407 37 0
-0.84360874 0.021059144 0.014729831 100 8
-0.8084718 0.020323394 -0.18670937 3 1
-0.85255277 0.021729071 0.044694912 100 9
-0.83214217 0.021499708 -0.16180603 9 2
-0.84448755 0.021965949 0.073908068 40 10
-0.81357265 0.021446185 -0.12890202 15 3
-0.86717612 0.023162095 0.10651381 24 11
-0.80168766 0.021552926 -0.098470435 97 4
-0.85304648 0.023231648 0.13515939 1 12
-0.78669465 0.021699626 -0.068853036 137 5
-0.8615368 0.023914287 0.1675303 1 13
-0.83652127 0.023512321 -0.043857537 100 6
-1.8057512 0.051385082 0.41705924 7 14
-0.83752924 0.023979509 -0.014625117 100 7
-0.93076175 0.026973797 0.24950157 2 15
-1.2898331 0.040759787 -0.34578225 75 0
-0.83544636 0.026692897 0.014590211 100 8
-0.78493744 0.025216054 -0.18131055 2 1
-0.86236131 0.028004812 0.04521827 90 9
-0.84766936 0.027823685 -0.16485898 8 2
-0.8502875 0.028058382 0.074431002 38 10
-0.81735164 0.027256951 -0.12952776 15 3
-0.85905743 0.028948143 0.10553886 21 11
-0.80151767 0.027149236 -0.098470435 80 4
-0.85681194 0.029321592 0.13578513 1 12
-0.79051113 0.027190786 -0.069201656 91 5
-0.9359076 0.032518975 0.1820318 1 13
-0.85430098 0.02998203 -0.044799585 100 6
-1.795622 0.063331828 0.41480973 16 14
-0.84933192 0.030252878 -0.014834546 98 7
-0.88421625 0.031804681 0.23707826 4 15
-1.2953082 0.049987011 -0.34733516 81 0
-0.84323817 0.032688841 0.014729831 93 8
-0.77695322 0.030390665 -0.17951094 2 1
-0.85217214 0.033482023 0.044694912 82 9
-0.83961356 0.033281911 -0.16333251 5 2
-0.86201572 0.034471281 0.07547687 37 10
-0.83096373 0.033374995 -0.13171785 12 3
-0.85884047 0.034794696 0.10553886 13 11
-0.7874245 0.032176871 -0.096764266 74 4
-0.8664611 0.03555784 0.13734947 1 12
-0.7982648 0.033038493 -0.069898903 86 5
-0.92781156 0.038724568 0.18050532 1 13
-0.83811307 0.035127297 -0.043962207 94 6
-1.8048711 0.076277509 0.41705924 20 14
-0.84310645 0.035926398 -0.014729831 100 7
-0.85695815 0.036666274 0.22983132 5 15
-1.296868 0.058890086 -0.34785283 68 0
-0.84298939 0.038574755 0.014729831 63 8
-0.79424852 0.036483116 -0.18356006 2 1
-0.84393716 0.039060913 0.044276223 85 9
-0.84720516 0.039508525 -0.16485898 8 2
-0.84782964 0.039685935 0.074256696 36 10
-0.82676405 0.038989093 -0.1310921 13 3
-0.87047374 0.041355107 0.10700129 12 11
-0.7832216 0.03734668 -0.09627679 78 4
-0.84646076 0.04065847 0.13422079 2 12
-0.79006112 0.038087413 -0.069201656 86 5
-0.89615136 0.043515578 0.17439944 1 13
-0.84183711 0.041172706 -0.044171553 82 6
-1.8023638 0.088465601 0.41660935 19 14
-0.83485329 0.041269299 -0.014590211 85 7
-1.2752038 0.066830643 -0.34215879 72 0
-0.85468894 0.044941947 0.014939261 45 8
-0.80565059 0.042645365 -0.18625948 2 1
-0.84365165 0.044804521 0.044276223 57 9
-0.83515394 0.044645555 -0.16256927 9 2
-0.82962632 0.044640474 0.072687887 35 10
-0.83634204 0.045148216 -0.13265644 12 3
-0.86818993 0.047171384 0.10675755 12 11
-0.79879886 0.043680802 -0.098226704 67 4
-0.84419203 0.046310812 0.13390793 2 12
-0.78579724 0.043382492 -0.068853036 81 5
-0.89778602 0.049879529 0.17478105 2 13
-0.83754903 0.046679679 -0.043962207 52 6
-1.8153219 0.10180973 0.41975865 15 14
-0.82655883 0.04664598 -0.014450593 77 7
-1.7455313 0.098812424 0.4684625 8 15
-1.2670057 0.075052209 -0.34008822 89 0
-0.84836584 0.050550673 0.014834546 47 8
-0.81312269 0.048593283 -0.18805908 2 1
-0.845312 0.050813071 0.044380896 56 9
-0.83482188 0.050474741 -0.16256927 4 2
-0.83725816 0.050768901 0.073385134 33 10
-0.81431764 0.04966294 -0.12921488 13 3
-0.87180221 0.053474411 0.10724504 12 11
-0.78461355 0.048263714 -0.096520528 61 4
-0.84187645 0.052081283 0.13359505 2 12
-0.79342937 0.049362194 -0.069550283 77 5
-0.90918231 0.056722902 0.17707075 2 13
-0.85115612 0.053400964 -0.044694912 48 6
-1.8145669 0.11448102 0.41975865 13 14
-0.83620065 0.052902214 -0.014625117 42 7
-0.88300312 0.056172833 0.23707826 4 15
-1.2780167 0.084661625 -0.34319407 81 0
-0.83402538 0.055542022 0.014590211 34 8
-0.78748637 0.052580796 -0.18221036 2 1
-0.84095114 0.056445505 0.044171553 43 9
-0.83640796 0.056434028 -0.16295089 2 2
-0.83887118 0.056747098 0.073559448 28 10
-0.82380515 0.056016997 -0.13077922 13 3
-0.8575443 0.058611687 0.10553886 8 11
-0.79415971 0.054418903 -0.09773922 52 4
-0.86514086 0.059586197 0.13734947 1 12
-0.80697888 0.055863138 -0.070770465 63 5
-0.89309585 0.061981421 0.17401782 2 13
