# .PCD v0.7 - Point Cloud Data file format
VERSION 0.7
FIELDS x y z intensity ring
SIZE 4 4 4 4 2
TYPE F F F F U
COUNT 1 1 1 1 1
WIDTH 210
HEIGHT 1
VIEWPOINT 0 0 0 1 0 0 0
POINTS 210
DATA ascii
2.4420855 1.1569779 -0.14162111 1 6
2.4779854 1.1318963 -0.14277251 96 6
2.4919074 1.1188612 -0.23898104 5 5
2.484005 1.1137507 -0.14266783 75 6
2.5069504 1.1046519 -0.23967829 55 5
2.5065362 1.1023819 -0.1435052 75 6
2.5056462 1.0827327 -0.23880674 7 5
2.5141718 1.084855 -0.1435052 79 6
2.5333223 1.0737664 -0.24072415 8 5
2.5180056 1.0657194 -0.14329587 79 6
2.5490408 1.0615864 -0.33904055 46 4
2.5370774 1.0545249 -0.24037553 9 5
2.5400982 1.0526625 -0.047994118 41 7
2.5747681 1.0512686 -0.34147793 90 4
2.5462222 1.0375402 -0.24054985 8 5
2.5585394 1.0409975 -0.14476126 9 6
2.5529428 1.0371629 -0.048098832 63 7
2.5728302 1.0295789 -0.34025922 74 4
2.5645051 1.0241724 -0.24159572 7 5
2.5731654 1.0260693 -0.14517996 10 6
2.5768421 1.025972 -0.048412975 85 7
2.6058283 1.0217382 -0.34367159 71 4
2.5994244 1.0171328 -0.24421038 55 5
2.5783534 1.0057759 -0.048308261 76 7
2.6069613 1.0028076 -0.4423967 71 3
2.6054852 1.0006742 -0.34269661 72 4
2.5971591 0.99539655 -0.24333882 23 5
2.5947022 0.99289715 -0.14559864 72 6
2.5927837 0.99060702 -0.048447877 76 7
2.6286871 0.99015361 -0.44489968 8 3
2.6291304 0.98874909 -0.34489027 61 4
2.6245642 0.98494112 -0.24525626 8 5
2.6127925 0.97896308 -0.14622667 68 6
2.6033821 0.97388309 -0.048517693 101 7
2.6215997 0.97079933 0.048796929 9 8
2.6429489 0.9745127 -0.44615117 14 3
2.6547682 0.97676462 -0.34732765 9 4
2.6276362 0.96522027 -0.24490763 7 5
2.6159179 0.95729041 -0.048622403 108 7
2.6245527 0.95111203 0.048727117 72 8
2.6606257 0.96155739 -0.54991156 6 2
2.6294141 0.94820398 -0.44270959 74 3
2.6540513 0.9555186 -0.34635273 74 4
2.6343102 0.94685364 -0.24490763 7 5
2.643291 0.94799703 -0.14716873 9 6
2.6300681 0.94170094 -0.048762023 85 7
2.6369462 0.93431032 0.048831832 12 8
2.6748424 0.94511122 -0.55143803 55 2
2.6527359 0.93573695 -0.44552541 93 3
2.666275 0.93894339 -0.3470839 83 4
2.6483748 0.93108147 -0.24560487 7 5
2.6366515 0.92489374 -0.14643602 9 6
2.6489131 0.91830325 0.04893655 8 8
2.690491 0.93008947 -0.5533461 7 2
2.666513 0.92023766 -0.4467769 71 3
2.672765 0.92030638 -0.3470839 71 4
2.6830733 0.92228478 -0.24821955 71 5
2.6674452 0.91535139 -0.14779675 18 6
2.646744 0.90618289 -0.048831832 48 7
2.6741982 0.90620714 0.049285594 72 8
2.6969187 0.91128355 -0.5533461 7 2
2.6841025 0.90538764 -0.44865409 67 3
2.6866503 0.90415853 -0.34805888 78 4
2.6932237 0.90480125 -0.24856818 76 5
2.6643021 0.89353281 -0.14727339 37 6
2.6719692 0.89402807 -0.04918088 76 7
2.6861546 0.88940126 0.049390312 70 8
2.7049685 0.89458305 -0.65775687 16 1
2.7125366 0.89551073 -0.55525422 9 2
2.7117546 0.89158022 -0.35049626 71 4
2.6767583 0.87852126 -0.24647643 57 5
2.6896088 0.88065958 -0.14832011 22 6
2.6819465 0.87659615 -0.049250688 105 7
2.6905475 0.86954194 0.049355406 78 8
2.724129 0.87986982 -0.6609062 78 1
2.7244809 0.87788367 -0.55639905 7 2
2.7116778 0.87219131 -0.45115703 8 3
2.7292535 0.87626797 -0.35195872 69 4
2.7074916 0.8677175 -0.24874248 7 5
2.7052035 0.8649022 -0.14884347 8 6
2.6994314 0.86149925 -0.04946012 101 7
2.7097523 0.85542303 0.049599741 81 8
2.7190537 0.85731429 -0.65820676 67 1
2.7088025 0.8535639 0.14884347 59 9
2.7397568 0.86226529 -0.55830717 10 2
2.7250903 0.85608149 -0.45240852 11 3
2.7390931 0.85837996 -0.35244617 76 4
2.7172863 0.84998411 -0.2490911 7 5
2.6976826 0.84230155 -0.14811078 8 6
2.713017 0.84501135 -0.049599741 42 7
2.730947 0.84119236 0.049878977 78 8
2.7266886 0.83936113 -0.65865672 62 1
2.7356958 0.84108716 0.14999487 51 9
2.7569706 0.84657496 -0.56059688 34 2
2.7404435 0.83993018 -0.45397288 74 3
2.7412221 0.83807588 -0.35195872 68 4
2.7307768 0.83331925 -0.24978836 8 5
2.7303913 0.83111709 -0.14957617 9 6
2.7245905 0.82779294 -0.049704451 7 7
2.7695696 0.83249271 -0.77490425 9 0
2.7388115 0.82220501 0.049913883 72 8
2.7662227 0.82990772 -0.66675496 21 1
2.7282517 0.81747657 0.14926216 7 9
2.772362 0.82963902 -0.56250495 7 2
2.7488935 0.82157212 0.25100854 37 10
2.7539546 0.82255977 -0.45522434 66 3
2.7547588 0.82070583 -0.35293365 76 4
2.7481284 0.81716418 -0.25083423 61 5
2.7496717 0.8155356 -0.15030889 8 6
2.7246914 0.80657482 -0.049599741 8 7
2.75877 0.80776709 -0.77024549 11 0
2.7465444 0.80314672 0.049948789 71 8
2.7720907 0.81009179 -0.66675496 7 1
2.7532039 0.80352962 0.15030889 11 9
2.7801125 0.8103286 -0.56288654 9 2
2.7449975 0.79957515 0.25013697 78 10
2.7692542 0.80559087 -0.45678869 60 3
2.7718596 0.804775 -0.3543961 76 4
2.7595072 0.79962224 -0.25135714 64 5
2.772567 0.80130893 -0.15125093 9 6
2.7417843 0.7908572 -0.049809169 27 7
2.7680576 0.78954738 -0.77128083 8 0
2.7615631 0.78717381 0.050123312 74 8
2.8001697 0.79712182 -0.67215377 8 1
2.7720571 0.78859603 0.15104158 9 9
2.8006716 0.79567975 -0.56593949 10 2
2.788871 0.7886464 -0.3558585 71 4
2.7707746 0.78196251 -0.25188008 73 5
2.7971816 0.78783274 -0.15229765 67 6
2.7568645 0.77440053 -0.049983691 65 7
2.7708449 0.76894468 0.050193124 74 8
2.7980194 0.77596003 -0.67035419 69 1
2.7928932 0.77348876 0.15187897 69 9
2.8175118 0.77924806 -0.5682292 9 2
2.7953317 0.77153695 -0.45929164 8 3
2.8133132 0.77491504 -0.35829589 48 4
2.7915361 0.7668218 -0.25327459 55 5
2.7833514 0.76300657 -0.15125093 10 6
2.7775021 0.75983983 -0.050262932 71 7
2.7857985 0.75218815 0.050367646 78 8
2.8033686 0.75640726 -0.67035419 80 1
2.8285706 0.76108944 -0.56937408 7 2
2.8159122 0.75610113 -0.46179458 8 3
2.8013976 0.75063151 -0.35610226 25 4
2.7924705 0.74458432 -0.15146028 9 6
2.8006523 0.73526144 0.050542168 74 8
2.8255455 0.74126828 -0.67440325 64 1
2.8338153 0.74132371 -0.56937408 67 2
2.8287671 0.73842096 -0.46304604 43 3
2.8238583 0.73556054 -0.35829589 81 4
2.8231833 0.73327917 -0.25519201 23 5
2.8072672 0.72757643 -0.15198363 8 6
2.8033288 0.72498959 -0.050542168 7 7
2.8192809 0.71914977 0.050786503 69 8
2.8457582 0.72537619 -0.67800248 72 1
2.850338 0.72442347 -0.57166374 7 2
2.8491714 0.72253907 -0.46554902 85 3
2.8385468 0.71826315 -0.35951459 68 4
2.8185742 0.71111608 -0.25432047 56 5
2.8335831 0.71332502 -0.15313502 8 6
2.8063819 0.70491517 -0.050507262 8 7
2.875345 0.71157587 -0.68385124 20 1
2.880105 0.71062201 -0.57662481 7 2
2.8473477 0.69937593 -0.36000207 71 4
2.8389518 0.69521266 -0.25571495 70 5
2.8443146 0.6949476 -0.15344904 38 6
2.8287203 0.68956822 -0.050821409 8 7
2.896452 0.69323963 -0.57891452 7 2
2.8762746 0.68681693 -0.46836486 7 3
2.8676093 0.68316096 -0.36195198 69 4
2.8514898 0.67721754 -0.25641218 76 5
2.8374362 0.67231071 -0.152821 78 6
2.852926 0.67440349 -0.051170457 19 7
2.9088712 0.67477483 -0.580441 8 2
2.8886971 0.66850138 -0.46961632 7 3
2.8755643 0.66176361 -0.25815532 64 5
2.8556874 0.65561366 -0.15355371 56 6
2.8536663 0.65357709 -0.051100649 65 7
2.913511 0.65445065 -0.580441 11 2
2.9010041 0.65004593 -0.47086781 7 3
2.8846176 0.64478815 -0.36292693 7 4
2.8840039 0.64253742 -0.25850391 41 5
2.9333568 0.63743109 -0.58349395 88 2
2.9189851 0.63270783 -0.4730579 10 3
2.9182627 0.63041717 -0.36658302 74 4
2.8728378 0.61903018 -0.25710943 62 5
2.8899469 0.62113369 -0.15491444 8 6
2.9454207 0.6185509 -0.58502042 83 2
2.9253714 0.61220855 -0.47337076 68 3
2.9225922 0.61002988 -0.36658302 90 4
2.8946445 0.60261494 -0.25867823 60 5
2.9080074 0.60327774 -0.15564716 9 6
2.9315104 0.59216177 -0.47368363 6 3
2.940505 0.59184247 -0.36828917 68 4
2.9164631 0.58541489 -0.26024702 67 5
2.912148 0.58296269 -0.15564716 35 6
2.9570022 0.57531911 -0.4771252 7 3
2.9504113 0.57243377 -0.3690204 41 4
2.9400403 0.56882447 -0.26199016 72 5
2.9609463 0.55466133 -0.4771252 7 3
2.9479532 0.54850036 -0.26233879 72 5
2.9802992 0.53677911 -0.47962815 7 3
2.9835165 0.53574449 -0.37218902 7 4
2.9556329 0.52860796 -0.26268741 65 5
2.9839745 0.51595819 -0.47962815 8 3
2.9930527 0.51591414 -0.37292022 22 4
3.0030937 0.49769729 -0.48213109 57 3
3.0063741 0.49662378 -0.37413892 70 4
3.0137725 0.47571698 -0.3746264 76 4
3.0425379 0.45851228 -0.37779501 16 4
