# .PCD v0.7 - Point Cloud Data file format
VERSION 0.7
FIELDS x y z intensity ring
SIZE 4 4 4 4 2
TYPE F F F F U
COUNT 1 1 1 1 1
WIDTH 1349
HEIGHT 1
VIEWPOINT 0 0 0 1 0 0 0
POINTS 1349
DATA ascii
3.4355547 4.0210977 -1.2210344 4 1
7.5097113 8.7834291 0.60563177 8 9
4.2667832 4.9869447 -1.275749 4 2
7.4169607 8.6657572 0.99793327 2 10
5.2183867 6.0927024 -1.270561 6 3
7.5857272 8.8504162 1.4312336 6 11
6.0522408 7.0587807 -1.141672 23 4
7.4194341 8.6472321 1.8046281 51 12
7.2981753 8.4999104 -0.98015344 13 5
7.4948082 8.725831 2.2358999 5 13
7.3139672 8.5092754 -0.58804685 13 6
7.491188 8.7093163 2.652173 4 14
7.335175 8.5249157 -0.19630466 9 7
7.4648204 8.6694756 3.0654531 40 15
2.9080105 3.3594687 -1.1905677 3 0
7.519208 8.6804123 0.20045835 8 8
3.4635434 3.9970152 -1.2210344 4 1
7.5276685 8.6809921 0.60217756 6 9
4.2834811 4.9362764 -1.2704064 4 2
7.681025 8.8484812 1.0251257 6 10
5.6908808 6.551229 -1.3744334 5 3
7.6863956 8.8421907 1.4385459 7 11
6.1547799 7.0777721 -1.1516654 19 4
7.5198174 8.6414223 1.8143271 47 12
7.4214516 8.522377 -0.98869473 12 5
7.5619912 8.6806965 2.237808 9 13
7.4309382 8.5242538 -0.59265244 14 6
7.673512 8.7963095 2.6949136 2 14
7.4444704 8.530756 -0.19763105 8 7
7.5772657 8.6768055 3.0866761 35 15
2.9281495 3.3342197 -1.1890148 4 0
7.6075311 8.6564255 0.20115645 7 8
3.4843366 3.963347 -1.2183349 4 1
7.5843186 8.6209049 0.60175884 9 9
4.3109107 4.896657 -1.2681167 5 2
7.7454638 8.7947865 1.0253001 2 10
5.6749229 6.4392042 -1.3594157 3 3
7.8125014 8.8584213 1.4502453 6 11
6.273561 7.1109552 -1.1643399 13 4
7.6324525 8.6451397 1.826529 46 12
6.9651375 7.8837433 -0.92036462 3 5
7.7487273 8.7675848 2.2744434 4 13
7.5459952 8.5322008 -0.59694397 14 6
7.7762942 8.7864161 2.7088606 8 14
7.5583463 8.5371552 -0.19902724 8 7
7.6865578 8.6758661 3.1058288 52 15
2.9436479 3.3050392 -1.1859089 4 0
7.7210002 8.662817 0.20255263 7 8
3.5093274 3.9360158 -1.2174351 4 1
7.9036059 8.8583555 0.62216991 3 9
4.334528 4.8547277 -1.2650636 4 2
7.8491459 8.7880497 1.0308782 2 10
5.3998518 6.0415349 -1.2833885 3 3
7.9178214 8.8524933 1.4582887 5 11
6.3521752 7.0995274 -1.1697021 12 4
7.7545485 8.6608171 1.8412338 47 12
7.6262794 8.5115776 -0.99985063 11 5
7.7900877 8.691349 2.268719 10 13
7.670723 8.552166 -0.60207289 12 6
7.8140182 8.7058048 2.7007623 7 14
7.67521 8.5481606 -0.20052816 8 7
7.8024635 8.6837807 3.128087 50 15
2.9679444 3.2858415 -1.1864265 3 0
7.852354 8.6873322 0.2044026 8 8
3.5210366 3.8940749 -1.2120364 4 1
7.8888693 8.7185497 0.61620361 3 9
4.3656816 4.8214364 -1.2643005 4 2
7.8527875 8.6695442 1.0233827 3 10
5.4631271 6.0271039 -1.2883943 8 3
7.9287515 8.7411289 1.4490266 13 11
6.4308262 7.0847631 -1.1748205 17 4
7.8719244 8.6693544 1.8546873 44 12
7.7458062 8.5244875 -1.0076946 8 5
7.9973688 8.7951622 2.3106971 23 13
7.7571197 8.527956 -0.60416633 5 6
7.9283853 8.7101307 2.7192082 7 14
7.7900467 8.5521526 -0.20192434 8 7
7.9292521 8.7019262 3.1544867 56 15
2.9822457 3.2545493 -1.182803 4 0
7.9074063 8.6264029 0.20426297 2 8
3.5435424 3.8630347 -1.2102367 4 1
7.9578099 8.6692324 0.61672693 9 9
4.3872843 4.7778258 -1.2608659 4 2
8.118185 8.8346558 1.0497037 2 10
5.5555882 6.041657 -1.2999705 11 3
8.1132183 8.8199768 1.4714506 2 11
6.5285344 7.0922709 -1.1835952 16 4
7.9939842 8.6781826 1.8687663 47 12
6.703423 7.2746143 -0.86545652 4 5
8.0346203 8.7131367 2.303828 6 13
1.9477141 2.110718 -0.15051822 24 6
8.0458384 8.7161398 2.7385542 7 14
7.9065509 8.5592527 -0.20339034 8 7
8.0437727 8.7017069 3.1751921 50 15
2.995687 3.2237451 -1.1791797 5 0
8.0996609 8.7101793 0.20761384 1 8
3.5624595 3.8296425 -1.2075372 4 1
10.527549 11.309194 0.80974203 4 9
4.410656 4.7348166 -1.257813 6 2
8.0710011 8.6611557 1.0357589 1 10
5.6393952 6.0475101 -1.3096695 8 3
10.512361 11.265239 1.8918999 4 11
6.6496811 7.1234283 -1.1965134 20 4
8.1069651 8.6784592 1.8809682 38 12
6.6614275 7.1260319 -0.85342902 1 5
8.2776213 8.8518505 2.3557279 18 13
8.213233 8.7707148 2.7740965 16 14
8.016696 8.5578432 -0.20468183 9 7
8.1664228 8.7115812 3.1995211 52 15
3.0101702 3.1943169 -1.1760738 5 0
8.2810059 8.7814426 0.21068545 1 8
3.5917833 3.8075137 -1.2084371 4 1
8.1767941 8.6618433 0.62426335 1 9
4.4314699 4.6910648 -1.2543784 5 2
8.3173819 8.8015356 1.0594652 2 10
5.8334904 6.1687417 -1.3447108 5 3
8.2848492 8.7548656 1.4799815 6 11
6.6419334 7.016284 -1.1862763 12 4
8.2244081 8.6818857 1.8941088 39 12
1.9765689 2.0850542 -0.25135714 31 5
8.366231 8.8223419 2.3633604 16 13
1.9811192 2.0876641 -0.15083225 93 6
8.3104954 8.7513151 2.7862437 30 14
8.1395998 8.5683584 -0.20628744 13 7
8.284277 8.7145634 3.2217796 50 15
3.0283935 3.169034 -1.1745209 4 0
8.2923565 8.6713886 0.20942889 2 8
3.6075006 3.7710805 -1.2048379 4 1
8.4525223 8.8296156 0.64059216 8 9
4.4586773 4.6543441 -1.252852 4 2
8.5192347 8.8899832 1.077245 6 10
5.8504338 6.1007795 -1.3387663 6 3
8.4199934 8.7741518 1.4931433 6 11
6.6467595 6.9239206 -1.1784766 6 4
8.3477736 8.6897831 1.9085008 39 12
1.9869349 2.0668955 -0.25083423 21 5
8.4425926 8.7792816 2.3675582 16 13
1.9984155 2.0766606 -0.15104158 85 6
8.4159918 8.7394094 2.8010905 42 14
8.2630377 8.5775728 -0.20789307 11 7
8.4079256 8.7218895 3.2461085 52 15
3.0370011 3.13394 -1.1693444 4 0
8.5267029 8.7927341 0.21379198 2 8
3.6120315 3.7234221 -1.1976395 4 1
8.5807295 8.8391819 0.64561641 8 9
4.4828539 4.6146541 -1.2505622 4 2
8.5644245 8.8131485 1.0751532 3 10
5.7358847 5.8983431 -1.3030992 13 3
8.6305628 8.8688021 1.5194671 7 11
6.6893969 6.8716598 -1.1775017 4 4
8.4812908 8.7062855 1.9250828 40 12
2.0082691 2.0601079 -0.2517058 13 5
8.6338921 8.8536558 2.4038119 27 13
2.0072839 2.0569417 -0.15062289 85 6
8.5285416 8.7334194 2.8181868 46 14
8.3953781 8.5940628 -0.20970812 12 7
8.5428896 8.7389526 3.2745786 50 15
3.0750535 3.1291978 -1.1755562 4 0
8.6958408 8.8427773 0.21647964 5 8
3.6311026 3.69117 -1.1953899 5 1
8.5777779 8.7135897 0.64080149 3 9
4.5094528 4.5776491 -1.2490358 5 2
8.7194405 8.8482237 1.086832 3 10
5.760283 5.8412752 -1.2993449 28 3
8.6797152 8.7956219 1.5172734 13 11
6.792994 6.8812962 -1.1872512 1 4
8.6071091 8.7129164 1.9397876 39 12
2.0282052 2.0517051 -0.25240302 15 5
8.7382812 8.8364429 2.415642 20 13
2.0173805 2.038619 -0.15030889 25 6
8.6523809 8.73736 2.8388824 44 14
8.5142784 8.5949106 -0.21117412 10 7
8.6730537 8.7490702 3.3009782 52 15
3.0900061 3.1008115 -1.1729679 5 0
8.6825266 8.7068071 0.21462969 2 8
3.65816 3.66711 -1.1958399 5 1
8.7795048 8.7948427 0.65126866 6 9
4.5190983 4.5238342 -1.2429299 6 2
8.8091679 8.8153219 1.0903183 5 10
5.7925382 5.7925406 -1.2974676 31 3
8.7970743 8.7909374 1.527023 13 11
2.0391986 2.037065 -0.3539086 46 4
8.7292404 8.7140217 1.9535539 39 12
2.0396593 2.0346804 -0.25205442 15 5
8.7858562 8.7613592 2.4118259 18 13
2.0414677 2.0343533 -0.15104158 12 6
8.7794437 8.7427502 2.8604777 45 14
8.6208467 8.581811 -0.21232598 2 7
8.8065062 8.7605209 3.328413 50 15
3.0882351 3.0560634 -1.1641681 4 0
8.8298349 8.7317514 0.21675889 9 8
3.6809001 3.6387415 -1.19494 4 1
8.9032097 8.7950964 0.65587425 11 9
4.5407901 4.4825201 -1.2402586 4 2
8.9981279 8.8795576 1.1060064 5 10
5.8215857 5.7408643 -1.2949647 3 3
8.958621 8.8282356 1.5443285 7 11
2.060441 2.0297444 -0.35512727 81 4
8.8616562 8.7235422 1.9695101 40 12
2.0481317 2.0148034 -0.25135714 15 5
9.0091867 8.8594904 2.4560935 4 13
2.064167 2.0284519 -0.15166962 11 6
8.915349 8.7549772 2.8847723 45 14
8.9239931 8.7542925 3.3496361 52 15
3.1136417 3.0384781 -1.1657211 6 0
8.9922256 8.7690182 0.21923712 8 8
3.7034209 3.6102366 -1.1940402 4 1
8.9930067 8.7605991 0.65796769 3 9
4.5579062 4.437016 -1.2364424 3 2
8.9985008 8.7567739 1.098511 2 10
5.8261175 5.6656523 -1.287143 2 3
8.9986811 8.7447262 1.5406723 6 11
2.0831044 2.0236096 -0.35658973 79 4
8.9889593 8.7261333 1.984215 39 12
2.0650082 2.0032301 -0.2517058 10 5
9.0327644 8.7594757 2.4457898 9 13
2.0711062 2.0070422 -0.15114626 13 6
9.0574474 8.7711515 2.9108667 47 14
2.0617537 1.9958867 -0.050088406 108 7
9.0598707 8.7643108 3.3775885 47 15
3.1236436 3.0059488 -1.16158 6 0
9.0546665 8.7074127 0.21927203 4 8
3.710273 3.566735 -1.1881914 5 1
9.0640306 8.7072878 0.65870041 4 9
4.5916014 4.4078083 -1.2372056 3 2
9.1715441 8.8013411 1.1121073 3 10
9.2042694 8.8204107 1.56529 6 11
2.0986137 2.010392 -0.35683349 83 4
9.1267147 8.7369289 2.0011098 39 12
2.078943 1.9887649 -0.2517058 57 5
9.2057896 8.8033943 2.4759376 6 13
2.0792918 1.9870147 -0.15072757 31 6
9.2016125 8.7871103 2.9374108 45 14
2.087209 1.9924908 -0.050367646 85 7
9.2033119 8.7795172 3.4081292 50 15
3.1403494 2.9800789 -1.160027 4 0
9.1747227 8.700408 0.22070314 4 8
3.7138693 3.5206356 -1.181443 4 1
9.2376909 8.7509394 0.66686481 4 9
4.6080065 4.3621469 -1.2333894 4 2
9.3282719 8.827486 1.1236118 3 10
2.1055248 1.9910957 -0.4589788 64 3
9.2901497 8.7791157 1.5694335 7 11
2.1039405 1.9875118 -0.35537103 86 4
9.2679272 8.7489347 2.0186305 39 12
2.1029205 1.9837739 -0.25292596 71 5
9.3327284 8.8008709 2.4934921 6 13
2.0916586 1.9710814 -0.15062289 75 6
9.3209009 8.7774324 2.9558568 46 14
2.1054356 1.9819837 -0.05047236 101 7
9.3459883 8.7918301 3.4381523 46 15
3.1540232 2.951484 -1.1574388 5 0
9.3287163 8.7235565 0.22293703 4 8
3.7412031 3.4972851 -1.1823426 4 1
9.3715343 8.754405 0.67209846 4 9
4.6268668 4.3191533 -1.2303365 3 2
9.4173498 8.7879744 1.1269237 2 10
2.1352656 1.9911668 -0.46242031 10 3
9.4688435 8.8236694 1.5891764 6 11
2.118108 1.9724064 -0.35537103 83 4
9.3952875 8.7459383 2.0330224 39 12
9.4673624 8.8006954 2.512573 9 13
2.117074 1.9673064 -0.15146028 14 6
9.4576359 8.7824268 2.9797015 42 14
2.1107693 1.9587054 -0.050262932 101 7
9.4850368 8.7986288 3.4666226 52 15
3.1693828 2.9235995 -1.1553683 5 0
9.4452581 8.7097254 0.22426341 2 8
3.7604008 3.465142 -1.1805431 4 1
9.5235624 8.7696476 0.67848343 4 9
4.6251273 4.2574964 -1.2219409 3 2
9.5254507 8.7621746 1.1323274 3 10
2.1436422 1.970489 -0.46116886 12 3
9.6018362 8.823163 1.6011195 6 11
2.1420624 1.9669684 -0.35707721 17 4
9.5420485 8.7559452 2.0511689 38 12
2.1318827 1.9555646 -0.25310028 11 5
9.6892109 8.8816442 2.5549326 5 13
2.1369877 1.957504 -0.15187897 14 6
9.6092587 8.7991028 3.0080454 43 14
2.1214416 1.9412221 -0.050193124 105 7
9.6304445 8.8061409 3.4966455 47 15
3.1882873 2.9001019 -1.1548507 4 0
2.1515439 1.9556966 0.0507516 8 8
3.7816164 3.4361844 -1.1796434 4 1
9.6289139 8.7432261 0.68162352 4 9
9.6837893 8.7838078 1.143832 3 10
2.1558819 1.9541498 -0.46085599 101 3
9.6882687 8.7755508 1.6050195 5 11
2.1660419 1.9612942 -0.35878339 101 4
9.6952238 8.7726154 2.0708797 37 12
2.1425271 1.9379617 -0.25275165 10 5
9.8383684 8.8927736 2.5778296 7 13
2.1565309 1.9478912 -0.15229765 17 6
9.7615757 8.8140802 3.0363894 44 14
9.769165 8.8085508 3.5245979 49 15
3.1955128 2.8661635 -1.1501919 5 0
2.1514063 1.9289917 0.050437454 72 8
3.7895474 3.395395 -1.1746944 4 1
9.7834196 8.762764 0.68832254 3 9
2.1957729 1.965318 -0.57280862 92 2
9.9334764 8.884676 1.1659695 2 10
2.1573527 1.9288965 -0.45835301 93 3
9.8395557 8.7914028 1.6201311 11 11
2.1707969 1.938192 -0.35732093 83 4
9.8446112 8.7866554 2.0899646 39 12
2.161952 1.9282616 -0.2534489 17 5
9.9881487 8.9022484 2.6007268 10 13
2.1622827 1.9265248 -0.15177429 12 6
9.9102039 8.8234625 3.0633836 43 14
2.1752312 1.9353375 -0.050821409 11 7
9.9241676 8.8265858 3.5587621 47 15
3.2178421 2.8469062 -1.1512272 5 0
2.1723113 1.9205475 0.050611977 32 8
3.8081911 3.3656502 -1.1733446 4 1
10.010526 8.8410044 0.69994116 4 9
2.2020802 1.9434453 -0.57090056 11 2
10.057967 8.8735332 1.1734649 3 10
2.179657 1.9216267 -0.46023026 81 3
10.006446 8.8156652 1.6374366 6 11
2.1827848 1.9216779 -0.35707721 79 4
9.9872723 8.7894907 2.1071725 36 12
2.1903224 1.9262789 -0.25519201 83 5
10.120844 8.8945045 2.6190445 9 13
2.1816816 1.9166551 -0.15219298 15 6
10.050643 8.8234873 3.0876782 43 14
2.1811724 1.9135115 -0.050646886 13 7
10.084313 8.8437023 3.5939615 48 15
3.2308517 2.8174584 -1.148639 4 0
2.1841583 1.9040221 0.050577074 77 8
3.8233614 3.3306334 -1.1706454 4 1
10.078053 8.773078 0.70025522 4 9
2.2081892 1.9215806 -0.56899244 11 2
10.110683 8.792182 1.1722448 4 10
2.2022974 1.9137554 -0.46210748 74 3
10.103713 8.7768364 1.6432863 6 11
2.200644 1.9102973 -0.35780841 86 4
10.131984 8.78899 2.1243804 37 12
2.1961915 1.9044131 -0.25432047 71 5
10.274678 8.903347 2.6427047 12 13
2.1938314 1.8996869 -0.1520883 11 6
10.200397 8.8296347 3.1146722 38 14
10.23503 8.8471136 3.6250196 49 15
3.2401886 2.7860177 -1.1450155 5 0
2.2053108 1.8948601 0.0507516 87 8
3.8391287 3.2975111 -1.1683958 1 1
10.228469 8.7792606 0.70643085 4 9
2.2233734 1.9070081 -0.56937408 10 2
10.25349 8.7914171 1.1816576 7 10
10.255226 8.7804832 1.6576669 6 11
2.2199602 1.9000494 -0.35878339 86 4
10.28767 8.7989302 2.1440909 35 12
2.2082465 1.8873564 -0.25414613 80 5
10.447042 8.9257717 2.6709445 18 13
2.2191908 1.8947006 -0.15292569 32 6
10.371542 8.8487492 3.1475151 39 14
2.2015908 1.8776802 -0.050507262 105 7
10.393581 8.8581533 3.6591837 47 15
3.2492435 2.754586 -1.1413921 4 0
2.2139082 1.87554 0.050646886 93 8
2.2351437 1.8928599 -0.67620283 64 1
10.429773 8.8263369 0.71606064 6 9
2.2396309 1.8939751 -0.57013732 10 2
10.434818 8.8212347 1.1954281 6 10
2.2318223 1.8853683 -0.46273321 10 3
10.410318 8.7880697 1.6727787 6 11
2.2362051 1.8870653 -0.35927087 81 4
10.463614 8.8236809 2.1678691 7 12
2.2213697 1.8718929 -0.25414613 44 5
10.482074 8.829854 2.6640754 7 13
2.2369492 1.8830191 -0.1532397 11 6
10.527017 8.8551559 3.175859 53 14
2.2161765 1.8635516 -0.050542168 85 7
10.49954 8.8226614 3.6747131 63 15
3.2787707 2.7405071 -1.1450155 5 0
2.225414 1.8587554 0.050611977 81 8
2.2408245 1.8709648 -0.67395335 98 1
10.567821 8.8172798 0.72129422 4 9
2.2603371 1.8845805 -0.57204539 11 2
10.545128 8.7889862 1.2010062 6 10
2.2479651 1.8722707 -0.46335894 11 3
10.556861 8.7862911 1.6864281 46 11
2.2508509 1.8726773 -0.35951459 43 4
10.546224 8.768096 2.1722493 42 12
2.2389815 1.8601588 -0.25466907 13 5
2.2392821 1.8584278 -0.15250699 11 6
10.552581 8.7515917 3.1650612 48 14
10.505835 8.7035446 3.6555603 63 15
3.2948411 2.7150929 -1.1439801 5 0
2.250685 1.853344 0.050891217 87 8
2.2538316 1.8552753 -0.67395335 77 1
2.2458267 1.8473712 0.15240233 47 9
2.2764723 1.8712479 -0.57280862 12 2
10.573904 8.68859 1.1973456 21 10
2.2670877 1.8615454 -0.4646104 43 3
10.558097 8.6632633 1.6769222 17 11
2.2531252 1.8481064 -0.35780841 97 4
10.546075 8.6441622 2.1597345 43 12
2.2580786 1.8495324 -0.25536633 14 5
10.554208 8.6415949 2.6514819 67 13
2.256839 1.8465436 -0.152821 13 6
10.541001 8.6185045 3.143466 51 14
2.2528181 1.8412853 -0.050786503 15 7
10.521451 8.5933332 3.6400313 63 15
3.3062191 2.6859343 -1.1413921 4 0
2.266674 1.8401068 0.050961025 78 8
2.2742958 1.845634 -0.67620283 79 1
2.2633231 1.8354214 0.15271634 88 9
2.2833796 1.8503654 -0.57128215 48 2
2.2788889 1.8460675 0.25658652 9 10
2.2784932 1.8444301 -0.46429756 100 3
2.2841737 1.8477072 0.36073327 7 11
2.2783208 1.842317 -0.35975835 78 4
10.558535 8.5318384 2.1500356 44 12
2.2861149 1.8466388 -0.25710943 102 5
10.559284 8.5233097 2.6377437 65 13
2.2805567 1.8395216 -0.15355371 14 6
10.544812 8.5025139 3.1272695 53 14
2.2593884 1.8204952 -0.050646886 12 7
10.521001 8.4712009 3.6193256 63 15
2.2874637 1.831949 -0.78525704 9 0
2.3023417 1.8418864 -0.68070191 14 1
2.2804439 1.8237139 0.15303035 16 9
2.3127921 1.8482618 -0.57547992 11 2
2.2879076 1.8264133 -0.46367183 80 3
2.2942326 1.8288399 -0.36024579 83 4
10.563834 8.4179201 2.1393981 45 12
2.2755718 1.812017 -0.25449476 67 5
10.570904 8.4114943 2.6259136 107 13
2.2961521 1.8264412 -0.15376306 14 6
10.582552 8.4117184 3.120971 50 14
2.272043 1.8046775 -0.050646886 17 7
10.569339 8.392189 3.61622 49 15
2.2998796 1.8163375 -0.78525704 11 0
2.2839806 1.8024853 0.050786503 77 8
2.3117647 1.8237593 -0.67980206 10 1
2.3009622 1.8139327 0.15355371 22 9
2.3210125 1.828426 -0.5743351 13 2
10.604925 8.3512516 1.1809603 45 10
10.629631 8.3586826 1.6603481 52 11
2.3131871 1.817686 -0.36122078 76 4
10.658078 8.3720255 2.146594 33 12
2.2975693 1.8034688 -0.25554064 76 5
2.2971835 1.7986329 -0.050926123 23 7
2.3036704 1.7927146 -0.78215116 16 0
2.2980874 1.7877241 0.050821409 89 8
2.3139863 1.7987978 -0.67665279 11 1
2.3123062 1.7961956 0.15344904 56 9
2.3352714 1.8133818 -0.57471669 16 2
10.728952 8.3252296 1.1881071 10 10
2.3228648 1.8011498 -0.46554902 12 3
2.3336675 1.8075705 -0.36243945 72 4
2.3132555 1.7898232 -0.25588927 80 5
2.3201611 1.7925783 -0.15365838 84 6
10.888676 8.4096508 3.1763089 25 14
2.3128495 1.7849964 -0.050995931 102 7
3.3722603 2.5866935 -1.1388038 5 0
2.325105 1.7821821 0.051135551 93 8
2.3342221 1.7885256 -0.67890227 91 1
2.355984 1.8025893 -0.57662481 12 2
10.910253 8.3445358 1.2017034 16 10
2.3400908 1.7884878 -0.46648762 10 3
10.943933 8.3581934 1.6908154 37 11
10.960685 8.3619051 2.1835127 1 12
2.3323417 1.7780558 -0.25658652 76 5
11.653542 8.8808365 2.8480153 10 13
11.703805 8.9062328 3.3954113 38 14
2.3268461 1.7700166 -0.051030833 16 7
11.753103 8.9340343 3.9557903 46 15
3.3779101 2.5537663 -1.1346627 5 0
2.345468 1.7719334 0.051310074 87 8
2.3513176 1.7757082 -0.68025202 96 1
11.017811 8.3145809 0.72338766 19 9
2.3622401 1.7813703 -0.57509834 13 2
11.69373 8.8150578 1.2811894 5 10
2.3635638 1.7804281 -0.4686777 12 3
11.75219 8.8462667 1.8061038 17 11
2.3555045 1.7724249 -0.36195198 14 4
11.797168 8.87045 2.3377569 6 12
2.3622196 1.7748946 -0.25850391 13 5
11.840839 8.8935871 2.8785446 18 13
2.346561 1.7612078 -0.15376306 10 6
11.891975 8.9190168 3.4318533 36 14
2.3359466 1.7513301 -0.050961025 14 7
11.937328 8.9432707 3.9966838 48 15
3.3801656 2.5185792 -1.1294864 5 0
2.3641963 1.7602938 0.051449694 81 8
2.3745999 1.7673943 -0.68340129 84 1
11.827205 8.7964821 0.77247876 16 9
2.3872256 1.7742029 -0.57815129 100 2
11.862136 8.8128195 1.2928683 5 10
2.3759365 1.7638828 -0.4686777 12 3
11.933232 8.8527098 1.8243842 11 11
2.3888586 1.7708921 -0.36512056 104 4
11.976254 8.8749065 2.3609092 6 12
2.3745522 1.7583611 -0.25850391 85 5
12.027275 8.8997164 2.9083109 39 13
2.36201 1.7471594 -0.1539724 9 6
12.087156 8.9342356 3.4700949 37 14
2.3516359 1.7369456 -0.051030833 14 7
12.114479 8.9446278 4.0349894 46 15
3.3949866 2.4920404 -1.1284511 5 0
2.3950441 1.7561183 -0.68565083 86 1
12.02518 8.8107805 0.78127122 11 9
2.393218 1.7528535 -0.57662481 61 2
12.04548 8.8159657 1.3059417 6 10
2.3853092 1.7445036 -0.46805197 77 3
12.126148 8.8652592 1.8443708 8 11
2.3931494 1.7483152 -0.36390188 97 4
12.181451 8.8926392 2.3887546 12 12
2.3626297 1.7241225 -0.25588927 67 5
12.222363 8.9126997 2.9403667 46 13
2.3986645 1.7478558 -0.15554248 17 6
12.284699 8.948307 3.5087864 36 14
2.3766382 1.7299013 -0.051310074 14 7
12.318783 8.9599791 4.0815763 48 15
3.4138656 2.4694118 -1.1289687 4 0
12.163013 8.7916231 0.26196063 8 8
2.4025061 1.7359321 -0.68430108 82 1
12.21918 8.822485 0.78985435 14 9
2.4200292 1.7460215 -0.58005941 11 2
12.250553 8.8353825 1.3214554 5 10
2.4022374 1.7312735 -0.46899059 9 3
12.3117 8.8664246 1.8628949 9 11
2.408519 1.733885 -0.36438939 78 4
12.374725 8.9019775 2.4144099 6 12
2.3846126 1.7141505 -0.25693512 80 5
12.415017 8.9211016 2.9716594 46 13
12.476667 8.9521923 3.5452287 38 14
2.388658 1.713266 -0.051310074 14 7
12.512933 8.9682932 4.1250582 43 15
3.4247296 2.4410336 -1.1268982 4 0
12.36417 8.806263 0.26496243 8 8
12.40579 8.8261108 0.79791403 9 9
2.435359 1.7313602 -0.58082259 10 2
12.456481 8.852356 1.3369691 11 10
2.420707 1.7190366 -0.47024205 9 3
12.50443 8.8733091 1.8826377 13 11
2.4173257 1.7147322 -0.36390188 72 4
12.570333 8.910181 2.440378 6 12
2.4062774 1.7043695 -0.25798097 71 5
12.617997 8.9340467 3.0052419 45 13
2.4081616 1.7038113 -0.15460044 100 6
12.670929 8.958251 3.5825706 34 14
2.408726 1.7023188 -0.051484596 15 7
12.733035 8.9921646 4.1768217 49 15
3.4480114 2.4215059 -1.1289687 4 0
12.571027 8.8219633 0.26806897 8 8
4.0314202 2.8280778 -1.1369027 4 1
12.594666 8.8287144 0.80607843 9 9
2.4409549 1.7098107 -0.57929617 11 2
12.646909 8.855464 1.3507397 11 10
2.4391234 1.7066249 -0.47149354 9 3
12.71412 8.8893051 1.9048181 15 11
12.771512 8.9194708 2.4672847 8 12
2.4246523 1.692091 -0.25867823 73 5
12.82337 8.9457026 3.0392058 42 13
2.419997 1.6869588 -0.15460044 89 6
12.88347 8.9742737 3.6248612 34 14
2.4123454 1.679749 -0.051310074 53 7
12.949322 9.0100784 4.2270327 47 15
3.4473577 2.3852839 -1.1232747 4 0
12.765541 8.8261023 0.27089626 8 8
4.0510654 2.7998641 -1.1369027 3 1
12.802261 8.8415871 0.81539428 9 9
2.4592955 1.6971883 -0.58082259 16 2
12.847824 8.8631229 1.3655562 9 10
2.4542313 1.6917971 -0.47211927 10 3
12.932809 8.9084311 1.9282169 6 11
2.452477 1.6886945 -0.36560807 10 4
12.976676 8.9286337 2.4948173 6 12
2.4364061 1.6751226 -0.25867823 69 5
13.035977 8.959383 3.0746963 43 13
2.4383008 1.6745456 -0.15501912 25 6
13.095239 8.986659 3.6667023 33 14
13.147353 9.0122919 4.2710319 50 15
3.4511559 2.3524542 -1.1191336 6 0
12.96733 8.8324537 0.27386317 8 8
4.0640702 2.7671268 -1.135103 4 1
13.028806 8.8643436 0.82586145 8 9
2.4792011 1.6854979 -0.58273071 92 2
13.067582 8.8807211 1.38229 7 10
2.4627142 1.6724026 -0.47149354 9 3
13.12938 8.9093266 1.9482036 7 11
2.4724205 1.6771034 -0.36682677 9 4
13.194033 8.9431124 2.5245397 7 12
2.4480414 1.6580724 -0.25867823 71 5
13.238017 8.9628153 3.1075156 42 13
2.4515862 1.6586015 -0.1551238 9 6
13.314263 9.0008793 3.7103429 35 14
13.034408 8.808383 -0.27459618 6 7
13.35244 9.0165052 4.317102 44 15
3.459476 2.3229184 -1.1165454 5 0
13.169819 8.8364191 0.27683008 8 8
4.0671048 2.7278321 -1.1306039 3 1
13.239688 8.87325 0.83528197 8 9
2.5006959 1.6747022 -0.58502042 100 2
13.278266 8.8890343 1.3979781 7 10
2.4759715 1.6562673 -0.47180638 26 3
13.343091 8.9189377 1.9706273 12 11
2.4923213 1.6653161 -0.36804545 78 4
13.422073 8.9615688 2.5561395 9 12
2.466186 1.6453657 -0.25937548 73 5
13.457067 8.9747505 3.1441507 42 13
2.4614444 1.640337 -0.15501912 35 6
13.534108 9.0124855 3.7539835 31 14
13.255392 8.8235388 -0.27794704 6 7
13.590386 9.0396957 4.3735242 40 15
3.4756074 2.2987118 -1.1165454 5 0
13.399684 8.8556185 0.28035545 6 8
4.0860486 2.6993737 -1.1306039 3 1
13.452997 8.8807259 0.84480709 8 9
2.5139654 1.6582842 -0.58540201 88 2
13.499684 8.9014015 1.414712 7 10
2.494072 1.6432886 -0.4730579 9 3
13.560882 8.9281855 1.993539 11 11
2.4856465 1.6358714 -0.36536431 97 4
13.636148 8.9675083 2.5849233 7 12
2.4842737 1.6324837 -0.26007274 71 5
13.686764 8.9905338 3.1830759 42 13
13.756391 9.0225201 3.7980735 32 14
13.470518 8.8316612 -0.28115827 7 7
13.826071 9.0578728 4.4289117 43 15
3.4931893 2.2754457 -1.117063 6 0
13.625428 8.8687534 0.28377613 6 8
4.0982604 2.6665311 -1.1288043 3 1
13.675421 8.8911028 0.85485566 6 9
2.5238342 1.6396248 -0.58502042 30 2
13.740292 8.923048 1.4333633 12 10
2.5170822 1.6333648 -0.47524795 10 3
13.794436 8.9445343 2.0186441 7 11
2.5286555 1.6389941 -0.36999539 43 4
13.852621 8.9719543 2.6140203 7 12
2.4956102 1.6151005 -0.26007274 73 5
13.922279 9.0067263 3.2231457 39 13
13.619815 8.8043118 -0.84993607 6 6
13.986012 9.0341139 3.8439636 35 14
13.69984 8.8458767 -0.28464878 7 7
14.057795 9.0700541 4.4827461 43 15
3.4943566 2.2416139 -1.1124043 6 0
13.855361 8.8813353 0.28726661 6 8
4.1118555 2.6346989 -1.1274546 4 1
13.91713 8.9106531 0.86605549 8 9
13.946598 8.9192276 1.448354 8 10
2.528424 1.6157525 -0.47524795 8 3
14.038917 8.9644566 2.0452116 6 11
2.5419924 1.6219252 -0.37023908 9 4
14.099785 8.9929352 2.6487486 11 12
2.5034645 1.5954969 -0.25972411 71 5
14.146999 9.0091696 3.2601626 40 13
11.932076 7.5957165 -0.74128658 3 6
14.236184 9.0554934 3.8952522 34 14
13.918052 8.8463011 -0.28786001 8 7
14.280568 9.0732164 4.5334744 38 15
3.5233746 2.2248046 -1.1165454 3 0
14.079362 8.8868561 0.29061747 5 8
4.1355472 2.6083283 -1.1288043 4 1
14.159644 8.9237127 0.87715065 9 9
4.9916344 3.1446185 -1.1467621 4 2
14.183738 8.928525 1.4663082 6 10
2.5365772 1.5955148 -0.47462222 8 3
14.27425 8.9750614 2.0703166 15 11
2.5465305 1.599915 -0.36926416 9 4
14.351154 9.0094414 2.68379 6 12
2.5212917 1.5822179 -0.26042137 67 5
14.389191 9.0228214 3.3013773 37 13
14.115262 8.8441906 -0.87296379 6 6
14.474126 9.065526 3.9429424 33 14
14.162542 8.863492 -0.29162973 11 7
14.525298 9.0834742 4.5904145 44 15
3.5240548 2.1909723 -1.1118866 4 0
14.31925 8.8956232 0.29424757 8 8
4.1321344 2.5660284 -1.1229557 5 1
14.404886 8.9383745 0.88845533 13 9
4.9956551 3.0974388 -1.1425643 3 2
14.438783 8.9489412 1.4861796 6 10
2.5577304 1.5840076 -0.47649944 9 3
14.525481 8.988636 2.0973716 6 11
2.5610142 1.5841864 -0.36975163 9 4
14.605257 9.0274315 2.7194571 8 12
14.63726 9.0366249 3.3437369 44 13
13.481424 8.316555 -0.83015299 1 6
14.726082 9.0772676 3.9937811 32 14
14.404533 8.8756037 -0.29532963 11 7
14.660747 9.0264063 4.6131911 27 15
3.5310266 2.161274 -1.1092985 5 0
14.578893 8.9164677 0.29829654 5 8
4.1349845 2.5279698 -1.1189066 4 1
14.633966 8.9396267 0.89871311 13 9
5.00878 3.0573702 -1.1406562 2 2
14.694796 8.9662256 1.5060512 5 10
2.5721006 1.568168 -0.4771252 64 3
14.765879 8.9954576 2.1229641 7 11
2.5686214 1.5642027 -0.36926416 9 4
14.856923 9.0402603 2.7544985 7 12
11.547478 7.0209808 -1.1823548 7 5
14.904668 9.0586233 3.3902946 42 13
13.252361 8.0480652 -0.81256813 1 6
14.975686 9.0874662 4.0441699 30 14
14.645667 8.8837185 -0.2989946 8 7
14.89357 9.0269709 4.6665077 40 15
3.5509932 2.1395609 -1.1108514 6 0
14.83437 8.9310274 0.30224079 4 8
4.1575408 2.5020549 -1.1202562 5 1
14.891143 8.9545879 0.91064578 11 9
5.0148554 3.0132296 -1.1372217 3 2
14.97053 8.9916573 1.5278401 10 10
2.5999227 1.5603395 -0.48025388 86 3
15.054746 9.027935 2.1553814 10 11
2.5845859 1.5492951 -0.36999539 74 4
15.124724 9.0591373 2.7923555 7 12
11.753499 7.0343204 -1.1983914 7 5
15.169719 9.0752983 3.4360886 44 13
13.745379 8.2166634 -0.83925951 12 6
15.241194 9.1036167 4.0986085 44 14
14.894483 8.8929882 -0.30279925 7 7
15.148671 9.0375948 4.7265534 40 15
3.5508878 2.1058512 -1.1061926 5 0
15.104525 8.9505911 0.30646425 7 8
4.1648464 2.4670122 -1.1175569 5 1
15.159551 8.972477 0.92320639 8 9
5.0138016 2.9651542 -1.1322607 5 2
15.21303 8.9933786 1.5461429 6 10
2.6073511 1.5401412 -0.47962815 64 3
15.315711 9.0396576 2.183655 39 11
2.6021779 1.5352483 -0.37097031 69 4
11.937937 7.0319848 -1.212162 12 5
15.2953 9.0060291 3.4502084 60 13
13.232611 7.7852764 -0.80461305 1 6
15.274137 8.9792137 4.0905099 50 14
15.156191 8.9063168 -0.3068482 7 7
15.229721 8.9423771 4.7322474 65 15
3.5588293 2.0771148 -1.1041222 6 0
15.329019 8.9396191 0.30974531 40 8
4.1752334 2.4339499 -1.1157572 5 1
15.335726 8.9327726 0.93011475 69 9
5.0225024 2.923166 -1.1295893 3 2
15.313331 8.9089928 1.5499777 40 10
15.33725 8.9085846 2.1778054 58 11
15.29929 8.8758259 2.8014288 50 12
12.119465 7.0254092 -1.225584 7 5
15.294952 8.8626089 3.4360886 64 13
15.035836 8.7054567 -0.91054106 12 6
15.279102 8.8391838 4.0752134 51 14
15.358217 8.8813763 -0.30967551 47 7
15.239926 8.8058739 4.7162008 66 15
3.5598423 2.0445199 -1.099981 5 0
15.340759 8.8035202 0.30873308 61 8
4.1752214 2.3950436 -1.1112581 5 1
15.349195 8.7976818 0.92718393 65 9
5.0359716 2.8841307 -1.1280628 5 2
15.321552 8.771184 1.544574 41 10
6.2757177 3.5897789 -1.1451004 1 3
15.319791 8.7559814 2.1665936 49 11
8.3251152 4.7562733 -1.177258 2 4
15.31113 8.7403994 2.7923555 47 12
12.220136 6.970243 -1.2308134 7 5
15.286526 8.715745 3.4204421 62 13
13.149126 7.4910083 -0.79309916 1 6
15.293018 8.7053061 4.0626163 51 14
15.371182 8.7462492 -0.30869818 62 7
15.257367 8.6744385 4.7027421 67 15
3.5878375 2.0265968 -1.1041222 5 0
15.363307 8.6709118 0.30793026 58 8
4.1888585 2.3631902 -1.1103585 5 1
15.354342 8.6552553 0.92372978 74 9
5.0496387 2.8441665 -1.1265364 3 2
15.340521 8.6368837 1.5402162 47 10
6.284029 3.535094 -1.1419717 1 3
15.328409 8.6159782 2.1590376 53 11
8.3468227 4.6897712 -1.1755519 3 4
15.340555 8.6122379 2.786411 45 12
11.301817 6.3396907 -1.1337218 5 5
15.384462 8.626298 3.4284561 41 13
15.536862 8.6975107 4.1107554 48 14
15.389749 8.611619 -0.30782554 63 7
15.531506 8.6838341 4.7679648 63 15
3.6069651 2.004313 -1.105675 4 0
15.386751 8.5430679 0.30719727 67 8
4.1916232 2.3263235 -1.1067592 5 1
15.382948 8.5304232 0.92184561 52 9
5.033309 2.7888625 -1.1185224 2 2
15.536387 8.6048794 1.5538126 33 10
6.2739878 3.4720073 -1.1357143 1 3
15.59144 8.6211433 2.1875548 49 11
8.3567772 4.6188984 -1.1723832 3 4
15.604353 8.6176176 2.8233294 44 12
11.282999 6.2259874 -1.1274467 6 5
15.638567 8.6258307 3.4715788 25 13
14.999413 8.2664719 -0.89756179 10 6
16.667522 9.1782064 4.3928442 27 14
15.407446 8.4808331 -0.30698782 53 7
3.6073077 1.9716722 -1.1015339 6 0
15.651355 8.5475798 0.31128111 66 8
4.2248654 2.3063431 -1.1112581 5 1
15.671823 8.5481081 0.93555766 42 9
5.0492101 2.7517741 -1.1177591 3 2
15.685313 8.5448151 1.5627024 7 10
6.308486 3.4337854 -1.1375916 1 3
8.3434734 4.5357928 -1.166046 3 4
16.790684 9.1204004 3.0263815 34 12
11.704431 6.3523479 -1.165098 4 5
16.877035 9.1558638 3.7322242 41 13
13.827634 7.4953051 -0.82429141 1 6
16.989939 9.2017593 4.4607797 24 14
15.68258 8.4901533 -0.31128111 41 7
17.183912 9.2951822 5.2348742 1 15
3.6090734 1.9400376 -1.0979104 5 0
16.568584 8.8988981 0.32827976 22 8
4.2219772 2.2666523 -1.1063093 3 1
5.0648355 2.7146044 -1.1169959 3 2
17.000294 9.107832 1.6873351 2 10
6.3009553 3.3728826 -1.1319599 1 3
17.15616 9.1759396 2.3888831 9 11
8.3241653 4.4502959 -1.1589775 3 4
17.111818 9.1407042 3.072686 31 12
11.825834 6.3117528 -1.1727676 7 5
17.189974 9.1708889 3.7871773 32 13
13.900778 7.4098549 -0.82554746 5 6
17.323801 9.2267551 4.531414 28 14
17.528093 9.3237858 5.319767 1 15
3.6379011 1.9229194 -1.1025692 6 0
16.872555 8.9109507 0.33306172 26 8
4.2239122 2.2298441 -1.1027101 4 1
17.213503 9.0794926 1.0199232 11 9
5.0749798 2.6746023 -1.1150879 3 2
17.202534 9.058363 1.7009314 5 10
6.2789001 3.3048899 -1.1238253 1 3
17.316433 9.1067619 2.4022889 6 11
8.3048382 4.3638387 -1.1519091 3 4
17.434042 9.1569633 3.1189909 31 12
11.92959 6.2605233 -1.1786942 9 5
17.512491 9.1825762 3.8436565 39 13
14.002982 7.3361454 -0.82847828 7 6
17.638115 9.2366753 4.5966501 25 14
17.163561 8.9805193 -0.3381229 3 7
17.902527 9.3592224 5.4129419 1 15
3.6481395 1.8950567 -1.1015339 6 0
17.209219 8.9318485 0.33843705 29 8
4.2241921 2.1914847 -1.0986609 5 1
17.480179 9.0608664 1.0318558 11 9
5.0974755 2.6400239 -1.115851 3 2
17.539419 9.076045 1.7277755 2 10
6.2953701 3.2562439 -1.1225739 2 3
17.636866 9.1147661 2.4376309 7 11
8.2917566 4.2815294 -1.1458156 3 4
17.7712 9.1724052 3.1674855 28 12
11.954606 6.1649513 -1.1767769 16 5
17.867458 9.2062969 3.9070053 31 13
14.740559 7.5886364 -0.86888164 10 6
17.987932 9.2564564 4.670434 33 14
17.492363 8.9937191 -0.34332374 3 7
18.214773 9.3570995 5.4869637 6 15
3.6478412 1.8618768 -1.0973928 6 0
17.721609 9.0374146 0.34723309 11 8
4.2397661 2.1612008 -1.0986609 5 1
17.811523 9.0715208 1.0475566 13 9
5.0969896 2.5936856 -1.1116532 3 2
17.884712 9.0970058 1.7554909 8 10
6.3149877 3.2093222 -1.1219481 1 3
17.986605 9.1330233 2.4768727 7 11
8.3002033 4.2127562 -1.1428908 3 4
18.116508 9.1870575 3.2172318 30 12
11.982422 6.0711379 -1.175208 42 5
18.209774 9.2223701 3.9676824 36 13
14.771796 7.4747148 -0.86762559 4 6
18.182405 9.1925669 4.7037268 19 14
17.802809 8.9967403 -0.3481755 7 7
18.479691 9.3307209 5.5470099 7 15
3.6572962 1.8346339 -1.0963575 4 0
18.059584 9.0514507 0.35260841 14 8
4.2564917 2.1324239 -1.0991108 32 1
18.145901 9.0828276 1.0634668 8 9
5.1061931 2.5536478 -1.1097453 3 2
18.222239 9.1091108 1.7823349 2 10
6.3018951 3.1475043 -1.1156907 2 3
18.350105 9.1570358 2.5180645 9 11
8.3045425 4.1423025 -1.1394784 4 4
18.477221 9.2083893 3.2697935 30 12
18.568985 9.2419882 4.0317941 23 13
15.251033 7.5839567 -0.8926422 16 6
18.488722 9.1859303 4.766263 21 14
18.166065 9.0216694 -0.35403952 12 7
18.847223 9.3517485 5.6375966 8 15
3.6596184 1.8039316 -1.0932516 4 0
18.409363 9.0665102 0.35819319 14 8
4.2572885 2.0957706 -1.0955117 42 1
18.500999 9.0996075 1.0805283 4 9
5.1203713 2.5162084 -1.108982 3 2
18.589397 9.1310024 1.8119678 2 10
6.3095269 3.0964725 -1.1131878 2 3
18.695202 9.1667786 2.5565753 10 11
8.2904758 4.0632615 -1.1336287 4 4
18.858624 9.234664 3.3257971 26 12
11.922845 5.8332028 -1.1612631 3 5
18.962862 9.2734013 4.103157 23 13
15.517153 7.5816369 -0.90509808 8 6
18.886879 9.2199221 4.8521943 9 14
18.519747 9.0366879 -0.35969409 8 7
19.314917 9.4163446 5.7576885 1 15
3.687772 1.7859151 -1.0979104 5 0
18.582012 8.9909067 0.36032242 36 8
4.2612906 2.0609052 -1.0928122 39 1
18.979483 9.1709623 1.1047075 5 9
5.1484208 2.4855213 -1.1112716 3 2
19.016949 9.1767883 1.8473531 3 10
6.3131971 3.0437698 -1.110059 1 3
18.703302 9.0093317 2.5490193 15 11
8.2900238 3.9915056 -1.1297289 3 4
19.239496 9.255208 3.3814878 24 12
11.902219 5.7204843 -1.1553365 3 5
19.340366 9.2912664 4.1707034 22 13
15.665136 7.5189281 -0.91064578 12 6
19.650133 9.4232025 5.0312552 2 14
18.883524 9.0515232 -0.36552319 4 7
19.864559 9.5132408 5.9015923 2 15
3.7001495 1.7601279 -1.0979104 6 0
18.954977 9.0086002 0.36632603 22 8
4.2650123 2.0260904 -1.0901128 42 1
19.329937 9.1744013 1.1213503 5 9
5.1443615 2.4394214 -1.1066922 3 2
19.357811 9.1752167 1.8741971 3 10
6.2985878 2.9827092 -1.1038017 1 3
18.729851 8.8615685 2.5441446 16 11
8.2800055 3.9157076 -1.1246104 4 4
19.651917 9.2852316 3.4424973 26 12
11.89502 5.6151381 -1.1508044 3 5
19.731459 9.3101692 4.240921 27 13
16.206825 7.6401863 -0.93901187 10 6
19.939339 9.391243 5.0883927 5 14
19.264679 9.0693874 -0.37166646 4 7
19.974192 9.3948851 5.9145331 55 15
3.7035966 1.730165 -1.0953223 4 0
19.329079 9.0215168 0.37232965 22 8
4.2808189 1.9970894 -1.0905627 28 1
19.695831 9.1801376 1.1388304 3 9
5.1363492 2.3918471 -1.1013496 3 2
19.789881 9.2113638 1.9097565 3 10
6.3371677 2.9469967 -1.1069304 1 3
19.073904 8.8619118 2.5824115 8 11
8.2765322 3.8435924 -1.1204668 4 4
20.022675 9.2899771 3.4959979 55 12
11.843554 5.490057 -1.1420889 3 5
20.020418 9.2761946 4.2890048 59 13
16.227148 7.5117445 -0.93712771 10 6
19.652437 9.0848618 -0.37791443 9 7
19.997204 9.2357693 5.9021096 61 15
3.705049 1.6994342 -1.0922165 4 0
19.731537 9.0421391 0.37885684 24 8
4.3052874 1.9720243 -1.0932621 6 1
20.080893 9.1895161 1.1573575 37 9
5.1636353 2.3608284 -1.1036394 5 2
20.067541 9.1706896 1.9303253 47 10
6.3180547 2.8846338 -1.1000473 1 3
20.072657 9.156106 2.7089119 50 11
8.2713099 3.7694511 -1.1160794 4 4
19.961206 9.0926447 3.4740968 46 12
11.82175 5.3800058 -1.1363366 3 5
20.020159 9.1026287 4.2748852 63 13
16.504663 7.5007424 -0.95010704 14 6
20.022379 9.090991 5.0766954 57 14
20.088444 9.1125193 -0.38503498 18 7
19.99081 9.0640373 5.8814044 64 15
3.7188766 1.6736708 -1.092734 3 0
20.01667 9.0042496 0.38311523 41 8
4.3104014 1.9371718 -1.0910126 5 1
20.086016 9.0185795 1.1539032 52 9
5.1549149 2.313468 -1.0982966 3 2
20.070841 8.9991417 1.9243988 42 10
6.3241124 2.8328884 -1.0975443 1 3
20.072681 8.9873476 2.700381 55 11
8.2593699 3.6945965 -1.110961 3 4
20.041994 8.9568281 3.476913 60 12
11.806262 5.2737832 -1.1312815 4 5
20.025846 8.9370365 4.2626729 65 13
16.74033 7.4637761 -0.96057421 14 6
20.0284 8.9256039 5.0622988 55 14
20.107731 8.9525337 -0.38419729 43 7
20.030449 8.9097614 5.8741574 34 15
3.7410729 1.6523522 -1.0958399 6 0
20.111694 8.8745079 0.38370863 56 8
4.3113384 1.9015296 -1.0878633 5 1
20.119242 8.8652563 1.1522285 70 9
5.1569629 2.2701929 -1.0952437 3 2
20.085758 8.8379469 1.9198667 42 10
6.3148017 2.7759497 -1.0925384 1 3
20.091034 8.8235445 2.6942878 47 11
8.2449722 3.6192915 -1.1055988 3 4
20.1565 8.8396873 3.485986 11 12
11.778002 5.1603799 -1.1250063 3 5
17.031731 7.4516068 -0.97428626 16 6
20.149578 8.8031406 -0.38381332 66 7
3.7454276 1.62312 -1.0937693 5 0
20.176828 8.7354736 0.38377842 28 8
4.3280864 1.8729302 -1.0887631 5 1
20.219141 8.7412252 1.1544266 16 9
5.1618714 2.2294672 -1.0929539 5 2
6.3231444 2.7271025 -1.0906612 2 3
8.2408676 3.5490792 -1.1016989 4 4
21.821781 9.3889179 3.7625623 21 12
11.771641 5.0599318 -1.1209971 3 5
21.939873 9.426116 4.6416197 31 13
17.382498 7.4609275 -0.99134779 6 6
22.342997 9.580842 5.6125288 1 14
20.289579 8.6961288 -0.38531423 27 7
22.159668 9.4884844 6.4590883 21 15
3.7584455 1.5976881 -1.0942869 4 0
22.041098 9.3604422 0.41798514 12 8
4.3428497 1.84343 -1.089213 4 1
22.149691 9.3928614 1.260878 17 9
5.1520019 2.1826541 -1.0876113 16 2
20.462219 8.6646299 1.944096 3 10
6.3420291 2.6828921 -1.0906612 2 3
22.187059 9.3767452 2.9575255 8 11
8.2477655 3.4822969 -1.0992615 3 4
22.303566 9.4122238 3.834209 24 12
11.74793 4.9528584 -1.1154191 3 5
22.426523 9.4456739 4.730155 26 13
17.332916 7.296771 -0.98559082 4 6
22.813515 9.5946083 5.713757 3 14
22.18012 9.3191128 -0.41993979 13 7
22.519257 9.4569788 6.5444984 22 15
3.7608664 1.5670373 -1.0916989 5 0
22.310814 9.2916737 0.42185956 46 8
4.3559299 1.8123062 -1.089213 3 1
22.400768 9.3107786 1.2713453 2 9
5.1598635 2.1436181 -1.0860848 33 2
22.367573 9.2832508 2.1187561 43 10
6.340992 2.6291215 -1.0872197 2 3
22.901165 9.4906559 3.0438089 9 11
8.2351923 3.4094489 -1.0943868 3 4
22.792017 9.4267845 3.906482 21 12
11.728823 4.8486538 -1.1103642 3 5
22.834879 9.4305143 4.8022809 22 13
17.608089 7.2647233 -0.99825615 6 6
23.132162 9.539115 5.7767429 4 14
22.366667 9.2143106 -0.42224351 4 7
23.025824 9.4764624 6.6718378 22 15
3.7627726 1.5370907 -1.0891106 4 0
22.426725 9.1521845 0.422802 17 8
4.366672 1.7811159 -1.0887631 5 1
22.87583 9.3214922 1.2945824 2 9
5.1768889 2.1073802 -1.0864664 31 2
22.387541 9.1088591 2.1145725 46 10
6.3427234 2.5780916 -1.0844039 2 3
23.146898 9.3989782 3.0674517 2 11
8.2275257 3.3391786 -1.0902432 3 4
23.322254 9.4559622 3.9859507 21 12
11.713358 4.7444048 -1.1056577 3 5
23.176769 9.3828497 4.8602872 26 13
18.026834 7.2906451 -1.0190858 4 6
23.694906 9.5733643 5.9000163 3 14
22.868042 9.2346611 -0.43048105 3 7
23.564394 9.5062857 6.8084941 21 15
3.7967257 1.5201205 -1.0958399 6 0
22.718445 9.0867357 0.42709532 57 8
4.3627133 1.744079 -1.0847139 3 1
23.485664 9.3793411 1.3253559 2 9
5.1805339 2.0668223 -1.0841768 32 2
22.396917 8.9309406 2.1095176 45 10
6.3568969 2.5322864 -1.0837781 1 3
23.708096 9.4346066 3.1330175 18 11
8.2192793 3.2691858 -1.0860997 4 4
23.883352 9.4898682 4.070425 19 12
11.694346 4.6419277 -1.100777 2 5
23.666901 9.3895187 4.949204 4 13
18.413368 7.2978034 -1.0380315 6 6
24.391703 9.6573582 6.0565825 3 14
22.786926 9.0173817 -0.42775846 61 7
24.140408 9.5432463 6.955503 19 15
3.8000519 1.4907552 -1.0937693 5 0
22.734785 8.9096575 0.42622268 65 8
4.3765979 1.7142899 -1.085164 5 1
24.041601 9.4072752 1.3529893 2 9
5.198493 2.032037 -1.0849401 8 2
22.406763 8.7540522 2.1046369 39 10
6.3486567 2.4777932 -1.0793979 1 3
24.259798 9.4585085 3.1971207 19 11
8.1993599 3.1951513 -1.0804937 3 4
24.464451 9.5235462 4.1580286 22 12
11.596482 4.5096235 -1.0885752 2 5
24.502258 9.5234947 5.1098652 46 13
18.825066 7.30932 -1.0583378 4 6
24.485775 9.4974174 6.0633307 45 14
22.798983 8.8385639 -0.42681605 68 7
24.467657 9.4756546 7.030561 50 15
3.8031538 1.4614179 -1.0916989 5 0
22.749758 8.7328167 0.42535007 72 8
4.3866396 1.6829954 -1.0847139 5 1
24.578524 9.4200535 1.3794713 52 9
5.1960511 1.9893774 -1.0815054 5 2
21.120108 8.0818882 1.9784353 11 10
6.3731818 2.4362323 -1.0806495 1 3
24.5756 9.3845024 3.2300253 51 11
8.1992102 3.1293368 -1.0775688 4 4
24.524809 9.3503971 4.1570902 52 12
11.568101 4.4058685 -1.0829972 2 5
24.549807 9.3452091 5.1060491 70 13
19.316206 7.3452621 -1.0830404 4 6
24.52598 9.316555 6.0570321 56 14
22.805914 8.6586084 -0.42580381 73 7
24.502502 9.2929611 7.0217609 66 15
3.8096473 1.4334705 -1.0906636 5 0
22.755888 8.5533772 0.4243378 74 8
4.4092278 1.6564419 -1.0874133 4 1
24.596941 9.23069 1.3768544 57 9
5.2061367 1.9516755 -1.0807421 7 2
21.50065 8.0558805 2.0087655 15 10
6.365984 2.382678 -1.0765822 2 3
24.590309 9.1939449 3.2234445 66 11
8.2022638 3.0650709 -1.0751314 3 4
24.548771 9.1637669 4.1502066 63 12
11.527637 4.2985477 -1.0763733 3 5
24.551897 9.1502914 5.0930738 67 13
19.52986 7.2708564 -1.0921469 6 6
24.559378 9.1335459 6.0493841 50 14
22.796453 8.4734039 -0.42451233 73 7
24.528755 9.1075411 7.0108905 61 15
3.8250005 1.4088423 -1.0922165 6 0
22.751236 8.3708258 0.42315105 70 8
4.4151974 1.6236018 -1.0860636 5 1
24.617664 9.0429068 1.374447 71 9
5.223321 1.9166347 -1.0815054 3 2
22.065161 8.0921755 2.0561783 15 10
6.3546405 2.3279846 -1.071889 2 3
24.763882 9.0622978 3.2378249 40 11
8.1824474 2.9927325 -1.0697693 3 4
24.851498 9.0796089 4.190567 26 12
11.493731 4.1947408 -1.0704468 2 5
19.467546 7.0933089 -1.0858666 2 6
38.503162 14.014015 9.4596415 29 14
22.813709 8.2990084 -0.42374441 68 7
24.531824 8.9143038 6.9938087 63 15
3.8383772 1.3834143 -1.0932516 6 0
23.01796 8.2869873 0.42702547 14 8
4.4154234 1.5887796 -1.0833644 5 1
5.2347264 1.8794589 -1.0811238 3 2
38.586304 13.846318 3.586633 28 10
6.3521423 2.2768986 -1.0687604 1 3
38.594776 13.818934 5.0334482 26 11
8.1807127 2.9275091 -1.0668443 4 4
38.554443 13.781724 6.4848351 35 12
11.473949 4.0969777 -1.0659148 3 5
38.515469 13.745052 7.9491034 37 13
19.396194 6.9142966 -1.0791675 2 6
38.500919 13.709569 9.4353466 34 14
23.089634 8.2173014 -0.42779338 14 7
24.688108 8.7764826 7.0207257 17 15
3.8351879 1.3520894 -1.0896282 5 0
23.567547 8.2994413 0.43613565 14 8
4.42273 1.5566236 -1.0824645 5 1
25.922922 9.1136465 1.4400762 12 9
5.2329011 1.8376638 -1.0780709 2 2
38.619995 13.554805 3.5808809 33 10
6.3511062 2.2266147 -1.0659446 15 3
38.611618 13.521617 5.023211 25 11
8.146615 2.8513081 -1.0597758 5 4
38.573261 13.485518 6.4720073 35 12
11.438318 3.9944403 -1.0599881 2 5
38.543747 13.452557 7.9353647 40 13
18.397293 6.4138188 -1.0210745 4 6
38.514725 13.412251 9.4155512 34 14
23.675236 8.2399597 -0.43756673 12 7
25.951275 9.0219612 7.3618493 50 15
3.8591447 1.3303185 -1.0937693 5 0
25.784149 8.87819 0.47599694 26 8
4.4353323 1.5263431 -1.0829144 4 1
25.942474 8.9175158 1.4376688 15 9
5.2437453 1.8004515 -1.0776893 3 2
38.64019 13.259636 3.5740829 33 10
6.360889 2.1803031 -1.0650059 26 3
38.65625 13.23499 5.0168738 6 11
8.1456614 2.7872992 -1.0570948 3 4
24.211878 8.2754164 4.0525918 1 12
11.398046 3.8913143 -1.0537128 2 5
38.562412 13.157765 7.9201002 40 13
18.377348 6.263319 -1.0175158 16 6
38.533619 13.117938 9.3975554 34 14
23.080952 7.8529038 -0.42555946 5 7
24.579599 8.3532352 6.9560208 17 15
3.8390472 1.2934732 -1.0854871 6 0
4.4477282 1.4959608 -1.0833644 5 1
24.169512 8.1198616 1.3362417 15 9
5.256187 1.7637993 -1.0776893 5 2
38.646809 12.961064 3.5662386 33 10
6.359098 2.1301954 -1.0621902 25 3
38.657345 12.934563 5.0051746 25 11
8.1423302 2.7228091 -1.0541699 3 4
38.598541 12.89242 6.4454141 34 12
11.356895 3.7889524 -1.0474377 2 5
38.580692 12.864008 7.9052167 40 13
18.259552 6.081234 -1.0086187 2 6
38.554005 12.82521 9.3804588 34 14
23.624788 7.854342 -0.43456492 5 7
25.095671 8.3336277 7.0854306 20 15
3.866333 1.2726821 -1.0906636 6 0
4.45436 1.4636588 -1.0824645 5 1
38.712399 12.705543 2.1353073 32 9
5.2665081 1.7264472 -1.0773077 3 2
38.656834 12.66489 3.5589178 33 10
6.3644285 2.0826738 -1.0606258 15 3
38.667446 12.638483 4.9949369 25 11
8.1691542 2.6669383 -1.0551448 4 4
38.614361 12.598758 6.4332113 34 12
11.335711 3.6941402 -1.0430799 4 5
38.58215 12.558435 7.8868999 36 13
18.210396 5.9239535 -1.0035944 2 6
38.575882 12.534061 9.3642626 33 14
23.893414 7.7542205 -0.43847424 1 7
25.579567 8.2965002 7.2055225 18 15
3.8863766 1.248528 -1.0937693 5 0
38.72863 12.43441 0.70999885 32 8
4.4647198 1.4317466 -1.0824645 5 1
38.718636 12.401392 2.1307015 32 9
5.2765617 1.6890419 -1.076926 3 2
38.672455 12.36428 3.5521193 27 10
6.3904586 2.0406864 -1.062503 2 3
38.671532 12.341671 4.9842129 24 11
8.1497478 2.5977805 -1.0502701 3 4
38.641415 12.302324 6.4228873 29 12
11.290978 3.5925553 -1.0366304 3 5
38.610878 12.270342 7.8750696 40 13
18.115259 5.7499862 -0.99605805 2 6
38.588139 12.240875 9.3462658 33 14
25.397659 8.0468664 -0.46503684 3 7
38.532936 12.193764 10.829507 35 15
3.8931549 1.2207874 -1.0932516 3 0
38.763184 12.140221 0.70902151 21 8
4.4690266 1.3987957 -1.0811148 4 1
38.731831 12.108137 2.126724 37 9
5.2847652 1.6500703 -1.0761628 3 2
38.704575 12.077376 3.5472386 26 10
6.3800335 1.9883786 -1.0584357 2 3
38.686832 12.042209 4.9749508 24 11
8.1601038 2.5384629 -1.0492952 3 4
38.669762 12.01469 6.4135008 34 12
11.266922 3.4963195 -1.0320983 3 5
38.624344 11.978409 7.860568 38 13
18.036674 5.5867391 -0.98956835 2 6
38.596554 11.940241 9.3273706 33 14
25.193396 7.7890196 -0.46028975 5 7
38.5396 11.900517 10.807767 35 15
3.8794148 1.1867967 -1.0870401 4 0
37.571404 11.479583 0.68573999 5 8
4.478683 1.3675618 -1.0811148 4 1
38.75428 11.818819 2.1233747 31 9
5.2923999 1.6119913 -1.0753995 3 2
38.728867 11.788868 3.5418348 32 10
6.4088783 1.9483891 -1.0609387 2 3
38.712975 11.754528 4.9676385 24 11
8.1453333 2.4716375 -1.0451516 4 4
38.656284 11.715213 6.3975449 34 12
11.235755 3.4008322 -1.0270432 5 5
38.646896 11.690278 7.8483562 42 13
18.02553 5.4456568 -0.98684686 2 6
38.623001 11.653628 9.3138733 33 14
38.566238 11.614475 10.792237 34 15
3.8820515 1.1580296 -1.0854871 6 0
37.596973 11.201001 0.6847626 10 8
4.4918566 1.3373759 -1.0820146 4 1
38.787991 11.533725 2.1207578 36 9
5.3091707 1.5766809 -1.0765444 2 2
38.722359 11.492146 3.5338166 32 10
6.4090662 1.8996695 -1.0587486 2 3
38.736984 11.467089 4.9603267 24 11
8.1395473 2.4079545 -1.0422267 4 4
38.68787 11.430521 6.38941 34 12
11.177052 3.2980685 -1.0195479 4 5
38.661659 11.400732 7.8349991 38 13
17.96731 5.2914782 -0.98161328 2 6
38.637981 11.364459 9.2981272 33 14
32.868301 9.6612091 -0.5979892 28 7
38.579655 11.32536 10.773602 34 15
3.9011717 1.1341352 -1.088593 6 0
37.603207 10.917623 0.68347114 15 8
4.5029559 1.3065251 -1.0824645 5 1
38.792747 11.240973 2.1166756 36 9
5.3030753 1.5346683 -1.0731099 5 2
38.728916 11.200499 3.5271928 31 10
6.403194 1.8494012 -1.0556198 2 3
38.747437 11.17655 4.9515519 23 11
8.14853 2.3488719 -1.0412518 4 4
38.700291 11.141006 6.3784595 28 12
11.15002 3.2056439 -1.0150158 3 5
38.67804 11.112675 7.8224058 38 13
17.927023 5.1438804 -0.97742641 2 6
38.662052 11.078869 9.28508 33 14
38.592773 11.037155 10.755486 34 15
3.91643 1.1089758 -1.0906636 5 0
37.616924 10.637442 0.68235421 20 8
4.5044661 1.2729369 -1.0806649 5 1
38.80492 10.951448 2.1131167 31 9
5.3249974 1.5008037 -1.0753995 5 2
38.763977 10.917964 3.5233581 31 10
6.4083428 1.802514 -1.0543684 1 3
38.759537 10.887516 4.9432645 23 11
8.1341496 2.2833431 -1.0373518 4 4
38.742889 10.860958 6.372828 16 12
11.129917 3.115907 -1.0111809 3 5
38.856773 10.870943 7.8430128 7 13
17.866316 4.9917283 -0.97219276 2 6
39.303448 10.96633 9.4205008 4 14
35.785305 9.9779778 -0.64846164 20 7
39.701767 11.055067 11.042773 5 15
3.9296634 1.0831487 -1.0922165 5 0
36.604813 10.075785 0.66270274 4 8
4.5151219 1.2419755 -1.0811148 4 1
38.984428 10.708839 2.1187689 4 9
5.3258801 1.4609925 -1.0734915 3 2
39.271584 10.765611 3.5625782 5 10
6.4398241 1.762944 -1.0574971 2 3
39.560326 10.815058 5.0356417 3 11
8.1192541 2.2181304 -1.0334522 4 4
40.006943 10.914645 6.5680585 4 12
11.097572 3.0234704 -1.0063002 3 5
40.253944 10.95939 8.1093826 8 13
17.754255 4.8270617 -0.96423781 2 6
40.680458 11.045014 9.7318325 4 14
35.695835 9.684967 -0.64559942 16 7
41.467323 11.235346 11.511754 5 15
3.9277997 1.0531864 -1.0896282 6 0
36.065796 9.6570644 0.65170777 18 8
4.5293298 1.2119372 -1.0824645 5 1
36.368431 9.7176952 1.9728565 16 9
5.3359499 1.4237752 -1.0734915 3 2
40.670277 10.844323 3.6825044 6 10
6.4309773 1.7123518 -1.0540556 2 3
40.954746 10.889577 5.2033339 3 11
8.1268673 2.1593537 -1.0324771 4 4
41.773811 11.083947 6.8452601 20 12
11.073604 2.9361119 -1.0022911 4 5
41.701618 11.041425 8.385293 9 13
17.648497 4.6662288 -0.95670134 2 6
42.122543 11.129276 10.058461 5 14
35.708439 9.4212437 -0.64462209 20 7
42.658142 11.238914 11.820266 6 15
3.9294481 1.0242777 -1.0880753 5 0
35.977821 9.3715267 0.64895028 9 8
4.5376801 1.1802869 -1.0824645 5 1
36.029728 9.3649082 1.9509798 23 9
5.3474174 1.3879173 -1.073873 5 2
42.122059 10.917029 3.8069627 6 10
6.4596939 1.6729982 -1.0568714 2 3
42.453945 10.979328 5.3841877 4 11
8.1378994 2.1015763 -1.0319897 5 4
42.969147 11.08857 7.0286012 5 12
11.057172 2.8492908 -0.99897915 3 5
43.228397 11.123291 8.6764679 5 13
17.563787 4.5161572 -0.95042109 2 6
