# .PCD v0.7 - Point Cloud Data file format
VERSION 0.7
FIELDS x y z intensity ring
SIZE 4 4 4 4 2
TYPE F F F F U
COUNT 1 1 1 1 1
WIDTH 317
HEIGHT 1
VIEWPOINT 0 0 0 1 0 0 0
POINTS 317
DATA ascii
2.448947 0.49690908 0.39577925 10 12
2.4313862 0.46337175 0.39202482 69 12
2.4438848 0.45030135 0.39358914 69 12
2.4059503 0.44200817 0.47549605 24 13
2.4837985 0.44332683 0.30979189 9 11
2.4426243 0.43509805 0.39296341 71 12
2.3872676 0.42394808 0.47129822 53 13
2.4902978 0.429254 0.31027937 37 11
2.4335556 0.41816145 0.39108619 74 12
2.3898127 0.40935701 0.47129822 69 13
2.4889572 0.41338304 0.30979189 7 11
2.420404 0.40112916 0.38858327 72 12
2.3902631 0.39484823 0.47091663 13 13
2.4854858 0.39766487 0.30906066 8 11
2.4267108 0.38695821 0.389209 72 12
2.3867471 0.37973264 0.46977177 8 13
2.5242438 0.39032277 0.22346732 47 10
2.4877348 0.38334385 0.30906066 8 11
2.4347565 0.37387535 0.39014763 52 12
2.3831365 0.36467162 0.46862692 9 13
2.524545 0.37504372 0.22329301 78 10
2.4781837 0.36683035 0.30759826 8 11
2.4252069 0.35769102 0.38827038 69 12
2.3872008 0.35080862 0.46900854 9 13
2.5248165 0.35933429 0.22311871 75 10
2.4764476 0.35112765 0.30711079 8 11
2.4370661 0.34467733 0.38983473 69 12
2.3853526 0.33608967 0.46824533 10 13
2.5190077 0.3432703 0.22242144 75 10
2.4784875 0.33642691 0.30711079 45 11
2.4195507 0.32713681 0.38670605 71 12
2.3951437 0.32256001 0.46977177 11 13
2.5805187 0.33698323 0.13638751 61 9
2.5111787 0.32659119 0.22154988 70 10
2.4903398 0.32255515 0.30832946 39 11
2.4214492 0.31277296 0.38670605 71 12
2.5902879 0.32355559 0.1368062 8 9
2.5129635 0.31256074 0.22154988 47 10
2.4724021 0.30620131 0.30589208 7 11
2.4271314 0.29930449 0.38733178 69 12
2.3851116 0.29285511 0.46710047 84 13
2.5863197 0.30656973 0.13649218 10 9
2.5109205 0.29629925 0.22120127 7 10
2.4683626 0.28996697 0.30516088 8 11
2.4289639 0.28404948 0.38733178 71 12
2.3830042 0.27741018 0.46633717 74 13
2.3539162 0.2727749 0.54708099 9 14
2.6289032 0.29673782 0.046179067 12 8
2.5782201 0.28964999 0.13596882 70 9
2.5265439 0.28250501 0.22242144 10 10
2.4700878 0.274883 0.30516088 8 11
2.4267273 0.26877141 0.38670605 72 12
2.3768029 0.26240233 0.46481073 76 13
2.622664 0.28028214 0.046039447 66 8
2.5699635 0.27328923 0.13544546 93 9
2.4795263 0.26148424 0.3061358 8 11
2.3841763 0.24890484 0.46595559 78 13
2.3337281 0.2424019 0.54168218 73 14
2.6103079 0.26376575 0.045795113 8 8
2.5714948 0.25848377 0.13544546 84 9
2.511832 0.25115821 0.22085266 80 10
2.4810343 0.24676561 0.3061358 8 11
2.4120123 0.23862535 0.38389024 9 12
2.3894777 0.2355538 0.46671882 81 13
2.3447828 0.22990826 0.54393166 40 14
2.6038644 0.24751285 0.045655496 8 8
2.5709951 0.24303024 0.13534079 77 9
2.5033193 0.23575145 0.21998109 72 10
2.4725323 0.23154612 0.30491713 9 11
2.4231811 0.22564474 0.3854546 9 12
2.3732398 0.21974096 0.46328428 76 13
2.3441651 0.21581115 0.54348177 9 14
2.6902552 0.24719979 -0.047156405 0 7
2.6052468 0.23251256 0.045655496 8 8
2.5643942 0.22751328 0.1349221 77 9
2.5126126 0.22159339 0.22067833 72 10
2.4778178 0.21721743 0.3054046 34 11
2.4284134 0.21160524 0.38608032 9 12
2.3588543 0.20429972 0.46023133 42 13
2.3415213 0.20156345 0.54258198 9 14
2.675776 0.22939469 -0.046877164 45 7
2.6146274 0.21680078 0.045795113 8 8
2.5179267 0.206128 0.22102696 78 10
2.4652839 0.20051675 0.30369842 86 11
2.4257569 0.19602337 0.3854546 9 12
2.3894455 0.19182995 0.46595559 56 13
2.3388567 0.18653613 0.54168218 9 14
2.6651669 0.21209429 -0.046667732 59 7
2.6238785 0.20143698 0.045934737 9 8
2.5590506 0.19511242 0.13450342 8 9
2.5072188 0.18984027 0.21998109 81 10
2.4664629 0.18545561 0.30369842 90 11
2.4072099 0.17973293 0.38232586 9 12
2.390542 0.17764823 0.46595559 79 13
2.3302047 0.1719377 0.53943259 8 14
2.6644185 0.19566314 -0.04663283 77 7
2.6150541 0.18515663 0.045760211 9 8
2.57411 0.18090318 0.13523613 9 9
2.4963455 0.17456125 0.21893522 75 10
2.4773915 0.17193249 0.30491713 82 11
2.4022934 0.16545685 0.38138729 14 12
2.3798018 0.1626559 0.46366587 81 13
2.717953 0.18529147 -0.14277251 8 6
2.3370168 0.15850236 0.54078233 9 14
2.6535306 0.17950389 -0.046423402 76 7
2.5941269 0.1686645 0.045376256 63 8
2.5830815 0.16658828 0.13565481 9 9
2.474406 0.15697794 0.30442965 82 11
2.4012613 0.15107535 0.3810744 24 12
2.3767803 0.14870225 0.46290264 92 13
2.7329581 0.17002742 -0.1435052 59 6
2.328166 0.14443703 0.53853279 28 14
2.6605368 0.16412351 -0.046528116 71 7
2.5990744 0.15350327 0.045446068 64 8
2.568074 0.15032315 0.13481744 9 9
2.500205 0.14547475 0.21910954 8 10
2.4574327 0.1416951 0.30223599 70 11
2.4237852 0.1384818 0.38451597 9 12
2.3697805 0.1341515 0.46137619 81 13
2.707969 0.152822 -0.14214447 6 6
2.3211994 0.13018221 0.53673321 53 14
2.6534514 0.1483517 -0.046388499 73 7
2.6158903 0.1393833 0.045725305 72 8
2.5529411 0.13468876 0.13398007 9 9
2.5089829 0.13105237 0.21980678 9 10
2.4621954 0.12731589 0.3027235 62 11
2.4147003 0.12359241 0.38295162 9 12
2.3803387 0.12058302 0.46328428 89 13
2.704839 0.13654827 -0.14193512 8 6
2.3297162 0.11679573 0.53853279 79 14
2.6442993 0.13210408 -0.046213973 68 7
2.6146955 0.12330675 0.045690399 74 8
2.5537162 0.11909104 0.13398007 17 9
2.5057559 0.11553969 0.21945816 10 10
2.4728422 0.11272462 0.30394217 11 11
2.3956578 0.10836711 0.37982294 10 12
2.3770897 0.1062801 0.46252102 84 13
2.721585 0.12073071 -0.14277251 8 6
2.3264747 0.10279662 0.537633 83 14
2.63307 0.11542287 -0.046004545 48 7
2.6133833 0.10770611 0.045655496 78 8
2.5024161 0.10050807 0.21910954 19 10
2.396275 0.093731821 0.37982294 9 12
2.7042913 0.10388938 -0.14183044 7 6
2.3309538 0.08873228 0.53853279 87 14
2.2721887 0.085302845 0.60926002 92 15
2.5960062 0.091108426 0.04534135 76 8
2.5689378 0.0888118 0.13471277 77 9
2.4810796 0.084473871 0.2171921 58 10
2.4641006 0.0826042 0.3027235 86 11
2.4046862 0.07977102 0.3810744 9 12
2.3605373 0.077069223 0.45908648 8 13
2.7128603 0.0876256 -0.14224915 8 6
2.327544 0.074772112 0.537633 87 14
2.6482596 0.084151037 -0.046248876 7 7
2.272655 0.071817718 0.60926002 51 15
2.6004989 0.075819381 0.045411162 74 8
2.5634301 0.073395371 0.13439874 54 9
2.5054364 0.070422091 0.21928383 82 10
2.4506569 0.067597121 0.30101728 72 11
2.413027 0.065294839 0.38232586 9 12
2.3668516 0.062805273 0.46023133 10 13
2.6873772 0.070841193 -0.14088841 8 6
2.3318534 0.060654849 0.53853279 89 14
2.6487126 0.068434238 -0.046248876 7 7
2.2711198 0.057885215 0.60874242 10 15
2.5969152 0.059840109 0.04534135 34 8
2.4549935 0.052710697 0.30150479 80 11
2.4153473 0.051017161 0.38263875 30 12
2.3750341 0.048921634 0.46175778 10 13
2.7177126 0.055029932 -0.14245848 67 6
2.324379 0.046659648 0.53673321 96 14
2.6670752 0.052607644 -0.046563022 21 7
2.2772181 0.044520196 0.6102953 12 15
2.6132197 0.044702046 0.04562059 80 8
2.5521462 0.042320717 0.13377072 9 9
2.5001266 0.040148776 0.21876092 8 10
2.4592326 0.038204174 0.30199227 77 11
2.407707 0.036561981 0.38138729 80 12
2.3733196 0.034796927 0.46137619 9 13
2.7100031 0.038787171 -0.14203981 52 6
2.6373413 0.036827713 -0.046039447 53 7
2.2793739 0.031032233 0.61081296 12 15
2.6094346 0.029604616 0.045550782 76 8
2.5643303 0.027750131 0.13439874 9 9
2.492347 0.025666103 0.21806367 9 10
2.4673519 0.024116747 0.30296722 72 11
2.3960257 0.022583181 0.37951005 71 12
2.37937 0.021180335 0.46252102 11 13
2.7081842 0.023161976 -0.14193512 15 6
2.3169708 0.019411698 0.53493357 53 14
2.657506 0.021799624 -0.046388499 78 7
2.2679241 0.017813293 0.60770714 13 15
2.5895653 0.014462922 0.045201734 72 8
2.556459 0.012939503 0.13398007 13 9
2.4884689 0.011292462 0.21771504 9 10
2.4614947 0.0098812729 0.30223599 68 11
2.4020422 0.0088053243 0.38044867 81 12
2.3637466 0.0074273469 0.4594681 12 13
2.3287368 0.0060958574 0.537633 87 14
2.2699208 0.0047534341 0.60822481 13 15
2.593605 -0.00045266945 0.045271542 76 8
2.4964621 -0.0030500053 0.21841228 10 10
2.4060037 -0.0050391294 0.3810744 84 12
2.3794563 -0.0062294155 0.46252102 24 13
2.3287332 -0.0073159547 0.537633 87 14
2.6355841 -0.0087399604 -0.046004545 6 7
2.2679787 -0.0083126137 0.60770714 14 15
2.59955 -0.016787395 0.045376256 78 8
2.5484402 -0.017791757 0.13356137 84 9
2.4983861 -0.018750528 0.21858659 10 10
2.453495 -0.019698342 0.30126104 9 11
2.4138258 -0.020222491 0.38232586 91 12
2.3715174 -0.021109859 0.46099457 35 13
2.3169491 -0.021837378 0.53493357 87 14
2.6354773 -0.025299544 -0.046004545 8 7
2.2756088 -0.02263936 0.60977769 14 15
2.5994101 -0.031759366 0.045376256 78 8
2.5443015 -0.032418452 0.13335203 86 9
2.4982367 -0.03313981 0.21858659 10 10
2.4632654 -0.033965904 0.30247974 9 11
2.3978679 -0.033901315 0.37982294 96 12
2.3733196 -0.034797177 0.46137619 9 13
2.3206823 -0.035240792 0.53583342 83 14
2.623291 -0.040294025 -0.045795113 8 7
2.548058 -0.047590572 0.13356137 84 9
2.4900279 -0.047810979 0.21788934 72 10
2.4630203 -0.048582532 0.30247974 9 11
2.399591 -0.048588321 0.38013577 69 12
2.3730628 -0.049294218 0.46137619 12 13
2.3243203 -0.049499273 0.53673321 95 14
2.6269941 -0.056403797 -0.045864921 7 7
2.5808473 -0.062623836 0.045062114 8 8
2.5596995 -0.06345176 0.13418941 82 9
2.4857059 -0.062919877 0.21754073 75 10
2.4507713 -0.063319646 0.30101728 9 11
2.4012353 -0.062878564 0.38044867 79 12
2.3589904 -0.063008368 0.45870483 12 13
2.3278813 -0.063397214 0.537633 94 14
2.6325977 -0.072615452 -0.045969639 7 7
2.5864263 -0.078118816 0.045166828 10 8
2.5552855 -0.078517437 0.13398007 86 9
2.4972372 -0.078042567 0.21858659 94 10
2.4444001 -0.077672474 0.30028611 9 11
2.4047549 -0.077673137 0.3810744 81 12
2.3605373 -0.077069774 0.45908648 12 13
2.3274643 -0.077209949 0.537633 81 14
2.634119 -0.088303231 -0.046004545 7 7
2.5859175 -0.093465507 0.045166828 8 8
2.5388072 -0.093093827 0.13314268 82 9
2.4967465 -0.092424236 0.21858659 81 10
2.4498632 -0.091973253 0.30101728 48 11
2.4042678 -0.091522172 0.3810744 79 12
2.3659236 -0.091303177 0.46023133 12 13
2.5973239 -0.10886011 0.045376256 8 8
2.492173 -0.10706749 0.21823798 75 10
2.4512575 -0.10659558 0.30126104 55 11
2.3957884 -0.10544027 0.37982294 84 12
2.3731856 -0.10569053 0.46175778 11 13
2.6488876 -0.11982201 -0.046283782 77 7
2.5846477 -0.12369739 0.045166828 8 8
2.5415349 -0.12296791 0.13335203 9 9
2.4775634 -0.12117306 0.21701778 50 10
2.4565299 -0.1214337 0.30199227 10 11
2.3872287 -0.11926097 0.37857145 79 12
2.6201708 -0.13410759 -0.045795113 68 7
2.573884 -0.1384955 0.044992302 11 8
2.5507321 -0.1385892 0.13387538 12 9
2.4458556 -0.13545994 0.30077356 10 11
2.3943682 -0.13386597 0.37982294 81 12
2.3423851 -0.13177988 0.45603353 24 13
2.6253181 -0.14999574 -0.045899831 73 7
2.5690248 -0.15352814 0.044922493 46 8
2.4859209 -0.15073898 0.21788934 30 10
2.4351282 -0.14893882 0.29955488 9 11
2.3935575 -0.14765424 0.37982294 81 12
2.6343894 -0.16574173 -0.046074353 68 7
2.5820658 -0.16923754 0.045166828 12 8
2.5329938 -0.1673532 0.13303801 94 9
2.4929345 -0.16601756 0.21858659 68 10
2.4460852 -0.16418409 0.30101728 9 11
2.3926392 -0.16185521 0.37982294 81 12
2.6154048 -0.18013488 -0.045760211 55 7
2.5989349 -0.18629396 0.045480974 8 8
2.5319242 -0.18282317 0.13303801 95 9
2.4938612 -0.18138735 0.21876092 80 10
2.4470165 -0.17926827 0.30126104 9 11
2.3876965 -0.17576046 0.37919718 44 12
2.6182439 -0.19640721 -0.045830019 42 7
2.5838277 -0.20062932 0.045236636 8 8
2.5407505 -0.19862288 0.13356137 80 9
2.478837 -0.19508871 0.21754073 78 10
2.4518461 -0.19425625 0.30199227 9 11
2.5805616 -0.21624225 0.045201734 9 8
2.4775991 -0.21022733 0.21754073 78 10
2.4506137 -0.20923004 0.30199227 11 11
2.5732172 -0.23146437 0.04509702 9 8
2.5401239 -0.22982843 0.13366605 8 9
2.480237 -0.22571923 0.21788934 75 10
2.4492898 -0.22419599 0.30199227 69 11
2.5837853 -0.24742486 0.045306448 12 8
2.5367696 -0.24426313 0.13356137 9 9
2.4808791 -0.24019258 0.21806367 70 10
2.5273731 -0.25805825 0.13314268 9 9
2.4834185 -0.25488415 0.21841228 70 10
2.5846429 -0.27850017 0.045376256 75 8
2.5416348 -0.27521226 0.13398007 9 9
2.4639888 -0.26810998 0.21684349 42 10
2.5690367 -0.29225054 0.045131925 76 8
2.5379727 -0.2900629 0.13387538 11 9
2.5732136 -0.3082037 0.045236636 78 8
2.5421555 -0.305834 0.13418941 13 9
2.5713394 -0.32346797 0.045236636 78 8
2.5303886 -0.31966236 0.13366605 64 9
2.5773048 -0.33976623 0.045376256 78 8
2.5792673 -0.35515028 0.045446068 81 8
2.553298 -0.36748099 0.045027211 42 8
