# .PCD v0.7 - Point Cloud Data file format
VERSION 0.7
FIELDS x y z intensity ring
SIZE 4 4 4 4 2
TYPE F F F F U
COUNT 1 1 1 1 1
WIDTH 1271
HEIGHT 1
VIEWPOINT 0 0 0 1 0 0 0
POINTS 1271
DATA ascii
10.379165 1.2009107 0.18237765 13 8
4.2860904 0.49440372 -0.9960832 1 1
10.390956 1.1967621 0.54816687 13 9
5.2856913 0.60690188 -1.0341848 1 2
10.376142 1.1895515 0.91374075 2 10
10.403844 1.187209 1.2857217 17 11
9.1162987 1.0370607 -1.1265603 2 4
10.424201 1.1840036 1.6616471 43 12
10.330074 1.1714864 -0.90955734 10 5
10.462288 1.1827815 2.0466175 63 13
10.369828 1.1704959 -0.54691082 13 6
10.463015 1.1773158 2.4308212 47 14
10.389051 1.1671573 -0.18248236 12 7
9.1768818 1.0277327 2.4743102 34 15
3.6659148 0.40213192 -0.9881711 1 0
10.577137 1.1583841 0.18572851 20 8
4.3121953 0.47150233 -1.0014821 1 1
10.618463 1.1572841 0.55978543 22 9
5.2501645 0.57127988 -1.0265524 1 2
10.682311 1.1585839 0.94006181 10 10
10.823391 1.168152 1.336663 28 11
10.736753 1.1569057 -1.3259385 1 4
10.90045 1.1726199 1.7364228 16 12
10.70551 1.1478695 -0.94197923 13 5
10.974717 1.1747971 2.1454566 30 13
10.734262 1.1452678 -0.56575173 14 6
10.53764 1.1224296 2.4465675 28 14
10.799657 1.1465266 -0.18956804 12 7
9.1770573 0.97264647 2.4727573 35 15
3.6682367 0.38037059 -0.9881711 1 0
11.128828 1.1520188 0.19529243 12 8
4.3111181 0.44475159 -1.0005823 1 1
11.165539 1.1499108 0.58825624 16 9
5.2535563 0.53919744 -1.0265524 1 2
11.238015 1.1514289 0.9883461 10 10
11.381118 1.1600646 1.4046662 26 11
11.288699 1.1466688 -1.3932104 1 4
11.477346 1.1638018 1.8271548 19 12
11.255273 1.139299 -0.98974061 16 5
11.542298 1.1642828 2.2549808 37 13
11.269468 1.1347754 -0.59359449 14 6
10.532665 1.0568699 2.4438682 30 14
11.327583 1.1346368 -0.19871311 12 7
9.182827 0.91656816 2.4727573 35 15
3.662801 0.35720518 -0.98610061 1 0
11.577502 1.1270262 0.2030413 8 8
4.2787685 0.41576818 -0.99248403 1 1
11.667358 1.1296072 0.6143195 11 9
5.28793 0.51103389 -1.0326583 1 2
11.685114 1.1251513 1.0270432 4 10
12.016377 1.1506933 1.4821751 28 11
12.111346 1.1555274 1.92696 15 12
12.160753 1.1538166 2.3744273 33 13
12.497064 1.1813186 -0.65786302 15 6
10.544572 0.99490237 2.4452181 30 14
12.49899 1.1748985 -0.21913242 16 7
9.1881046 0.86206371 2.4727573 35 15
3.6648562 0.33546311 -0.98610061 1 0
12.533885 1.1450851 0.21969089 16 8
4.3161616 0.39280179 -1.0005823 1 1
12.56496 1.1412909 0.66121256 13 9
12.582542 1.1362461 1.1053091 9 10
12.66161 1.1367031 1.5609027 25 11
12.630175 1.1316531 -1.5570029 1 4
12.808792 1.1431566 2.036777 15 12
12.502556 1.1136203 -1.0981623 7 5
12.277088 1.0892243 2.395798 39 13
12.539665 1.1103085 -0.65974712 15 6
10.55029 0.9323113 2.4452181 30 14
12.645183 1.1129793 -0.22157577 16 7
9.193058 0.80752444 2.4727573 33 15
3.6629329 0.31338158 -0.98506534 1 0
13.070451 1.1159362 0.22897558 15 8
4.2989988 0.3655329 -0.9960832 1 1
13.132723 1.1143271 0.69073004 13 9
5.3132639 0.44897145 -1.0364745 1 2
13.317684 1.1229988 1.1692814 11 10
13.400052 1.1228789 1.651086 24 11
13.5575 1.1289247 2.1547287 15 12
12.28725 1.0166742 2.3965611 37 13
13.188959 1.0889663 -0.69355619 13 6
10.542042 0.86857229 2.4420688 30 14
13.390965 1.0985867 -0.23452544 15 7
9.2073135 0.75374913 2.4753454 34 15
3.6647279 0.29163948 -0.98506534 1 0
13.880191 1.1021495 0.24304222 16 8
4.3127484 0.34093681 -0.99878263 1 1
13.957434 1.1009296 0.73375016 17 9
5.3354063 0.4189705 -1.0402907 1 2
14.118634 1.1062069 1.239006 10 10
14.233746 1.1077282 1.7529688 19 11
14.383272 1.1117891 2.2848821 15 12
12.295022 0.94389737 2.3969426 40 13
13.930025 1.0669656 -0.73218012 5 6
10.560612 0.80703264 2.4452181 30 14
14.0054 1.0653634 -0.2451714 3 7
9.2154779 0.69938582 2.4763808 34 15
3.6625407 0.26960349 -0.98403007 1 0
14.789916 1.0861062 0.25885409 15 8
4.361341 0.31874716 -1.0095804 1 1
14.969667 1.0914267 0.78660947 9 9
5.3182182 0.38587844 -1.0364745 1 2
15.035085 1.0882827 1.3188407 10 10
15.142942 1.0881202 1.8641136 19 11
14.653646 1.0452495 2.3268065 18 12
14.378585 1.0231072 -1.2611436 1 5
12.29649 0.8706423 2.3961794 39 13
14.976089 1.0577422 -0.7868188 11 6
10.559383 0.74393874 2.4438682 30 14
15.134547 1.0609708 -0.26482281 11 7
9.2040482 0.64360887 2.4722395 34 15
3.6794956 0.24890754 -0.9881711 1 0
15.456498 1.0428789 0.27040759 4 8
4.3514895 0.29207742 -1.006881 1 1
15.866661 1.0622085 0.83339787 13 9
5.3204141 0.35431477 -1.0364745 1 2
16.057152 1.0665166 1.4079139 10 10
16.159338 1.0648065 1.9884202 17 11
14.657619 0.95814455 2.3264937 20 12
14.382414 0.93763417 -1.2609693 0 5
12.297522 0.7974031 2.3954163 38 13
16.179953 1.0463142 -0.84972662 8 6
10.577343 0.68030113 2.4470174 28 14
16.230171 1.0410289 -0.28388086 11 7
9.2135925 0.58774096 2.4737926 35 15
3.6732345 0.22595319 -0.98610061 1 0
16.773916 1.0288743 0.29334006 12 8
4.3259149 0.26458409 -1.0005823 1 1
18.623989 1.1325663 0.97784507 13 9
17.208902 1.0374687 1.5083174 10 10
17.287104 1.0330997 2.1263764 15 11
14.680794 0.87220079 2.3293095 21 12
18.558645 1.0960873 -1.6265004 4 5
12.298118 0.72418213 2.3946528 38 13
18.550747 1.0858747 -0.9738676 18 6
10.573412 0.61706692 2.4452181 30 14
18.603886 1.0792117 -0.32527795 33 7
9.2149887 0.53294808 2.4732749 33 15
3.6745107 0.20415148 -0.98610061 1 0
18.610641 1.0307274 0.32534775 18 8
4.307992 0.2370825 -0.9960832 1 1
18.626394 1.0218179 0.97763574 17 9
5.3713436 0.29278141 -1.0456334 1 2
18.51387 1.0059229 1.6221427 11 10
18.133394 0.97572851 2.2297218 10 11
18.605339 0.99785781 -2.2877316 1 4
14.666121 0.78145957 2.3261807 19 12
18.576763 0.98657131 -1.6275464 6 5
12.31004 0.65160495 2.3961794 39 13
18.608719 0.97849834 -0.97658908 24 6
10.57105 0.55400532 2.4438682 30 14
18.689842 0.97295177 -0.32667413 16 7
9.2295647 0.47885558 2.4763808 34 15
3.6756575 0.18234259 -0.98610061 1 0
19.00989 0.93971986 0.33222401 8 8
4.3404284 0.21380194 -1.0032817 1 1
26.866972 1.3140199 1.4097214 47 9
5.372941 0.26184189 -1.0456334 1 2
23.659643 1.1488655 2.0723894 11 10
18.158541 0.87221342 2.2321589 19 11
26.752468 1.2756612 -3.2885227 2 4
14.664459 0.69668609 2.325242 17 12
24.007317 1.1363631 -2.1027195 9 5
12.321536 0.57891184 2.397706 38 13
24.028679 1.1247659 -1.2606686 63 6
10.583884 0.49171698 2.4461179 31 14
24.893557 1.1521766 -0.43498379 56 7
9.2379589 0.42595965 2.4779336 35 15
3.6612067 0.16049212 -0.98195946 1 0
26.844334 1.1720504 0.46901596 76 8
4.3221512 0.18719795 -0.99878263 1 1
26.876091 1.159339 1.4098262 92 9
26.777849 1.1457373 -5.2098489 1 2
23.666042 1.0084554 2.0723894 11 10
26.75038 1.130531 -4.2406259 1 3
18.15943 0.7642833 2.2316716 18 11
26.759567 1.1168841 -3.2885227 2 4
14.670311 0.60974103 2.3255551 18 12
23.981787 0.99254918 -2.0999305 9 5
12.320829 0.50562793 2.3969426 39 13
24.040918 0.9823882 -1.2609826 78 6
10.582722 0.42874867 2.4452181 30 14
24.887966 1.0039492 -0.43477434 45 7
9.2288065 0.3690564 2.4748278 35 15
3.658258 0.13797821 -0.98092425 1 0
26.835007 1.0074438 0.46873674 83 8
4.3504496 0.16256699 -1.0050814 1 1
26.878679 0.994991 1.4096168 99 9
26.741014 0.9852345 -5.2014537 1 2
23.695656 0.8647393 2.074481 13 10
26.756617 0.97178167 -4.2406259 1 3
18.165743 0.65340948 2.2319155 20 11
26.781595 0.95864868 -3.2904727 2 4
14.677619 0.52281433 2.3261807 18 12
23.983419 0.84591508 -2.099582 9 5
12.311841 0.43209159 2.3946528 38 13
24.04048 0.83532542 -1.2606686 85 6
10.592869 0.3662104 2.4470174 30 14
25.239378 0.86374074 -0.44081289 12 7
9.230834 0.31428427 2.4748278 33 15
3.6860442 0.11712765 -0.9881711 1 0
26.832516 0.847929 0.46859711 30 8
4.3318839 0.13537954 -1.0005823 1 1
26.882114 0.83540785 1.4095122 16 9
5.474896 0.16823161 -1.0647143 1 2
23.734224 0.72514355 2.0774441 15 10
18.151443 0.5450626 2.2297218 19 11
14.692386 0.4334926 2.328058 18 12
24.009922 0.70422012 -2.1014993 1 5
12.318176 0.35698766 2.3954163 39 13
24.035032 0.69235051 -1.2601453 87 6
10.59296 0.30143923 2.4465675 30 14
26.897146 0.76070237 -0.46967915 7 7
9.2383757 0.25805163 2.4763808 37 15
3.6635165 0.094013736 -0.98195946 1 0
4.3131294 0.10917775 -0.9960832 1 1
28.74159 0.71749407 1.5067523 2 9
5.3187857 0.13184731 -1.0341848 1 2
23.750162 0.58043629 2.0784903 15 10
18.146496 0.43398038 2.2287467 19 11
14.686799 0.34611818 2.3268065 19 12
14.536541 0.33750042 -1.2721252 0 5
12.325966 0.28402436 2.3965611 39 13
10.578978 0.23822722 2.4429684 30 14
29.046438 0.64395106 -0.50713199 2 7
3.6794617 0.072576813 -0.98610061 1 0
33.492496 0.65478688 0.58472544 28 8
4.3137155 0.082827993 -0.9960832 1 1
33.905323 0.6450994 1.7772245 3 9
23.765139 0.43972024 2.079536 13 10
18.178524 0.32683167 2.2324028 20 11
14.678764 0.25622174 2.325242 20 12
12.347064 0.21121034 2.4003773 43 13
28.195343 0.47246861 -1.4778628 21 6
10.603587 0.17583294 2.4483674 33 14
9.1982908 0.14771257 2.4649925 4 15
3.6759644 0.050687589 -0.98506534 1 0
39.876232 0.54288971 0.69610667 30 8
4.3608871 0.058611587 -1.006881 1 1
34.224098 0.44801766 1.7937628 10 9
23.771261 0.30288398 2.0798845 13 10
18.172165 0.22202669 2.2314279 20 11
14.571358 0.17040202 2.3080344 27 12
12.34221 0.13787085 2.3992324 41 13
31.430965 0.34561905 -1.6473267 25 6
10.604444 0.11290601 2.4483674 32 14
9.1931953 0.094671197 2.4634397 4 15
3.6607411 0.029392025 -0.98092425 1 0
4.3182869 0.032410394 -0.99698305 1 1
34.240089 0.25100899 1.7944955 10 9
23.794558 0.16197568 2.0818021 13 10
18.16522 0.11414421 2.2304528 21 11
14.708412 0.084721655 2.3296225 19 12
14.412721 0.080496155 -1.2609693 0 5
12.331019 0.066717595 2.3969426 38 13
39.802864 0.201462 -2.0860066 10 6
10.608815 0.051844943 2.4492671 31 14
47.86422 0.21720378 -0.83548158 63 7
9.1974583 0.040132098 2.4644749 4 15
3.6531234 0.0076499945 -0.97885364 1 0
48.620506 0.093353845 0.84867561 76 8
4.310607 0.0075242841 -0.99518347 1 1
34.232986 0.047805753 1.7940768 10 9
23.797087 0.024914596 2.0819762 15 10
18.173519 0.0095118815 2.2314279 21 11
14.702729 -0 2.3286836 18 12
14.440839 -0.0025204017 -1.2634096 0 5
12.33709 -0.0064596855 2.3980875 39 13
30.218523 -0.021096513 -1.5836862 2 6
10.597243 -0.01109741 2.4465675 30 14
48.790535 -0.059608914 -0.85164255 59 7
9.1956053 -0.012839494 2.4639573 4 15
3.6917415 -0.014175339 -0.98920643 1 0
48.616203 -0.19515899 0.84860581 76 8
4.3144698 -0.018825544 -0.9960832 1 1
34.242653 -0.15538931 1.7946001 10 9
5.2810912 -0.025808485 -1.0265524 1 2
23.832659 -0.12062895 2.085114 15 10
18.167282 -0.10146631 2.2306967 18 11
14.706406 -0.089837432 2.3293095 18 12
12.336834 -0.079668909 2.3980875 39 13
48.252663 -0.3284505 -2.5288737 9 6
10.591145 -0.073941335 2.4452181 31 14
48.789261 -0.35765037 -0.85164255 46 7
9.214674 -0.069156647 2.4691339 6 15
3.6490936 -0.035666808 -0.97781837 1 0
48.618191 -0.48368806 0.84867561 76 8
4.3376737 -0.043911375 -1.0014821 1 1
5.2808547 -0.056224793 -1.0265524 1 2
22.797579 -0.24670318 1.9946463 14 10
18.184259 -0.20630273 2.2328904 20 11
14.699718 -0.17446798 2.3283708 20 12
14.387994 -0.1732797 -1.2588775 0 5
12.351849 -0.15306993 2.4011405 39 13
48.273933 -0.60666007 -2.5301297 9 6
10.610005 -0.13704047 2.449717 31 14
48.788391 -0.63867509 -0.85167748 100 7
9.250824 -0.12271477 2.4789689 33 15
3.6565542 -0.056803398 -0.97988898 1 0
48.604603 -0.76354206 0.84850115 76 8
4.3217487 -0.069400407 -0.9978829 1 1
5.2804284 -0.08756084 -1.0265524 1 2
23.83161 -0.3993398 2.0852883 13 10
18.190655 -0.31434321 2.233865 20 11
14.696449 -0.26165909 2.328058 19 12
14.338902 -0.25779665 -1.2546941 0 5
12.346797 -0.22629219 2.4003773 39 13
48.24752 -0.89270449 -2.5289783 19 6
10.593418 -0.19970489 2.4461179 31 14
48.715767 -0.92688489 -0.85049069 41 7
9.2441072 -0.17910992 2.477416 36 15
3.6368251 -0.078720763 -0.97471261 2 0
48.585037 -1.0601293 0.84825683 76 8
4.3251572 -0.095130511 -0.99878263 2 1
34.274395 -0.76582474 1.7966936 10 9
5.3504753 -0.12048496 -1.0402907 1 2
23.834702 -0.54504716 2.0858111 13 10
18.176489 -0.4251785 2.2324028 20 11
14.706488 -0.3491458 2.3299353 19 12
12.335423 -0.299317 2.3984692 39 13
48.247154 -1.1875608 -2.5292923 19 6
10.611526 -0.2630465 2.4506166 31 14
48.729183 -1.2249559 -0.85083973 47 7
9.2312937 -0.23366877 2.4743102 34 15
3.6826406 -0.10157899 -0.98713589 1 0
48.583881 -1.3485847 0.84836143 68 8
4.3128076 -0.12122095 -0.9960832 1 1
34.295204 -0.96993256 1.7980543 10 9
5.2789907 -0.15114395 -1.0265524 1 2
23.854946 -0.68716311 2.087903 13 10
18.169676 -0.53291547 2.2319155 21 11
14.710003 -0.43915236 2.3308737 21 12
12.333364 -0.3746638 2.3984692 39 13
10.596087 -0.32744199 2.4474673 33 14
39.874672 -1.2391796 -0.69635099 100 7
9.2470722 -0.29060093 2.4789689 36 15
3.6742284 -0.12381268 -0.98506534 1 0
48.582737 -1.6456106 0.84850115 76 8
4.3314886 -0.14747448 -1.0005823 1 1
34.304607 -1.1799598 1.7988917 10 9
5.2780008 -0.18246727 -1.0265524 1 2
23.86026 -0.83321857 2.0887744 13 10
18.170052 -0.64403772 2.2324028 5 11
14.720957 -0.52692968 2.3330638 17 12
14.383631 -0.51988256 -1.2592262 0 5
12.344658 -0.44834319 2.4011405 39 13
39.836525 -1.4607389 -2.0891469 52 6
10.599801 -0.39052957 2.4488173 32 14
9.2509775 -0.34568518 2.4805219 37 15
3.6734288 -0.14561369 -0.98506534 1 0
48.582108 -1.9342735 0.84867561 68 8
4.2993522 -0.17267983 -0.99338388 1 1
34.340904 -1.3852764 1.8011944 14 9
5.2767878 -0.21470511 -1.0265524 1 2
23.86883 -0.97536218 2.0899947 13 10
2.9532743 -0.12222985 0.36292693 1 11
39.856342 -1.677444 -3.4900646 3 5
12.345611 -0.52391005 2.4019036 39 13
39.829147 -1.6971916 -2.0892515 51 6
10.603059 -0.45552328 2.4501667 30 14
39.842876 -1.7186767 -0.69610667 132 7
9.2486935 -0.4021894 2.4805219 36 15
3.6686113 -0.16787392 -0.98403007 1 0
39.927811 -1.8340609 0.69767737 71 8
4.3293991 -0.19962566 -1.0005823 1 1
34.345764 -1.5956748 1.8019271 10 9
5.2754211 -0.24601425 -1.0265524 1 2
2.9207466 -0.13876075 0.35902712 37 11
2.9162691 -0.1395683 0.46242031 26 12
39.801567 -1.9187691 -3.4862294 3 5
12.332481 -0.59668642 2.3999958 38 13
10.590437 -0.51795876 2.4479175 32 14
9.2345657 -0.45649251 2.477416 36 15
3.6559749 -0.18904226 -0.98092425 1 0
39.91423 -2.0708601 0.69764251 76 8
4.3203139 -0.22566196 -0.99878263 1 1
34.391537 -1.8023843 1.8048579 3 9
5.2973461 -0.27947637 -1.0311319 1 2
2.8630402 -0.15154883 0.25083423 23 10
2.9054995 -0.15684764 0.46085599 46 12
14.284423 -0.77361667 -1.2515564 0 5
12.330683 -0.66996431 2.4003773 39 13
39.819782 -2.1774735 -2.0899842 15 6
10.602744 -0.58164817 2.4515166 33 14
9.2278366 -0.51106954 2.4763808 37 15
3.6355021 -0.20962173 -0.97574782 1 0
39.897243 -2.3074472 0.69757271 66 8
4.2994876 -0.24941273 -0.99428362 1 1
5.3113279 -0.31089988 -1.0341848 1 2
2.8322854 -0.16628455 0.24821955 52 10
2.8693841 -0.16997024 0.35293365 4 11
2.888773 -0.17263669 0.45835301 41 12
14.235977 -0.85325325 -1.2477216 0 5
12.328451 -0.74324203 2.400759 40 13
40.005943 -2.4188356 -2.1004515 43 6
10.602995 -0.64479202 2.4524164 31 14
9.236311 -0.56491697 2.4794867 36 15
3.6727939 -0.23300335 -0.98610061 2 0
4.2979321 -0.27492186 -0.99428362 1 1
2.7944148 -0.17923747 0.14675003 41 9
5.270206 -0.33988523 -1.0265524 1 2
2.8193197 -0.1823172 0.24717368 50 10
2.8623822 -0.186607 0.35220242 3 11
14.208794 -0.93627483 -1.2458042 0 5
12.327741 -0.81664652 2.4015222 41 13
19.601851 -1.3019536 -1.0295531 2 6
10.575771 -0.70429599 2.4470174 31 14
9.2405052 -0.62023348 2.4815571 37 15
3.6790555 -0.25532892 -0.9881711 1 0
2.7529247 -0.19153762 0.048168644 6 8
4.2923374 -0.30014944 -0.99338388 1 1
5.268096 -0.37115312 -1.0265524 1 2
2.7943385 -0.19735965 0.24508193 54 10
2.8335032 -0.20161684 0.34879011 7 11
2.8412035 -0.20365998 0.45115703 4 12
14.189077 -1.0195749 -1.244584 0 5
12.338343 -0.89091724 2.4045751 45 13
17.541971 -1.2697343 -0.92174101 2 6
10.583069 -0.76788729 2.449717 33 14
9.2366619 -0.67505652 2.4815571 36 15
2.552465 -0.19236882 -0.68587047 10 0
2.7278111 -0.20606273 0.047749784 46 8
2.7442946 -0.20875309 0.14423791 4 9
2.7712662 -0.21226427 0.24316452 46 10
2.8362153 -0.21873283 0.34927759 69 11
9.1557264 -0.70770973 -1.1275353 1 4
2.8320673 -0.21990465 0.44990557 3 12
13.227327 -1.0293994 -1.1607401 27 5
12.321262 -0.96104974 2.4022853 28 13
13.259113 -1.0388581 -0.69701034 43 6
10.582211 -0.83097965 2.4506166 31 14
2.6972106 -0.21274874 -0.047226213 0 7
9.2247906 -0.72924685 2.4794867 39 15
2.5397253 -0.20657228 -0.68276465 10 0
2.7046165 -0.22045913 0.047365833 53 8
2.5579705 -0.20895511 -0.59252107 22 1
2.7489793 -0.22552422 0.14455192 7 9
2.586695 -0.21266504 -0.50449902 1 2
2.7501411 -0.22658598 0.24142142 29 10
2.5710564 -0.21273467 -0.40860689 1 3
2.7854509 -0.23096362 0.34318411 51 11
9.2067566 -0.76664042 -1.13436 1 4
2.8110683 -0.23456982 0.4467769 7 12
13.213236 -1.1049018 -1.1600429 18 5
10.569326 -0.89310449 2.4488173 33 14
2.6780074 -0.22676146 -0.04691207 30 7
9.2165861 -0.78203869 2.4784513 34 15
2.5327199 -0.22069345 -0.68121177 10 0
2.6734204 -0.23342377 0.046842258 8 8
2.5198011 -0.22089717 -0.58397293 59 1
2.7297287 -0.23978047 0.14360988 61 9
2.577565 -0.22732107 -0.50297254 23 2
2.7289016 -0.24114777 0.23967829 55 10
2.5815544 -0.22903518 -0.41048408 68 3
2.7801142 -0.24860764 0.44208387 29 12
13.40468 -1.2034107 -1.177474 4 5
2.8039856 -0.2522223 0.5472402 31 13
2.6356437 -0.23800722 -0.13869029 29 6
10.575486 -0.95686173 2.4515166 33 14
2.6726315 -0.24228787 -0.046842258 41 7
9.2308779 -0.84007555 2.4836278 39 15
2.5255542 -0.23562239 -0.67965883 8 0
2.6619892 -0.24881981 0.046667732 5 8
2.5067632 -0.2351933 -0.5812735 107 1
2.7023625 -0.25402093 0.14224915 26 9
2.5683095 -0.24232449 -0.50144607 14 2
2.7214267 -0.25725058 0.23915535 54 10
2.7350392 -0.25998226 0.33733436 4 11
2.5946438 -0.24755071 -0.32002893 5 4
2.5822351 -0.24773127 -0.22695355 2 5
2.8043468 -0.2695339 0.54762185 45 13
10.565563 -1.0210705 2.4506166 32 14
2.6631401 -0.25783864 -0.046702638 56 7
9.2198038 -0.89588714 2.4820747 39 15
2.5279121 -0.25142801 -0.6806941 11 0
2.6504705 -0.26408494 0.04649321 6 8
2.5033407 -0.25030789 -0.5808236 150 1
2.6709509 -0.26753798 0.14067906 5 9
2.5511544 -0.25643796 -0.49839315 19 2
2.6999812 -0.2718738 0.23741224 49 10
2.72945 -0.27628484 0.33684689 9 11
2.5812795 -0.26174164 -0.31856647 21 4
2.7238078 -0.27715462 0.43363637 4 12
2.5708089 -0.2620399 -0.226082 29 5
2.7870235 -0.28506145 0.5445689 48 13
2.5749676 -0.26382613 -0.13565481 4 6
10.536056 -1.0813618 2.4452181 26 14
2.6117861 -0.26898044 -0.045830019 52 7
9.2047186 -0.94959146 2.4794867 35 15
2.4994791 -0.26358798 -0.67344719 33 0
2.636925 -0.278548 0.046283782 46 8
2.5056872 -0.2655693 -0.58172345 158 1
2.6613717 -0.28253952 0.14026037 4 9
2.6745462 -0.28535444 0.23532049 52 10
2.5455453 -0.27248967 -0.40547815 255 3
2.7178936 -0.29141861 0.33562821 50 11
2.5678384 -0.2757827 -0.31710407 39 4
2.7221153 -0.29331306 0.43363637 4 12
2.5612853 -0.27643555 -0.22538476 30 5
2.7521017 -0.29800195 0.53808141 11 13
2.5733566 -0.27910158 -0.13565481 5 6
9.8668833 -1.0718864 2.2913516 19 14
2.5882766 -0.28209099 -0.045446068 49 7
9.2085218 -1.0052444 2.4820747 38 15
2.5093906 -0.27969944 -0.67655301 12 0
2.6153524 -0.29197222 0.045934737 56 8
2.5118136 -0.28130111 -0.58352304 162 1
2.6517091 -0.2974368 0.13984169 6 9
2.5596368 -0.28801402 -0.50068283 41 2
2.6530075 -0.29898912 0.23357739 16 10
2.536082 -0.28626013 -0.40422669 255 3
2.7023089 -0.30597833 0.33392206 59 11
2.5839086 -0.2930288 -0.3192977 25 4
2.7085507 -0.30812147 0.43175918 4 12
2.5813751 -0.29411054 -0.22730216 11 5
2.7171793 -0.31006387 0.53159386 3 13
2.5557809 -0.29255009 -0.13481744 5 6
9.2562981 -1.0611684 2.1509819 17 14
2.5746374 -0.29607436 -0.045236636 31 7
9.0853262 -1.0463876 2.4504988 17 15
2.523036 -0.2963886 -0.6806941 8 0
2.5976856 -0.30561757 0.045655496 60 8
2.4985394 -0.29439518 -0.5808236 159 1
2.632046 -0.31105736 0.13889964 5 9
2.604727 -0.30828977 -0.50984168 10 2
2.6255202 -0.31121546 0.23131134 3 10
2.5402236 -0.30200404 -0.40516531 250 3
2.6650209 -0.31731278 0.32953474 50 11
2.5998638 -0.31047523 -0.32149133 6 4
2.7028081 -0.32324725 0.43113342 17 12
2.5895293 -0.31015792 -0.22817372 2 5
2.7133424 -0.32594824 0.53121227 4 13
2.5441387 -0.30607259 -0.13429408 6 6
8.5747519 -1.0376589 2.3143599 21 15
2.534708 -0.31257024 -0.68431759 7 0
2.5919132 -0.32008386 0.045585688 55 8
2.5025506 -0.30993509 -0.58217329 137 1
2.606426 -0.32326171 0.13764358 35 9
2.579473 -0.32083318 -0.50526226 6 2
2.6315358 -0.32777509 0.23200859 7 10
2.5697489 -0.32099015 -0.41017124 162 3
2.6493027 -0.33139688 0.32782856 57 11
2.6773229 -0.33632571 0.42737901 25 12
8.5931902 -1.0810016 -0.75773197 11 5
2.7074649 -0.34155232 0.53044903 19 13
2.5323701 -0.31991267 -0.13377072 53 6
2.706604 -0.3428835 0.62986296 22 14
2.5491774 -0.32339215 -0.044852685 5 7
8.1140652 -1.0322394 2.1916797 19 15
2.5384991 -0.32879245 -0.68587047 7 0
2.5780108 -0.33436763 0.045376256 60 8
2.5984612 -0.33840355 0.13732956 71 9
2.5775239 -0.33613437 -0.50526226 2 2
2.5998509 -0.33996898 0.22939391 40 10
2.6400273 -0.34756619 0.42174736 4 12
8.0886631 -1.0677652 -0.71380556 11 5
2.6917663 -0.35581169 0.52777767 43 13
2.5165088 -0.33353904 -0.13303801 57 6
2.6987262 -0.35816953 0.62851328 46 14
2.5233679 -0.33579269 -0.044433825 5 7
7.6999178 -1.0260206 2.081423 20 15
2.528846 -0.3428123 -0.68379998 6 0
2.5502214 -0.3461633 0.044922493 30 8
7.7068148 -1.0529617 -1.5119705 1 2
2.5898917 -0.35431051 0.22869666 65 10
2.6352866 -0.36192656 0.32660985 61 11
7.6104999 -1.047922 -0.94326878 7 4
2.6339409 -0.36314699 0.42112163 4 12
7.6460028 -1.0555304 -0.67528266 21 5
2.673985 -0.37009472 0.52472478 46 13
2.506572 -0.34736967 -0.13261932 60 6
2.6926274 -0.37411198 0.62761348 49 14
2.5094471 -0.34910738 -0.0442244 5 7
7.2917061 -1.016997 1.9727188 14 15
2.5343556 -0.35933846 -0.68587047 1 0
2.5262811 -0.35864341 0.044538539 61 8
4.271574 -0.6071744 -0.9960832 2 1
2.582334 -0.36798033 0.13670154 6 9
7.366137 -1.0509799 -1.4463322 1 2
2.5778172 -0.368714 0.22782511 47 10
2.6133769 -0.3751967 0.32417247 67 11
7.2642207 -1.0442019 -0.90110201 14 4
2.6200082 -0.37708217 0.41924441 5 12
7.2607942 -1.04759 -0.64181489 21 5
2.4826601 -0.35952616 -0.13146794 68 6
2.6845744 -0.38924477 0.62626374 51 14
2.5013311 -0.36356726 -0.044119682 33 7
6.9414349 -1.0101714 1.879544 23 15
3.6216798 -0.53415722 -0.98092425 2 0
2.510391 -0.37070227 0.044294208 58 8
4.2468009 -0.62862784 -0.99113435 2 1
2.5604815 -0.37946898 0.13565481 6 9
6.9909921 -1.0385746 -1.3738248 1 2
2.5700107 -0.38363212 0.31905395 54 11
6.9146996 -1.0334088 -0.85844773 11 4
2.6080253 -0.39070269 0.41768005 6 12
6.9080486 -1.0361128 -0.61113608 22 5
2.6306453 -0.39549983 0.51709241 4 13
2.4707384 -0.37189987 -0.13094458 64 6
2.659235 -0.40074733 0.62086493 50 14
2.4972842 -0.37723294 -0.044084776 5 7
6.6224232 -1.0015473 1.7946514 18 15
3.6184464 -0.55563921 -0.98092425 2 0
2.508147 -0.38559264 0.044294208 52 8
4.2506995 -0.65500474 -0.99293393 3 1
2.5246282 -0.38947958 0.13387538 7 9
6.6160688 -1.0230392 -1.3013173 1 2
2.5478029 -0.39442074 0.22555906 5 10
6.5802522 -1.021029 -1.0546813 2 3
2.5598428 -0.39765719 0.31807902 55 11
6.5887194 -1.0246983 -0.81871831 17 4
6.5966511 -1.0294695 -0.58411777 22 5
2.6088555 -0.40806937 0.51327622 4 13
2.4388897 -0.38191995 -0.1293745 44 6
2.6298568 -0.41229481 0.61456627 45 14
2.4712963 -0.38832045 -0.043665919 5 7
6.3167472 -0.99369472 1.7133821 16 15
3.6208086 -0.57801521 -0.98247713 2 0
2.4939668 -0.39857593 0.044084776 56 8
4.2371173 -0.67867613 -0.99068445 2 1
2.5222723 -0.40445411 0.13387538 69 9
5.2142463 -0.83798742 -1.0265524 1 2
2.529681 -0.40700078 0.22416456 4 10
2.5613575 -0.41347322 0.31856647 57 11
6.3001528 -1.0192738 -0.78361994 13 4
2.5642054 -0.41531065 0.4114227 50 12
6.301321 -1.0217201 -0.55849403 23 5
2.6063881 -0.42354333 0.51327622 4 13
2.4346092 -0.39606509 -0.12926982 19 6
2.4294767 -0.39653596 -0.042967826 5 7
2.6405208 -0.43192869 0.71692878 3 15
3.5809999 -0.59411502 -0.972642 2 0
2.4757042 -0.41118211 0.043805543 58 8
4.2349372 -0.70412719 -0.99113435 2 1
2.5099041 -0.4182128 0.13335203 71 9
5.2091818 -0.86891443 -1.0265524 1 2
2.4976707 -0.41751859 0.22154988 6 10
2.5744457 -0.43173832 0.32051641 16 11
6.0434079 -1.014573 -0.75242138 17 4
2.5441635 -0.42757306 0.40860689 47 12
6.0395479 -1.0171765 -0.53583348 19 5
2.5864055 -0.4360649 0.50984168 19 13
6.0222654 -1.0175089 -0.32008675 25 6
2.5978007 -0.43938506 0.60826766 19 14
2.4270091 -0.41136932 -0.042967826 5 7
2.6093421 -0.44274262 0.70916426 34 15
3.6040659 -0.61993945 -0.97988898 2 0
4.2401595 -0.73164058 -0.99338388 2 1
2.4916332 -0.43037981 0.13251466 65 9
5.1728249 -0.8953616 -1.0204465 1 2
2.4872966 -0.43097204 0.22085266 6 10
2.5327232 -0.44020912 0.31564164 11 11
5.7830391 -1.006182 -0.72073537 15 4
5.776289 -1.0081238 -0.5129987 13 5
2.560565 -0.44735065 0.50526226 19 13
5.7564325 -1.0077645 -0.30627003 25 6
2.5855503 -0.45311102 0.60601819 50 14
2.4107385 -0.42334315 -0.042723492 6 7
2.5971553 -0.45654649 0.70657599 5 15
3.6060295 -0.6423316 -0.98144192 3 0
2.4253712 -0.43246117 0.043002732 6 8
4.2282009 -0.75468022 -0.99158418 2 1
2.4811714 -0.44375128 0.13209596 65 9
5.198503 -0.93067551 -1.0265524 1 2
2.4769285 -0.44388476 0.22015539 27 10
5.564527 -0.99921125 -0.89543104 1 3
2.5086544 -0.4509261 0.31296051 61 11
5.5522957 -1.0000161 -0.69270545 13 4
2.511693 -0.45283005 0.40422669 5 12
5.550787 -1.0017449 -0.49347579 12 5
2.5366139 -0.45869452 0.50106448 3 13
5.5048676 -0.99643445 -0.29318607 24 6
2.5828159 -0.46844593 0.60601819 54 14
2.4279356 -0.44079298 -0.04307254 26 7
2.5906813 -0.4708066 0.70554072 45 15
3.5908704 -0.66099167 -0.97833604 2 0
2.4228401 -0.44642305 0.043002732 6 8
4.2217317 -0.77940357 -0.99113435 2 1
2.4471505 -0.45222726 0.13042122 48 9
5.2237759 -0.96722656 -1.0326583 1 2
2.4722919 -0.45821223 0.21998109 6 10
5.3739934 -0.99795115 -0.86570847 10 3
2.4942243 -0.46362808 0.31149808 63 11
5.3491588 -0.99623704 -0.66808778 15 4
2.5109038 -0.46808875 0.40453959 9 12
5.3447952 -0.99832034 -0.47569603 18 5
2.5299876 -0.47301731 0.50030124 5 13
5.3082566 -0.99437207 -0.28303289 13 6
2.5608368 -0.48017284 0.60151911 53 14
2.4173365 -0.45413914 -0.04293292 56 7
2.5763657 -0.48448116 0.70243496 14 15
3.5904417 -0.68426394 -0.97937131 2 0
2.4219515 -0.46201196 0.043037634 13 8
4.2379475 -0.80919838 -0.9960832 2 1
2.4187589 -0.4627156 0.12906048 8 9
5.1849904 -0.99284178 -1.0261708 7 2
2.4400136 -0.46810618 0.21736643 6 10
5.2242417 -1.0031939 -0.84255612 9 3
2.4795659 -0.47704029 0.31003565 58 11
5.210422 -1.003369 -0.65151358 11 4
5.211441 -1.0063955 -0.46436578 15 5
2.5038357 -0.48442912 0.49572179 5 13
5.227571 -1.01235 -0.27905536 21 6
2.544378 -0.49365529 0.59836978 50 14
2.3791828 -0.46203533 -0.042304631 59 7
5.2413559 -1.0197659 1.4307518 10 15
3.5634494 -0.7017048 -0.97315967 2 0
2.4033885 -0.47370452 0.042758394 57 8
4.23278 -0.83581007 -0.9960832 1 1
2.4158871 -0.4774822 0.12906048 51 9
5.176724 -1.0250189 -1.0257893 5 2
2.4195189 -0.47951651 0.21579762 5 10
5.2238288 -1.0362411 -0.84349471 7 3
2.4727116 -0.49140429 0.30954817 61 11
5.2061424 -1.0355662 -0.6517573 9 4
2.4739141 -0.49298987 0.39953369 59 12
5.1954269 -1.0362629 -0.46349424 12 5
2.4932158 -0.49774116 0.49419534 5 13
5.215414 -1.0430892 -0.27874133 22 6
2.535671 -0.50759757 0.59702009 36 14
2.3625915 -0.47380787 -0.042060301 57 7
5.2314243 -1.0500901 1.4297165 10 15
3.5630093 -0.72360724 -0.97419494 2 0
2.380939 -0.48397475 0.042409346 59 8
4.2278957 -0.86017507 -0.9960832 1 1
2.4247534 -0.49420312 0.12968852 83 9
5.1765056 -1.0559947 -1.0269341 7 2
2.4089086 -0.49184954 0.21510038 5 10
5.1924286 -1.0620753 -0.83942741 9 3
2.4426136 -0.50006384 0.3061358 10 11
5.2018504 -1.0668405 -0.65200108 12 4
2.4613585 -0.50524431 0.39796934 57 12
5.1854692 -1.0653671 -0.46314558 14 5
2.4825265 -0.51094425 0.49266884 6 13
5.2054071 -1.0723042 -0.27853197 19 6
5.2503557 -1.0834743 1.2376807 4 14
2.36374 -0.4882164 -0.042130109 61 7
5.2252893 -1.0802033 1.4297165 10 15
3.5606735 -0.74451208 -0.97471261 2 0
4.1922007 -0.87885129 -0.98888487 2 1
2.4023197 -0.50405902 0.1286418 71 9
5.1816754 -1.0891169 -1.0292237 6 2
2.3884001 -0.50244415 0.21353155 6 10
5.2016897 -1.0952197 -0.84193045 9 3
2.4240644 -0.51127237 0.3041859 6 11
5.1897926 -1.095553 -0.65126985 9 4
2.4505863 -0.5182066 0.39671785 56 12
5.1985474 -1.1002446 -0.46488872 14 5
2.477622 -0.52482718 0.49228725 26 13
5.1911378 -1.1015166 -0.27811331 19 6
4.4872565 -0.95297736 1.0590695 0 14
2.3412421 -0.4980734 -0.04178106 39 7
5.230124 -1.1136054 1.4328223 10 15
3.5505269 -0.76440847 -0.97315967 2 0
2.3457944 -0.50546473 0.041885775 6 8
4.1908793 -0.90380353 -0.9897846 2 1
2.3778117 -0.51366669 0.1274904 67 9
5.1657224 -1.1168686 -1.0273157 5 2
2.3952031 -0.51829886 0.21440312 36 10
5.1950989 -1.1260678 -0.84193045 9 3
2.4210794 -0.5252254 0.3041859 6 11
5.1870799 -1.1271734 -0.6517573 9 4
2.4301889 -0.52853405 0.39390203 52 12
5.1999125 -1.131863 -0.46558598 14 5
2.4591184 -0.53617454 0.4892343 25 13
5.2022696 -1.1352292 -0.27905536 19 6
4.4472547 -0.97209793 1.0509714 0 14
5.2041121 -1.1384865 -0.09298642 12 7
5.2443819 -1.1482552 1.4385163 45 15
3.5724721 -0.79068971 -0.98040658 2 0
2.3350348 -0.51723719 0.041746158 6 8
4.1892471 -0.92950088 -0.99068445 1 1
2.3650651 -0.52518851 0.12696704 69 9
5.1417561 -1.1436665 -1.0238811 6 2
2.3862512 -0.53120434 0.2138802 75 10
5.205677 -1.1607451 -0.84474617 9 3
2.4159827 -0.53915066 0.30394217 7 11
5.1880493 -1.1596663 -0.65273225 10 4
5.1909566 -1.1631703 -0.46541166 13 5
5.2010841 -1.1683 -0.27936935 53 6
4.4452105 -0.99932599 1.0518711 0 14
3.5487394 -0.80820805 -0.97523022 2 0
2.3201334 -0.52882504 0.041536726 6 8
4.1910906 -0.95680887 -0.99248403 1 1
2.3598654 -0.53918105 0.12686236 67 9
5.1270189 -1.1733023 -1.0223546 8 2
2.3615985 -0.54087824 0.21196276 64 10
5.1927137 -1.191198 -0.84380758 13 3
2.3991008 -0.55078965 0.30223599 61 11
5.1886067 -1.1931159 -0.65370721 10 4
2.4043972 -0.55333102 0.39077336 48 12
5.1604567 -1.1894881 -0.46331993 9 5
5.0771375 -1.1712161 1.0128142 8 13
5.1666059 -1.1937548 -0.27790397 10 6
4.4048476 -1.0185587 1.0437729 0 14
5.1413202 -1.189803 -0.0921138 12 7
3.5418553 -0.82943034 -0.97471261 1 0
2.3032315 -0.53979391 0.041292395 7 8
4.2003446 -0.98595536 -0.9960832 1 1
5.0643349 -1.1915597 -1.0112877 7 2
2.350493 -0.55346763 0.2112655 37 10
5.0567322 -1.1916338 -0.8228454 5 3
2.3821673 -0.56224257 0.30052981 75 11
5.0539284 -1.1937666 -0.63762045 5 4
4.9367104 -1.1669888 0.80344748 6 12
5.0195308 -1.188417 -0.45129246 5 5
4.9134479 -1.1642066 0.98152149 7 13
5.0078549 -1.188422 -0.26973954 8 6
4.4138932 -1.0482819 1.0473721 0 14
4.9843659 -1.1846858 -0.08942613 7 7
3.9578836 -0.94217092 1.0901459 1 15
3.5295055 -0.84801084 -0.972642 1 0
2.2884183 -0.55024546 0.041082963 8 8
4.1642838 -1.0028312 -0.98888487 2 1
2.3300004 -0.56153452 0.12560631 8 9
4.9314303 -1.1903057 -0.98610091 5 2
4.8558578 -1.1738586 -0.79124558 10 3
2.3557374 -0.57034808 0.29760498 57 11
4.9042029 -1.1882638 -0.61958379 4 4
4.7897654 -1.1614213 0.78060806 7 12
4.8615856 -1.1806331 -0.43769613 5 5
4.7673979 -1.1586409 0.95366341 8 13
4.8437381 -1.178985 -0.26126111 8 6
4.3964224 -1.0709193 1.0446726 0 14
4.8336926 -1.1783272 -0.086843178 7 7
3.8923361 -0.95028871 1.0735815 1 15
3.5358176 -0.87109792 -0.97574782 1 0
2.2852111 -0.56341666 0.041082963 63 8
4.1527624 -1.0253977 -0.98753518 2 1
2.3170331 -0.57254946 0.12508295 69 9
4.7891831 -1.185203 -0.95900601 5 2
2.3226881 -0.57523745 0.2093481 7 10
4.7567768 -1.1798267 -0.77622795 9 3
2.3543398 -0.5843848 0.2978487 32 11
4.7506542 -1.1809489 -0.60105962 5 4
4.6677728 -1.1612108 0.76183593 7 12
4.7406363 -1.1802158 -0.42741176 6 5
4.6480474 -1.1588883 0.93114793 8 13
4.7050939 -1.1739839 -0.25414345 7 6
4.4051151 -1.1007688 1.0482719 0 14
4.6966376 -1.1744866 -0.084504552 6 7
3.8922503 -0.97477734 1.0751344 2 15
3.5678885 -0.902152 -0.98610061 1 0
2.2797883 -0.57687515 0.041048057 67 8
4.1692734 -1.0557628 -0.99293393 6 1
2.2902606 -0.58080119 0.12382689 83 9
4.6355405 -1.176416 -0.92962146 7 2
2.3171999 -0.58892429 0.20917378 10 10
4.579308 -1.1646978 -0.74838257 19 3
4.5687194 -1.1637027 0.57887942 5 11
4.6204529 -1.1777385 -0.58546036 5 4
4.5229855 -1.1537353 0.73930937 7 12
4.6001406 -1.1751266 -0.41538426 5 5
4.5250611 -1.1567886 0.90786928 7 13
4.5836782 -1.1734781 -0.24796779 8 6
4.3985052 -1.1268896 1.0482719 0 14
4.5654101 -1.1713487 -0.082270645 7 7
3.8583298 -0.99065065 1.0673697 1 15
3.5101104 -0.90973735 -0.97160673 2 0
2.2589042 -0.58587509 0.040733919 65 8
4.2212181 -1.0963986 -1.006881 2 1
2.2867739 -0.59438151 0.12382689 69 9
4.5123711 -1.1745435 -0.90634274 7 2
2.2866719 -0.59563339 0.20673342 39 10
4.530057 -1.1816801 -0.74149948 9 3
4.4637761 -1.1652228 0.56644875 7 11
4.5017805 -1.1768219 -0.57132351 5 4
4.4126554 -1.1543465 0.72241443 8 12
4.4658756 -1.1691015 -0.4038797 5 5
4.419158 -1.1585201 0.8880251 9 13
4.4626532 -1.1707551 -0.24179214 8 6
4.376461 -1.149776 1.0446726 6 14
4.4423409 -1.1679127 -0.080176361 8 7
3.826052 -1.0073154 1.0601228 1 15
3.5026207 -0.93066627 -0.97108907 2 0
2.2398226 -0.59555209 0.040454678 42 8
4.1713233 -1.1099033 -0.99653322 2 1
2.2715206 -0.60525405 0.12319885 71 9
4.4047818 -1.1744918 -0.88611698 7 2
4.3446116 -1.1600726 0.39342102 7 10
4.3874669 -1.1723357 -0.71928573 5 3
4.3415174 -1.1616819 0.55182445 7 11
4.3835001 -1.1737353 -0.55718666 6 4
4.2893357 -1.1493241 0.70332944 9 12
4.3508883 -1.1674449 -0.39411828 5 5
4.2605181 -1.1439937 0.85749573 14 13
4.360909 -1.1725818 -0.23666322 8 6
4.2754707 -1.150409 1.0221776 10 14
4.338582 -1.1690147 -0.078431122 9 7
3.8237376 -1.0310075 1.0611582 1 15
3.4895802 -0.94940597 -0.96901858 5 0
4.2371035 -1.1535782 0.07665097 20 8
4.1588254 -1.1338259 -0.99518347 3 1
2.2601819 -0.61662012 0.12278017 69 9
4.2801065 -1.1692989 -0.86245668 7 2
4.2338705 -1.1574616 0.3840082 16 10
4.2699218 -1.1681184 -0.70113939 6 3
4.2081866 -1.1528085 0.53573769 7 11
4.24436 -1.1635144 -0.54036868 8 4
4.1546059 -1.1404694 0.68236721 30 12
4.228611 -1.1615779 -0.3836596 29 5
4.168468 -1.1458396 0.84032285 7 13
4.242187 -1.1676964 -0.23059224 29 6
4.1802669 -1.1514373 1.0010322 6 14
4.2506046 -1.1724082 -0.076965116 32 7
3.8287251 -1.0567638 1.0642639 1 15
3.5062172 -0.97631532 -0.97523022 2 0
4.1550574 -1.157768 0.075289682 7 8
4.1409631 -1.1546197 -0.99248403 12 1
2.2507117 -0.62841004 0.12246615 12 9
4.1503963 -1.1595923 -0.83765155 42 2
4.1503816 -1.1603692 0.37703574 43 10
4.1906295 -1.1731991 -0.68925035 6 3
4.1460438 -1.1614972 0.52866924 35 11
4.151372 -1.1645529 -0.52940047 6 4
4.1498704 -1.1649129 0.68268013 10 12
4.145124 -1.1643612 -0.37668711 8 5
3.2827842 -0.92336726 0.66287047 1 13
4.1027346 -1.154772 -0.22336988 8 6
3.2749155 -0.92300475 0.78552908 6 14
4.1148314 -1.1605026 -0.07462649 8 7
3.2610879 -0.92033637 0.90793723 14 15
3.4782398 -0.99014628 -0.96901858 2 0
3.2944243 -0.93844128 0.059791945 1 8
4.0928106 -1.1674125 -0.98258615 8 1
3.2553487 -0.9291535 0.1774189 1 9
4.0905867 -1.1690947 -0.82696623 7 2
4.0736532 -1.1657933 -0.67110395 4 3
3.251724 -0.93180275 0.41533077 17 11
4.0339203 -1.156708 -0.51526362 0 4
3.2706833 -0.9397068 -0.29772401 0 5
3.2551517 -0.93708992 -0.17752358 2 6
3.2490242 -0.93716836 -0.05902404 3 7
3.2277281 -0.93163586 0.90017265 45 15
3.2237511 -0.93841696 -0.89965498 7 0
3.2350399 -0.94231558 0.058814611 30 8
3.2328939 -0.9423027 -0.77743083 14 1
3.2459433 -0.94733566 0.17720957 39 9
3.2300918 -0.94332105 -0.65409327 30 2
3.1688526 -0.92603707 0.28883412 2 10
3.2381637 -0.94751883 -0.5343802 22 3
3.2348726 -0.94716877 0.41386834 44 11
3.2231121 -0.94494694 -0.41240588 24 4
3.178741 -0.93254095 0.52468127 32 12
3.2059534 -0.94113171 -0.29232034 29 5
3.1775837 -0.93400854 0.64378959 21 13
3.2228751 -0.94793242 -0.17605817 31 6
3.1741693 -0.93481082 0.76393378 20 14
3.2032917 -0.94399518 -0.058291037 31 7
3.146337 -0.92780775 0.87894952 28 15
3.1525655 -0.9392215 0.057418417 34 8
3.1690195 -0.94532788 -0.76348388 24 1
3.1826813 -0.95000827 0.1740694 40 9
3.1751938 -0.94898051 -0.64417118 27 2
3.145792 -0.94079137 0.28726533 25 10
3.1564519 -0.94517982 -0.52186543 26 3
3.1508934 -0.94411463 0.40387502 27 11
3.161972 -0.94863695 -0.40533748 27 4
3.1066003 -0.93261576 0.51373082 27 12
3.1350996 -0.94176793 -0.28639376 34 5
3.0983305 -0.93190193 0.62890649 25 13
3.1537421 -0.9491688 -0.17260399 32 6
3.0973306 -0.93336993 0.7468375 23 14
3.1475189 -0.94909322 -0.057383511 36 7
3.0681534 -0.92633009 0.85876161 26 15
3.0912941 -0.94156492 0.056406178 37 8
3.094383 -0.94309574 -0.7468375 31 1
3.0946763 -0.94436586 0.16956852 37 9
3.0943999 -0.9448719 -0.62890649 31 2
3.0656786 -0.93727195 0.28046718 24 10
3.0771182 -0.94135672 -0.50966352 29 3
3.0577571 -0.9366011 0.39266306 26 11
3.0708792 -0.94120669 -0.39436921 25 4
3.0424662 -0.93307924 0.5040319 31 12
3.0607221 -0.93984699 -0.28011855 35 5
3.0289392 -0.93066609 0.61593145 29 13
3.067709 -0.9437505 -0.16820778 31 6
3.0265501 -0.93166661 0.73109096 23 14
3.0614011 -0.94356471 -0.055917513 32 7
3.014605 -0.92971784 0.84530306 29 15
3.0130937 -0.93732047 0.055079795 32 8
3.0160015 -0.93937981 -0.72929132 15 1
3.0146525 -0.93953687 0.16548631 36 9
3.0173535 -0.94153434 -0.61440504 30 2
3.0106146 -0.94000828 0.27593508 23 10
3.0149128 -0.94192791 -0.50027746 28 3
2.9934139 -0.93635803 0.38510716 29 11
3.0027227 -0.93984526 -0.38632584 28 4
2.97262 -0.93156254 0.49339435 34 12
2.9980574 -0.9401089 -0.2748892 31 5
2.9690402 -0.93157911 0.60486454 27 13
2.9858367 -0.93799418 -0.1640209 32 6
2.9484649 -0.92681938 0.71354473 25 14
2.9928019 -0.94190431 -0.054765653 33 7
2.9426999 -0.92670053 0.82666808 29 15
2.9571617 -0.93863493 -0.83132678 3 0
2.9522078 -0.93762976 0.054067552 32 8
2.9436812 -0.93548739 -0.71309483 27 1
2.9481204 -0.9380312 0.16213681 40 9
2.9464047 -0.9380517 -0.60104835 35 2
2.9463007 -0.93858504 0.27053142 30 10
2.9509292 -0.9411943 -0.49057853 32 3
2.9274554 -0.93427008 0.37730753 29 11
2.932802 -0.93710458 -0.37803873 31 4
2.8994696 -0.92701179 0.48213109 34 12
2.9261756 -0.93611306 -0.26878831 30 5
2.9111085 -0.93241334 0.59417921 28 13
2.9309337 -0.9393273 -0.16129944 32 6
2.892813 -0.92822373 0.70139736 23 14
2.9302082 -0.94078684 -0.053718507 42 7
2.883975 -0.92649829 0.81165653 30 15
2.8818655 -0.93303949 -0.81165653 28 0
2.8934925 -0.93736178 0.053090218 38 8
2.8917363 -0.93790841 -0.70184726 32 1
2.8837774 -0.93588334 0.15889199 43 9
2.8847716 -0.9373191 -0.58959985 35 2
2.8629937 -0.93079549 0.26338464 28 10
2.885184 -0.93912357 -0.48056671 33 3
2.8727846 -0.93564212 0.37097031 34 11
2.8669591 -0.93429828 -0.37023908 30 4
2.839457 -0.92643231 0.4730579 35 12
2.8485963 -0.92996436 -0.26216447 39 5
2.8532734 -0.93259346 0.58349395 30 13
2.8797483 -0.9418031 -0.15878731 35 6
2.833708 -0.92729348 0.68835026 26 14
2.850462 -0.93387759 -0.052357223 38 7
2.8196826 -0.92433864 0.79509211 34 15
2.8285842 -0.93436956 -0.79819798 38 0
2.8062365 -0.92753053 0.051589314 35 8
2.8324676 -0.93729746 -0.6888001 32 1
2.8250842 -0.93540138 0.15596117 37 9
2.8232524 -0.93588859 -0.57815129 32 2
2.7969055 -0.92769653 0.25780669 34 10
2.8139455 -0.93443882 -0.46961632 28 3
2.8144348 -0.93514681 0.36414564 34 11
2.8105042 -0.93438554 -0.36365816 32 4
2.7814298 -0.92579776 0.46429756 36 12
2.7976601 -0.93174249 -0.25798097 35 5
2.7880907 -0.92963672 0.57128215 30 13
2.802114 -0.93485588 -0.15480977 35 6
2.7708533 -0.92496389 0.67440325 30 14
2.7955589 -0.93429589 -0.051449694 35 7
2.7555201 -0.92144936 0.77852774 33 15
2.7625759 -0.93078309 -0.78111589 33 0
2.75331 -0.92819631 0.050716694 37 8
2.760385 -0.93165463 -0.67260367 33 1
2.7702847 -0.93553454 0.1532397 46 9
2.7692935 -0.93627685 -0.5682292 30 2
2.7441683 -0.92831588 0.2534489 38 10
2.7579973 -0.93353051 -0.46116886 33 3
2.7373931 -0.92762154 0.35488355 34 11
2.7597907 -0.9357484 -0.35780841 37 4
2.730994 -0.92704749 0.45678869 35 12
2.7392588 -0.93038636 -0.25310028 36 5
2.7213483 -0.92483276 0.55868876 29 13
2.7416835 -0.9328112 -0.15177429 36 6
2.7228856 -0.92694587 0.66405553 28 14
2.742646 -0.9347412 -0.050577074 38 7
2.7024636 -0.92157292 0.76506913 33 15
2.7058468 -0.92958516 -0.76662207 31 0
2.7042584 -0.92956734 0.049913883 41 8
2.7070608 -0.93105888 -0.6609062 33 1
2.7042539 -0.9311493 0.14989018 44 9
2.713738 -0.93494475 -0.55792552 34 2
2.6954529 -0.92917144 0.24943975 37 10
2.7038591 -0.93312532 -0.45303425 34 3
2.6869719 -0.92782217 0.34903383 35 11
2.6904001 -0.93005723 -0.34952128 35 4
2.6733372 -0.92468113 0.44802836 38 12
2.6943157 -0.93246377 -0.24943975 33 5
2.6694357 -0.92489672 0.54914832 33 13
2.6890883 -0.93223166 -0.14915749 39 6
2.6547427 -0.92136317 0.64875883 26 14
2.6805453 -0.93084252 -0.049529929 37 7
2.6496651 -0.92063743 0.75161052 34 15
2.6621566 -0.93175232 -0.75575161 28 0
2.6554518 -0.92992586 0.049111072 37 8
2.6555133 -0.93098819 -0.64965868 35 1
2.6517293 -0.93018144 0.14727339 39 9
2.656276 -0.93281782 -0.5472402 33 2
2.6410186 -0.92797744 0.24490763 35 10
2.6460979 -0.93079996 -0.44427395 32 3
2.640224 -0.92925155 0.34367159 35 11
2.6361547 -0.92885375 -0.34318411 34 4
2.6081874 -0.9195112 0.43801656 37 12
2.634084 -0.9296748 -0.24438471 36 5
2.6287272 -0.92830014 0.54189759 35 13
2.6381502 -0.93266368 -0.14664535 39 6
2.5959501 -0.91825449 0.63571167 32 14
2.6240766 -0.92871886 -0.048587501 36 7
2.5966475 -0.92003125 0.73815197 40 15
2.5945535 -0.92592043 -0.73815197 37 0
2.6007571 -0.92864615 0.048203547 39 8
2.6075711 -0.93210554 -0.6393109 31 1
2.598983 -0.92954725 0.1446566 43 9
2.6117134 -0.93512869 -0.53922629 55 2
2.5827823 -0.92527854 0.24002692 37 10
2.5957365 -0.93094194 -0.43676507 32 3
2.5952609 -0.93128252 0.33855307 41 11
2.5949357 -0.93218839 -0.33855307 38 4
2.5597661 -0.92005879 0.43082058 39 12
2.5796132 -0.92820919 -0.23985259 37 5
2.5638974 -0.92305976 0.5296858 34 13
2.5797932 -0.92980009 -0.14371455 35 6
2.5462959 -0.91822922 0.62491405 35 14
2.57321 -0.92844254 -0.047749784 35 7
2.5328364 -0.91487455 0.72158754 36 15
2.5434623 -0.92524183 -0.72521096 33 0
2.5443001 -0.92604947 0.047261119 40 8
2.5487299 -0.92866945 -0.62626374 35 1
2.5632331 -0.9344607 0.14298184 46 9
2.5469356 -0.92952657 -0.52701449 41 2
2.526551 -0.92258668 0.23532049 39 10
2.5417638 -0.92914754 -0.4286305 34 3
2.537323 -0.92802626 0.33172837 38 11
2.5483463 -0.93256229 -0.33319083 38 4
2.5188563 -0.92276758 0.42487606 36 12
2.5216804 -0.92430127 -0.23497188 35 5
2.5139768 -0.92247325 0.52052695 35 13
2.5404823 -0.93270236 -0.14183044 39 6
2.5133636 -0.92324394 0.61816549 37 14
2.5262008 -0.92896026 -0.046981879 42 7
2.4820373 -0.91321188 0.7086466 39 15
2.5016968 -0.9268952 -0.71485823 33 0
2.495635 -0.92514461 0.046458308 42 8
2.4920185 -0.92479342 -0.61366647 35 1
2.5089614 -0.93157929 0.14026037 44 9
2.5082505 -0.93231165 -0.52014536 43 2
2.4874177 -0.92506236 0.23218289 38 10
2.4954777 -0.92905152 -0.42174736 39 3
2.4778244 -0.92297184 0.32465994 33 11
2.4906845 -0.92825705 -0.32636613 38 4
2.4652162 -0.91974539 0.41674146 37 12
2.4676199 -0.92113292 -0.23043977 35 5
2.4661605 -0.92156905 0.51174974 38 13
2.4712965 -0.92397994 -0.13827161 43 6
2.4658611 -0.9224382 0.60781777 36 14
2.4738264 -0.92640239 -0.046109259 39 7
2.4403937 -0.91436815 0.69829381 44 15
2.4600029 -0.92808592 -0.70450544 37 0
2.4470718 -0.92369533 0.045655496 41 8
2.4427361 -0.923033 -0.6028688 38 1
2.4492114 -0.92596835 0.1372249 41 9
2.4457531 -0.92563683 -0.50831515 37 2
2.4353027 -0.92216754 0.22782511 34 10
2.4437428 -0.92633909 -0.41392565 37 3
2.4314704 -0.92217237 0.3192977 37 11
2.4422834 -0.92724866 -0.32076016 39 4
2.4209359 -0.91962725 0.41017124 40 12
2.4360366 -0.92585009 -0.22799942 38 5
2.4239497 -0.9222247 0.50411743 36 13
2.4265716 -0.92370713 -0.1360735 40 6
2.403729 -0.91597247 0.59387076 38 14
2.4309158 -0.92681819 -0.045411162 38 7
2.40047 -0.9161703 0.68845868 46 15
2.4110084 -0.92646521 -0.69208211 41 0
2.4096529 -0.92642695 0.045062114 42 8
2.4008393 -0.92351949 -0.59387076 37 1
2.4025044 -0.9251228 0.1349221 47 9
2.3980813 -0.92390031 -0.49953794 43 2
2.3831508 -0.91910356 0.22346732 39 10
2.4013441 -0.92660147 -0.40766826 40 3
2.3943121 -0.92484838 0.31515417 41 11
2.3904471 -0.9238351 -0.31466666 43 4
2.363848 -0.91402948 0.40141091 40 12
2.3820262 -0.92201442 -0.22346732 38 5
2.3781576 -0.92099434 0.49572179 38 13
2.3855016 -0.9247961 -0.13408473 42 6
2.3655477 -0.91753542 0.58577251 39 14
2.38047 -0.92427957 -0.044573449 38 7
2.3553751 -0.9150089 0.67707068 45 15
2.3532927 -0.92035067 -0.67707068 29 0
2.3594201 -0.92322165 0.0442244 44 8
2.3588631 -0.92395341 -0.58487272 37 1
2.3635004 -0.92624563 0.13303801 48 9
2.3521845 -0.92275834 -0.49114239 46 2
2.3405621 -0.91867024 0.21998109 43 10
2.3645456 -0.92856002 -0.40234947 41 3
2.3536797 -0.92524135 0.31052312 43 11
2.3516707 -0.92492557 -0.31027937 44 4
2.3161042 -0.91140383 0.39421493 44 12
2.3283153 -0.9171477 -0.21893522 38 5
2.3342936 -0.91997337 0.48770785 34 13
2.3483872 -0.92647505 -0.13230531 47 6
2.3274338 -0.91867799 0.57767427 38 14
2.3304691 -0.92034626 -0.043735731 41 7
2.3013964 -0.90979362 0.6630944 43 15
2.3066661 -0.91746759 -0.66516501 31 0
2.3150458 -0.92126858 0.043491397 45 8
2.322726 -0.92526418 -0.57722443 39 1
2.3302963 -0.92875117 0.13146794 50 9
2.3176551 -0.92465055 -0.48503649 49 2
2.3019245 -0.91884047 0.21684349 45 10
2.3077924 -0.92164981 -0.39358914 45 3
2.3040736 -0.92109716 0.30467337 44 11
2.3205009 -0.92813408 -0.30686703 44 4
2.2943108 -0.9181233 0.39139909 44 12
2.2878537 -0.91646606 -0.21562332 41 5
2.2888646 -0.91733462 0.47931221 40 13
2.3040857 -0.92436844 -0.13010719 49 6
2.2841256 -0.91682363 0.56822634 41 14
2.2991507 -0.92332047 -0.043247063 44 7
2.258477 -0.90790194 0.65222406 46 15
2.2798524 -0.92204607 -0.65895331 39 0
2.2744815 -0.92033571 0.04282821 49 8
2.272203 -0.92033696 -0.56597686 45 1
2.2897389 -0.92790496 0.12947917 53 9
2.2886405 -0.92839009 -0.48007545 50 2
2.2596714 -0.91709805 0.21335725 45 10
2.2695014 -0.92154902 -0.38795751 45 3
2.2619505 -0.91940272 0.29979861 42 11
2.274662 -0.92503202 -0.30150479 45 4
2.2485712 -0.91533661 0.38451597 43 12
2.2640851 -0.92211264 -0.2138802 42 5
2.2471812 -0.91568542 0.47167987 45 13
2.2580383 -0.92102861 -0.12780441 49 6
2.2517431 -0.91891921 0.56147784 37 14
2.2677143 -0.92636055 -0.042758394 44 7
2.2281749 -0.91066259 0.64497709 49 15
2.2421823 -0.92233002 -0.64963585 41 0
2.2412417 -0.92240053 0.042304631 50 8
2.2308254 -0.91856903 -0.55697882 42 1
2.236182 -0.92168766 0.1267577 48 9
2.2415109 -0.92434174 -0.47129822 44 2
2.2230413 -0.91717941 0.21039395 42 10
2.2311285 -0.92142755 -0.38232586 45 3
2.2162554 -0.91573793 0.29443637 43 11
2.2287762 -0.92182237 -0.29614252 42 4
2.2104068 -0.91467667 0.37888432 46 12
2.2292829 -0.92294329 -0.21109121 42 5
2.2126889 -0.9169783 0.46557397 45 13
2.2250218 -0.92254412 -0.12623434 47 6
2.1976538 -0.9120959 0.54933047 43 14
2.2364862 -0.92867023 -0.042269729 45 7
2.1979165 -0.91310453 0.63773018 52 15
2.2047508 -0.9218151 -0.64031839 43 0
2.1953065 -0.91831648 0.041536726 49 8
2.1947775 -0.91899556 -0.54933047 42 1
2.190309 -0.91757387 0.12445491 48 9
2.192534 -0.91940576 -0.46213943 42 2
2.184489 -0.9164806 0.20725635 42 10
2.2001235 -0.92394316 -0.37794572 41 3
2.1851604 -0.91810811 0.291024 46 11
2.1903296 -0.92117959 -0.29175523 45 4
2.1667042 -0.91168869 0.37231407 46 12
2.1907129 -0.92224103 -0.2079536 42 5
2.1854982 -0.92094392 0.46099457 45 13
2.1882215 -0.92254114 -0.12445491 49 6
2.1634758 -0.9129982 0.54213202 44 14
2.1793537 -0.92014676 -0.041292395 43 7
2.1442523 -0.90620863 0.62375391 41 15
2.1599679 -0.91863209 -0.62893027 42 0
2.162055 -0.91996545 0.041013155 49 8
2.1641831 -0.92131698 -0.54303181 39 1
2.1607769 -0.92075807 0.12309418 50 9
2.1581438 -0.92008126 -0.45603353 44 2
2.1385348 -0.9126035 0.2034215 46 10
2.1637175 -0.92379653 -0.37262696 46 3
2.1576066 -0.92207807 0.28809914 44 11
2.1592712 -0.92323518 -0.28834289 44 4
2.1267483 -0.90976858 0.36636955 38 12
2.1392498 -0.91599989 -0.20359582 37 5
2.1348791 -0.91456926 0.45145413 22 13
2.1586819 -0.92565829 -0.12309418 45 6
2.1186206 -0.90891749 0.53223419 7 14
2.1498053 -0.92318481 -0.040838633 42 7
2.1207874 -0.91686779 -0.61909521 39 0
2.1106737 -0.91293275 0.040140536 27 8
2.1299014 -0.92213213 -0.53583342 42 1
2.129617 -0.92245024 0.12162878 37 9
2.1344707 -0.92543763 -0.45221734 43 2
