# .PCD v0.7 - Point Cloud Data file format
VERSION 0.7
FIELDS x y z intensity ring
SIZE 4 4 4 4 2
TYPE F F F F U
COUNT 1 1 1 1 1
WIDTH 1247
HEIGHT 1
VIEWPOINT 0 0 0 1 0 0 0
POINTS 1247
DATA ascii
-1.6196698 0.018657869 0.084888928 79 9
-1.5371199 0.018243531 -0.29880691 46 2
-1.4991992 0.018317183 -0.23746756 54 3
-1.5621409 0.019904219 -0.19182236 64 4
-1.2032974 0.015962079 -0.10528414 30 5
-1.146437 0.015407654 0.22286493 4 13
-1.583676 0.021837223 -0.083004832 58 6
-1.1165193 0.015590521 0.2577939 44 14
-1.5995965 0.022615189 -0.02792385 67 7
-1.1473995 0.016622579 0.30747706 4 15
-1.1222516 0.018609388 -0.30074775 89 0
-1.5895348 0.026635073 0.027749326 65 8
-1.4632899 0.025030896 -0.3378765 37 1
-1.6035597 0.027709896 0.084051557 88 9
-1.5428782 0.027200371 -0.29995176 18 2
-1.4990689 0.026951436 -0.23746756 54 3
-1.5560461 0.028790783 -0.19109115 68 4
-1.1972094 0.022778438 -0.1047612 36 5
-1.1404407 0.021897446 0.22172007 0 13
-1.5795301 0.030879879 -0.082795486 58 6
-1.1222562 0.022136088 0.25914362 32 14
-1.5954411 0.031748414 -0.02785404 55 7
-1.1511477 0.023308905 0.3085123 3 15
-1.1259885 0.025158931 -0.301783 83 0
-1.6053485 0.036149997 0.028028565 72 8
-1.4572767 0.033324566 -0.33652678 45 1
-1.6133572 0.03717548 0.084574915 76 9
-1.4988825 0.035846386 -0.23746756 57 3
-1.5518789 0.037926804 -0.19060367 69 4
-1.1890912 0.029476114 -0.10406395 38 5
-1.5753329 0.039875884 -0.082586147 48 6
-1.1182088 0.028695408 0.2582438 33 14
-1.5732354 0.040647022 -0.027470089 71 7
-1.1490579 0.030089067 0.30799466 4 15
-1.1258137 0.032036547 -0.301783 83 0
-1.6050978 0.045955952 0.028028565 75 8
-1.4551054 0.041915298 -0.33607689 47 1
-1.6170928 0.047146752 0.084784262 91 9
-0.61227202 0.017957894 -0.11906482 4 2
-1.5065414 0.044976208 -0.23871902 54 3
-1.557579 0.047316123 -0.19133489 62 4
-1.1809233 0.036492955 -0.10336671 27 5
-1.5690711 0.0493102 -0.082272127 40 6
-1.1238621 0.035514969 0.25959352 32 14
-1.5729578 0.050256722 -0.027470089 71 7
-1.1430665 0.03672092 0.30644175 4 15
-1.1256038 0.038716789 -0.301783 89 0
-1.5808147 0.054650649 0.027609706 61 8
-1.4450845 0.050463304 -0.33382738 50 1
-1.6207765 0.056881797 0.084993601 73 9
-0.62392312 0.022115026 -0.12135453 2 2
-1.4944031 0.053491563 -0.23684181 56 3
-1.5572708 0.056558281 -0.19133489 63 4
-1.1906412 0.043866929 -0.10423827 27 5
-1.5547796 0.058098085 -0.08153943 60 6
-1.1216842 0.042110465 0.25914362 19 14
-1.5866301 0.059842456 -0.027714422 87 7
-1.1351067 0.043209519 0.30437121 4 15
-1.1408045 0.045819502 -0.30592412 89 0
-1.5684853 0.063271135 0.027400278 65 8
-1.4252986 0.057993434 -0.32932836 50 1
-1.6044573 0.065563634 0.084156223 76 9
-1.5398476 0.06346184 -0.29957014 23 2
-1.490123 0.061933197 -0.23621608 51 3
-1.5489858 0.065192096 -0.19035992 63 4
-1.1903687 0.050723918 -0.10423827 26 5
-1.552424 0.066966079 -0.081434757 62 6
-1.1214231 0.048570044 0.25914362 8 14
-1.5822635 0.068806201 -0.027644612 77 7
-1.156069 0.050677028 0.31006524 3 15
-1.1443815 0.052566167 -0.30695942 81 0
-1.582078 0.072948441 0.027644612 69 8
-1.419101 0.065930083 -0.32797864 60 1
-1.5900875 0.074152067 0.083423525 88 9
-1.5316122 0.071961269 -0.29804367 42 2
-1.5035537 0.071168587 -0.23840615 37 3
-1.5366877 0.073543318 -0.18889751 60 4
-1.2059773 0.058348943 -0.10563275 25 5
-1.5460278 0.075613379 -0.081120737 55 6
-1.1230712 0.055123813 0.25959352 4 14
-1.5718411 0.077700809 -0.027470089 65 7
-1.1441811 0.056760475 0.30695942 3 15
-1.1401908 0.05915631 -0.30592412 100 0
-1.5955962 0.083062865 0.027888944 72 8
-1.4225899 0.074305519 -0.32887843 52 1
-1.6015865 0.084215924 0.084051557 81 9
-1.5213696 0.080263779 -0.29613557 54 2
-1.5169131 0.080825463 -0.24059623 8 3
-1.534242 0.082554385 -0.18865377 51 4
-1.1996528 0.064970784 -0.10510983 23 5
-1.5595267 0.085279763 -0.081853449 44 6
-1.1324532 0.062322527 0.26184303 1 14
-1.5533975 0.08576037 -0.027155945 59 7
-1.1554086 0.063990355 0.31006524 3 15
-1.118616 0.064498939 -0.30023012 74 0
-1.5791204 0.091327943 0.027609706 63 8
-1.4123966 0.082180172 -0.32662892 51 1
-1.599081 0.093322411 0.083946884 73 9
-1.5189067 0.089175776 -0.29575396 54 2
-1.5218517 0.090680957 -0.18719132 42 4
-1.1893021 0.071490876 -0.10423827 19 5
-1.5869036 0.096225217 -0.083318852 62 6
-1.1437464 0.069553792 0.26454243 1 14
-1.5508653 0.094854951 -0.027121039 74 7
-1.1492238 0.070490837 0.3085123 3 15
-1.1355652 0.072239734 -0.30488884 40 0
-1.5745595 0.10044218 0.027539898 63 8
-1.4216077 0.091183864 -0.32887843 26 1
-1.5984991 0.10280966 0.083946884 75 9
-1.5183507 0.09818735 -0.29575396 62 2
-0.67414778 0.043949634 -0.10700119 3 3
-1.5153443 0.099320836 -0.18646011 55 4
-1.1987972 0.079203643 -0.10510983 18 5
-1.5324978 0.10205688 -0.080492713 48 6
-1.5522704 0.10418998 -0.027155945 61 7
-1.1430029 0.076919906 0.30695942 3 15
-1.1331893 0.078842781 -0.30437121 69 0
-1.4442705 0.10073984 0.025271084 15 8
-1.3899381 0.097437613 -0.32168001 48 1
-1.4703507 0.10333257 0.07724788 21 9
-1.5196998 0.10733378 -0.29613557 36 2
-1.5664835 0.11118755 -0.24873082 18 3
-1.5167083 0.10845268 -0.18670385 51 4
-1.2002934 0.086459011 -0.10528414 14 5
-1.5139369 0.1098484 -0.079550661 58 6
-1.5217285 0.1109477 -0.026632372 49 7
-1.1425263 0.083701372 0.30695942 3 15
-1.1307901 0.085222833 -0.30385357 41 0
-1.4217321 0.10739943 0.024887133 40 8
-1.3776951 0.10455678 -0.3189806 48 1
-1.4299011 0.10876948 0.075154446 71 9
-1.507311 0.11518743 -0.29384586 42 2
-1.5599084 0.11975455 -0.24779223 20 3
-1.521996 0.1176456 -0.18743508 24 4
-1.2037483 0.093680061 -0.10563275 9 5
-1.5073056 0.11809798 -0.079236642 20 6
-1.4174006 0.11155168 -0.024817321 25 7
-1.1420252 0.090280302 0.30695942 3 15
-1.1533867 0.093609735 -0.31006524 9 0
-1.4250761 0.1159106 0.024956942 49 8
-1.3848391 0.11312445 -0.32078022 37 1
-1.4133261 0.11569979 0.074317068 75 9
-1.498796 0.12322332 -0.29231939 52 2
-1.5512958 0.12835732 -0.24654076 24 3
-1.5173146 0.12634555 -0.18694758 31 4
-1.2011858 0.10065505 -0.10545845 6 5
-1.4627939 0.12334815 -0.076933861 38 6
-1.4067509 0.11911725 -0.024642797 28 7
-1.1607184 0.09869241 0.31213579 3 15
-1.1450952 0.099981278 -0.30799466 3 0
-1.4064127 0.12304527 0.024642797 30 8
-1.3763571 0.12089951 -0.3189806 16 1
-1.4145825 0.12450636 0.074421734 59 9
-1.4980153 0.13237676 -0.29231939 52 2
-1.5583532 0.13853101 -0.24779223 40 3
-1.5441953 0.13808735 -0.19035992 44 4
-1.1866578 0.10674139 -0.10423827 8 5
-1.4640025 0.13246164 -0.077038541 33 6
-1.4000225 0.12716581 -0.024538083 52 7
-1.1389312 0.10385112 0.30644175 4 15
-1.1540804 0.10787344 -0.31058288 6 0
-1.4016529 0.13126113 0.024572989 61 8
-1.3600714 0.12784603 -0.31538138 13 1
-1.4177725 0.13351953 0.07463108 45 9
-1.4952489 0.14107919 -0.29193777 45 2
-1.5634032 0.14833553 -0.24873082 46 3
-1.5631098 0.14913349 -0.1927973 43 4
-1.1899701 0.11416192 -0.10458689 8 5
-1.4333942 0.13802019 -0.075468451 25 6
-1.4211376 0.13759102 -0.024922037 84 7
-1.1498512 0.1115283 0.3095476 3 15
-1.1822759 0.11738175 -0.31834742 8 0
-1.4088331 0.14012335 0.024712607 69 8
-1.3380057 0.13331495 -0.31043246 15 1
-1.4229419 0.14227903 0.074945092 92 9
-1.4944116 0.149689 -0.29193777 45 2
-1.5703849 0.15812942 -0.2499823 45 3
-1.5839781 0.16005632 -0.19547844 34 4
-1.1912961 0.12100738 -0.1047612 9 5
-1.418667 0.14485367 -0.074735753 41 6
-1.4024434 0.14369145 -0.024607893 78 7
-1.1530333 0.11854409 0.31058288 3 15
-1.1643102 0.12216818 -0.3136887 23 0
-1.4100175 0.14819877 0.024747513 65 8
-1.3255876 0.13979234 -0.30773303 11 1
-1.4082217 0.14875552 0.074212395 73 9
-1.4935522 0.15803285 -0.29193777 31 2
-1.600906 0.17023957 -0.25498822 16 3
-1.5889516 0.16980971 -0.19620967 12 4
-1.2143514 0.13041966 -0.10685294 9 5
-1.4059213 0.15149041 -0.074107721 44 6
-1.1334094 0.12252728 0.26319274 5 14
-1.4055687 0.1521969 -0.024677703 81 7
-1.148512 0.12456553 0.3095476 6 15
-1.125185 0.12461901 -0.30333593 18 0
-1.3992028 0.15521517 0.024572989 11 8
-1.1446618 0.12718059 -0.26589215 5 1
-1.4113115 0.15730645 0.074421734 36 9
-1.4035922 0.1574378 -0.22370131 8 3
-1.4873734 0.16736141 -0.18377897 6 4
-1.1542107 0.13048545 -0.10162359 6 5
-1.391134 0.15800774 -0.073375016 7 6
-1.0881736 0.12378927 0.25284499 17 14
-1.3888021 0.1582339 -0.024398465 15 7
-1.0997915 0.12569422 0.29660663 27 15
-1.0937024 0.12789996 -0.29505375 3 0
-1.3763813 0.16120054 0.024189034 18 8
-1.0644875 0.12504847 -0.24744615 7 1
-1.4700936 0.17347661 -0.28773996 45 2
-1.5418839 0.18249384 -0.245915 28 3
-1.5316302 0.18209341 -0.18938497 10 4
-1.1316063 0.13513629 -0.099706165 8 5
-1.3504529 0.16198809 -0.071281582 38 6
-1.0815699 0.12992653 0.25149527 28 14
-1.3559858 0.16337198 -0.023839988 21 7
-1.0721289 0.12936188 0.28935969 50 15
-1.1216854 0.13792422 -0.3028183 11 0
-1.3615077 0.16765435 0.023944702 54 8
-1.1198382 0.13809416 -0.26049334 31 1
-1.4806725 0.18311556 0.078189924 21 9
-1.5021925 0.18604313 -0.29422748 67 2
-1.6623107 0.20675714 -0.26531288 69 3
-1.6447703 0.20545001 -0.20352182 49 4
-1.1663942 0.14610904 -0.10284378 19 5
-1.3950752 0.17549682 -0.073689036 70 6
-1.0923803 0.13780618 0.25419468 31 14
-1.3887491 0.17543967 -0.024433369 76 7
-1.0771158 0.13626225 0.29091263 50 15
-1.0997961 0.14166759 -0.29712427 25 0
-1.3744022 0.17728384 0.024189034 44 8
-1.1112685 0.1437369 -0.25869372 48 1
-1.4914776 0.19317929 0.078817956 63 9
-1.5088496 0.19596523 -0.29575396 50 2
-1.6396232 0.21440479 -0.20303436 28 4
-1.1773592 0.15458402 -0.10388964 16 5
-1.3761883 0.1814227 -0.072746992 48 6
-1.0954325 0.14460523 0.2550945 30 14
-1.3757892 0.18210299 -0.024223939 70 7
-1.0801184 0.14315933 0.2919479 50 15
-1.1142523 0.15025663 -0.30126539 31 0
-1.1593012 0.15653774 0.020419316 84 8
-1.1161892 0.1511129 -0.26004341 46 1
-1.1597857 0.15722154 0.061337747 42 9
-1.173057 0.15943728 -0.23011567 13 2
-1.1332424 0.15463018 -0.18115114 10 3
-1.134828 0.15525031 -0.14063723 14 4
-1.150761 0.15804386 -0.10162359 48 5
-1.1356835 0.15657902 -0.060081679 54 6
-1.0849029 0.14977072 0.25284499 30 14
-1.154814 0.15983272 -0.020349504 84 7
-1.0869042 0.15062694 0.29401845 49 15
-1.1037762 0.15551828 -0.29867718 13 0
-1.1266704 0.15894479 0.019860838 100 8
-1.1094843 0.15691526 -0.25869372 36 1
-1.1196085 0.1589451 -0.21981198 22 2
-1.1225544 0.15976304 -0.17958678 35 3
-1.1103051 0.15861285 -0.13771236 74 4
-1.1024697 0.15808256 -0.097440116 100 5
-1.0897815 0.15703994 0.25419468 32 14
-1.0879031 0.15735075 0.29453608 47 15
-1.1047736 0.16215365 -0.29919481 7 0
-1.1237578 0.16514069 0.019825934 100 8
-1.1239855 0.16557468 -0.26229292 15 1
-1.1183504 0.16494428 0.059244309 140 9
-1.1137997 0.16506733 -0.17833532 44 3
-1.1191907 0.16646519 -0.13893107 97 4
-1.1074526 0.16531202 -0.097963057 100 5
-1.115998 0.16718496 -0.059139632 100 6
-1.0888588 0.16331388 0.25419468 30 14
-1.113346 0.16718528 -0.019651409 148 7
-1.0812479 0.16275123 0.29298317 37 15
-1.0560782 0.16122517 -0.28625387 1 0
-1.1208113 0.17130804 0.019791029 100 8
-1.1230133 0.17204548 -0.26229292 5 1
-1.131201 0.17350218 0.05997701 132 9
-1.0517279 0.16168845 -0.20683697 0 2
-1.1010867 0.16986683 -0.17645809 61 3
-1.1338768 0.17553355 -0.14088097 81 4
-1.1163263 0.17321533 -0.098834611 100 5
-1.1248841 0.17514639 -0.059662998 100 6
-1.093647 0.1706737 0.25554439 30 14
-1.1360431 0.1774931 -0.020070268 143 7
-1.0745374 0.16826782 0.29143026 35 15
-1.1138194 0.17720869 0.019686313 100 8
-1.0854074 0.17288284 -0.25374478 4 1
-1.1202587 0.17883462 0.059453651 131 9
-1.0922574 0.17514686 -0.17520662 50 3
-1.1249756 0.18099752 -0.13990602 91 4
-1.1152474 0.18003142 -0.098834611 100 5
-1.172556 0.18949258 0.23087889 0 13
-1.1060491 0.17914079 -0.05872095 100 6
-1.1022329 0.17872013 0.2577939 20 14
-1.1230946 0.18250506 -0.019860838 141 7
-1.0830537 0.17619236 0.29401845 33 15
-1.1166942 0.18446679 0.019756125 100 8
-0.73442286 0.1215829 -0.17186262 1 1
-1.1073555 0.18351978 0.058825623 120 9
-1.0950961 0.18227386 -0.17583236 30 3
-1.1180079 0.18668908 -0.1391748 52 4
-1.1357744 0.19026707 -0.10075203 58 5
-1.1520487 0.19320007 0.22706272 5 13
-1.1108755 0.18669394 -0.059034962 74 6
-1.0896227 0.183318 0.2550945 20 14
-1.1259687 0.18963493 -0.01993065 100 7
-1.0896088 0.18390235 0.29608899 38 15
-0.70647043 0.12075913 -0.19204374 1 0
-6.8277102 1.1683075 0.12091027 60 8
-0.68377197 0.11724771 -0.16016515 1 1
-8.551034 1.4677985 0.45469484 95 9
-1.1547855 0.20050374 0.22782594 18 13
-1.0693505 0.18624659 0.25059548 16 14
-8.5477371 1.4902812 -0.15145199 64 7
-1.0752103 0.18784751 0.29246551 51 15
-7.4234047 1.3142891 0.13159114 72 8
-8.5345707 1.5156283 0.45427614 96 9
-1.0282977 0.1829825 -0.20302078 0 2
-6.0420346 1.0806022 -0.75364012 0 4
-1.1746902 0.21072507 -0.10441258 7 5
-1.1284912 0.2026408 0.22286493 14 13
-1.0797672 0.19447517 0.25329489 30 14
-8.466197 1.5263609 -0.15016051 132 7
-1.0684074 0.19300674 0.29091263 49 15
-0.61001468 0.11151843 -0.16616184 1 0
-0.98860919 0.18180034 -0.19538842 0 2
-5.9263964 1.0951835 -0.73999077 0 4
-1.1577848 0.21458273 -0.10301808 2 5
-1.1234444 0.20842093 0.22210167 14 13
-1.0882086 0.2024734 0.25554439 39 14
-1.0634799 0.19844848 0.28987733 49 15
-0.60936224 0.11503007 -0.16616184 1 0
-8.109252 1.5322592 0.14405216 6 8
-8.2359314 1.5606622 0.43930805 8 9
-0.99911845 0.18968853 -0.19767812 0 2
-5.9314923 1.1325651 -0.74145311 0 4
-1.0175896 0.19466799 -0.090641975 1 5
-1.0913374 0.2091708 0.2159958 7 13
-7.9675689 1.5285448 -0.42517737 4 6
-1.0850742 0.20855939 0.2550945 38 14
-8.0884151 1.5561198 -0.14377292 7 7
-1.0698712 0.20621817 0.2919479 45 15
-0.59347945 0.11579071 -0.16202073 1 0
-7.8328233 1.5296427 0.13930511 8 8
-7.8224788 1.5318748 0.41774565 4 9
-1.5798064 0.30965912 -0.31292677 1 2
-1.1532021 0.22792159 -0.10284378 1 5
-1.144003 0.22631119 0.2266811 9 13
-7.7033935 1.5267081 -0.41157001 2 6
-1.0761715 0.21347806 0.25329489 10 14
-7.7316022 1.5365081 -0.13759477 4 7
-1.0875759 0.21633221 0.29712427 9 15
-0.60793281 0.12235981 -0.16616184 1 0
-7.5883713 1.528706 0.13511653 5 8
-7.5920291 1.5335795 0.40591773 3 9
-0.89095205 0.18110424 -0.11163233 3 4
-1.173304 0.2391378 -0.1047612 5 5
-1.1407164 0.2327033 0.22629949 8 13
-7.4613366 1.5248088 -0.39911404 3 6
-1.1646186 0.23821448 0.27444029 1 14
-7.4699054 1.5292743 -0.13309206 3 7
-1.1581867 0.23753099 0.31679454 2 15
-7.3562279 1.5260789 0.13113739 1 8
-7.3425546 1.5272545 0.39304307 2 9
-1.6183037 0.3371968 -0.32132238 0 2
-0.85469651 0.17839958 -0.13828808 1 3
-1.1719073 0.24589142 -0.1047612 9 5
-1.1489638 0.24128702 0.22820757 7 13
-7.2745733 1.5303392 -0.38958889 31 6
-1.1803896 0.24853192 0.27848941 1 14
-7.2457342 1.5269154 -0.12925252 8 7
-1.1095445 0.23422217 0.30385357 2 15
-0.67841464 0.14506786 -0.16016515 1 1
-7.2535629 1.552381 0.38875154 30 9
-0.81776547 0.17531352 -0.16256927 1 2
-1.1704274 0.25284171 -0.1047612 9 5
-1.1302416 0.24436675 0.22477302 4 13
-1.1827031 0.25635758 0.27938923 1 14
-1.1100228 0.24121226 0.30437121 1 15
-0.59058672 0.1297408 -0.16202073 1 0
-1.8378174 0.4040702 0.03284543 15 8
-0.60519677 0.13328256 -0.14306886 5 1
-1.6256902 0.35891849 -0.32361206 0 2
-1.1727508 0.26085171 -0.10510983 11 5
-1.1363932 0.25297293 0.22629949 5 13
-1.1773111 0.26272869 0.27848941 1 14
-1.8208544 0.40667543 -0.03256619 3 7
-1.1349224 0.25389311 0.31161815 1 15
-0.59543604 0.13462405 -0.16357364 3 0
-1.8353149 0.41528937 0.03284543 25 8
-0.63097888 0.14300732 -0.1493675 1 1
-1.7077038 0.38798073 -0.34040326 0 2
-1.7681916 0.4023723 -0.28721371 6 3
-1.1925471 0.27269152 -0.10702725 8 5
-1.1348721 0.2597118 0.22629949 4 13
-1.1377432 0.2609961 0.26949137 1 14
-1.8261318 0.4195821 -0.03270581 30 7
-0.59274495 0.13771807 -0.16305602 1 0
-1.8367137 0.42707855 0.032915238 28 8
-0.72504604 0.16872342 -0.17186262 1 1
-1.7773137 0.41555598 -0.28909093 4 3
-1.1773793 0.27636832 -0.10580707 10 5
-1.1199327 0.26329657 0.22362815 2 13
-1.8061345 0.42495504 -0.097240217 2 6
-1.1361744 0.26774284 0.26949137 1 14
-1.8003296 0.42458412 -0.032286953 18 7
-0.64114559 0.15132406 0.1765146 36 15
-1.1408535 0.27494803 -0.10266946 12 5
-1.1088551 0.26744086 0.22172007 1 13
-0.66784906 0.16132303 -0.03600714 9 6
-1.0531639 0.25459245 0.25014558 0 14
-1.7861924 0.43212512 -0.032077521 1 7
-0.61958355 0.15012187 0.17082058 39 15
-0.63516104 0.15542287 0.011413874 7 8
-0.63679892 0.15641288 -0.12746042 2 2
-0.72507638 0.17836413 -0.11826447 2 3
-0.75938672 0.18722594 -0.096033052 5 4
-1.1431195 0.28246978 -0.10301808 4 5
-0.68991613 0.17060922 0.13814571 4 13
-0.63588989 0.15748446 -0.034332391 10 6
-0.6828354 0.16923764 0.16241467 5 14
-0.6657238 0.16511992 -0.011972351 18 7
-0.62808299 0.15601659 0.17340876 50 15
-0.62843639 0.15761915 0.011309159 14 8
-0.62748957 0.15761434 -0.1493675 3 1
-0.6295253 0.15824264 0.034018375 58 9
-0.65302229 0.16439123 -0.13089497 14 2
-0.6531657 0.16466996 -0.10668832 21 3
-0.62164849 0.15707035 -0.078727603 18 4
-0.6199882 0.15699622 -0.055953983 52 5
-0.63182908 0.16011196 0.12669718 22 13
-0.61367744 0.15574013 -0.033180997 86 6
-0.62518597 0.15877709 0.1489176 18 14
-0.6163097 0.15663715 -0.011099731 100 7
-0.61594099 0.15677249 0.17030294 91 15
-0.62364477 0.16024058 0.01123935 100 8
-0.59826237 0.15394157 -0.14261897 3 1
-0.62280095 0.16037174 0.033704359 100 9
-0.64446032 0.16618878 -0.1293685 23 2
-0.64264333 0.16595946 -0.10512397 21 3
-0.63034242 0.1631349 -0.079946294 35 4
-0.64414525 0.16706704 -0.058220036 42 5
-0.62709582 0.16276202 0.12593395 46 13
-0.61663634 0.16027686 -0.033390343 85 6
-0.64312094 0.16728076 0.15341662 23 14
-0.61539733 0.16018429 -0.011099731 100 7
-0.62998295 0.16421565 0.17444403 87 15
-0.61295742 0.16160689 0.011064826 45 8
-0.62177765 0.1641645 -0.14846769 5 1
-0.60440201 0.1596899 0.032762311 10 9
-0.63011783 0.16671947 -0.12669718 90 2
-0.6320405 0.16746441 -0.10355964 43 3
-0.64081669 0.17014885 -0.081408732 69 4
-0.60650033 0.16137719 -0.054908119 93 5
-0.62036943 0.16518341 0.12478909 97 13
-0.62912601 0.16775018 -0.034123044 100 6
-0.59875131 0.15976316 0.14306886 65 14
-0.58733064 0.15682547 -0.010611064 100 7
-0.62147355 0.16617467 0.17237349 76 15
-0.59874135 0.16144067 -0.16616184 1 0
-0.60429388 0.16305098 0.010925207 81 8
-0.60200906 0.16265991 -0.14396867 5 1
-0.6111843 0.16525349 0.033180997 8 9
-0.61777693 0.16726743 -0.12440747 76 2
-0.63106555 0.17110185 -0.10355964 43 3
-0.63982606 0.17383693 -0.081408732 60 4
-0.60748315 0.16539113 -0.055082429 100 5
-0.61372501 0.16720544 0.12364423 97 13
-0.65512508 0.17873044 -0.035588451 100 6
-0.6279003 0.1714206 0.1502673 63 14
-0.60570765 0.16547561 -0.010960111 65 7
-0.60559911 0.16567314 0.16823238 80 15
-0.57545382 0.15872258 -0.15995018 1 0
-0.60527235 0.16706067 0.010960111 81 8
-0.61984533 0.17131597 -0.14846769 5 1
-0.60252249 0.16664122 0.032762311 8 9
-0.63004756 0.17449084 -0.12707879 58 2
-0.62435889 0.17315003 -0.10262102 45 3
-0.64263952 0.17858209 -0.081896208 68 4
-0.62763357 0.17476615 -0.056999855 88 5
-0.59573102 0.16599484 0.12020968 72 13
-0.65023732 0.18142714 -0.035379112 100 6
-0.61751783 0.17241399 0.14801779 45 14
-0.62785572 0.17541867 -0.011378969 100 7
-0.61021614 0.17071977 0.16978529 78 15
-0.60237569 0.17000097 0.010925207 36 8
-0.60759658 0.1717034 -0.14576827 7 1
-0.60155272 0.17010881 0.032762311 8 9
-0.6365881 0.18025622 -0.12860526 40 2
-0.62525177 0.17728214 -0.10293389 48 3
-0.63396209 0.1801105 -0.080921248 70 4
-0.62661654 0.17837821 -0.056999855 88 5
-0.63063979 0.17964233 0.12746042 100 13
-0.62037176 0.17695171 -0.033809032 20 6
-0.61651456 0.17596768 0.14801779 60 14
-0.60760695 0.1735401 -0.011029921 43 7
-0.63151139 0.18060575 0.17599694 85 15
-0.59586257 0.17176166 -0.16616184 1 0
-0.60330784 0.17402169 0.010960111 51 8
-0.61970311 0.17898531 -0.1489176 3 1
-0.5986442 0.17301604 0.032657638 100 9
-0.62799579 0.18173674 -0.12707879 24 2
-0.62039429 0.17988899 -0.10230815 37 3
-0.62525713 0.18165396 -0.079946294 62 4
-0.62557876 0.18198422 -0.056999855 81 5
-0.61071336 0.17789105 0.12364423 31 13
-0.60783744 0.1771684 -0.033180997 100 6
-0.60984737 0.17798519 0.14666808 28 14
-0.59504938 0.1737791 -0.010820491 44 7
-0.62115747 0.18163922 0.17340876 75 15
-0.68745065 0.20271887 -0.19204374 1 0
-0.61374122 0.18109952 0.011169541 64 8
-0.60741621 0.17934841 -0.14621818 3 1
-0.58416897 0.17270602 0.031924937 97 9
-0.62314123 0.1843462 -0.12631556 15 2
-0.6344673 0.18805817 -0.1048111 36 3
-0.61845928 0.18366563 -0.07921508 45 4
-0.61681688 0.18352936 -0.056302607 67 5
-0.62281847 0.18543358 0.12631556 66 13
-0.61248595 0.18258984 -0.033495016 100 6
-0.59010619 0.17603044 0.14216907 45 14
-0.59206069 0.1768384 -0.010785587 22 7
-0.62006867 0.18532196 0.17340876 63 15
-0.58635217 0.17669511 -0.16409127 1 0
-0.57436472 0.17319225 0.010471444 15 8
-0.60630929 0.18305559 -0.14621818 5 1
-0.56592661 0.17097111 0.030982887 67 9
-0.63139921 0.19099146 -0.12822366 13 2
-0.63334024 0.19181974 -0.1048111 29 3
-0.63255507 0.19194357 -0.081164986 43 4
-0.60809195 0.18486819 -0.055605359 68 5
-0.60480267 0.18398368 0.122881 54 13
-0.63431883 0.19320472 -0.03475108 100 6
-0.61328435 0.18691471 0.14801779 39 14
-0.59103239 0.18024555 -0.010785587 22 7
-0.60971993 0.18617728 0.17082058 78 15
-0.68503314 0.21074353 -0.19204374 1 0
-0.54851216 0.16884916 0.010017681 8 8
-0.63690394 0.19630213 -0.15386651 1 1
-0.56111538 0.17305049 0.030773545 68 9
-0.60777843 0.1876739 -0.12364423 2 2
-0.58881843 0.18204448 -0.097615115 4 3
-0.61437309 0.19029765 -0.078971341 9 4
-0.59940565 0.18600558 -0.054908119 31 5
-0.60185802 0.18688193 0.12249938 57 13
-0.58551514 0.18203127 -0.03213428 33 6
-0.59545058 0.18523422 0.14396867 25 14
-0.65490186 0.20385365 -0.011972351 18 7
-0.59019393 0.18393794 0.1656442 27 15
-0.55134612 0.17320426 0.010087491 8 8
-1.6433165 0.51687437 -0.39771348 6 1
-0.54677343 0.17208235 0.03004084 35 9
-1.692733 0.53339148 -0.34498268 37 2
-1.6822751 0.53074211 -0.279392 21 3
-1.7621959 0.55697107 -0.22692074 30 4
-0.57743049 0.18283899 -0.05299069 8 5
-0.60920602 0.19325146 -0.033495016 10 6
-0.66309834 0.21047449 0.16061506 2 14
-0.6537168 0.20762232 -0.011972351 18 7
-0.60753489 0.19318826 0.17082058 13 15
-0.55414802 0.17759731 0.0101573 8 8
-0.70882273 0.22744159 -0.17186262 1 1
-0.55337989 0.17767082 0.030459529 34 9
-1.6746801 0.53832573 -0.34192973 46 2
-1.6810708 0.54102749 -0.27970487 46 3
-1.7381762 0.5604105 -0.2242396 62 4
-1.7613347 0.56889528 -0.16193536 4 5
-1.0965844 0.35439828 0.22400977 1 13
-1.7083329 0.55276406 -0.094100058 8 6
-0.54931444 0.17954355 0.010087491 8 8
-0.4916082 0.16096719 0.027110027 39 9
-1.6678208 0.54673892 -0.3411665 49 2
-1.6797075 0.55160969 -0.28001773 45 3
-1.7198335 0.56545252 -0.22228971 53 4
-1.7372125 0.57217449 -0.16001794 6 5
-1.0870041 0.35844013 0.22248329 6 13
-1.727881 0.57010394 -0.095356122 2 6
-1.6784071 0.55410475 0.40806124 0 14
-4.6367292 1.5334523 1.3085891 1 15
-0.61397737 0.20460005 -0.17340876 1 0
-0.53685725 0.179005 0.0098780626 8 8
-0.63956988 0.21350068 -0.15566613 1 1
-0.52095437 0.17400563 0.028784778 37 9
-1.6701326 0.55849433 -0.34231135 34 2
-1.6689122 0.55905789 -0.27876624 46 3
-1.7296222 0.58006626 -0.22399586 35 4
-1.6639063 0.55899632 -0.15356842 17 5
-1.4365529 0.48317412 0.2946091 1 13
-5.1416192 1.7313453 1.2525275 2 14
-4.5286999 1.5275966 1.2806368 1 15
-0.60909426 0.20699668 -0.17237349 1 0
-0.53389233 0.18154375 0.0098431567 8 8
-1.5735918 0.53569448 -0.3837665 5 1
-1.6742218 0.57093006 -0.34383783 38 2
-1.6619259 0.56738418 -0.27814052 46 3
-1.6960971 0.580042 -0.22009605 31 4
-1.6530205 0.56627727 -0.15287116 20 5
-1.5934641 0.54618609 0.32742825 1 13
-5.1275682 1.7605594 1.2516277 13 14
-4.6182041 1.5883718 1.3085891 1 15
-1.3507892 0.46801674 -0.3830522 3 0
-0.51013303 0.17684884 0.0094242999 8 8
-1.6727605 0.58120716 -0.34421945 42 2
-1.6585295 0.57723683 -0.27814052 45 3
-1.692625 0.59009719 -0.22009605 28 4
-1.6723047 0.58366728 -0.15496291 11 5
-1.6217024 0.56664109 0.33391577 0 13
-4.2249537 1.4787289 1.0334252 12 14
-4.2242894 1.4801531 1.1993675 23 15
-1.3426061 0.47386023 -0.38149929 4 0
-0.55058879 0.19443306 0.010192206 8 8
-1.3687913 0.48390818 -0.33517709 45 1
-1.6655805 0.58981311 -0.34345621 42 2
-1.66066 0.58904934 -0.27907911 42 3
-1.6686211 0.592529 -0.21741492 17 4
-1.670689 0.59424853 -0.15513723 16 5
-1.6109134 0.57361996 0.3323893 2 13
-4.1337647 1.4735931 1.0131795 15 14
-4.1481161 1.4811575 1.180215 28 15
-1.3397706 0.48181885 -0.38149929 2 0
-0.51931977 0.18686424 0.0096337292 8 8
-1.3567286 0.48871982 -0.33292755 46 1
-1.6454308 0.59368938 -0.34002164 41 2
-1.6589932 0.59956473 -0.279392 34 3
-1.6296088 0.58958828 -0.21278389 15 4
-1.6652601 0.60347301 -0.15496291 33 5
-1.6628475 0.60325587 0.34383783 0 13
-1.663381 0.60377747 -0.092739321 9 6
-4.0571752 1.4734834 0.99653322 19 14
-1.7045594 0.61973524 -0.031658668 1 7
-4.0738974 1.4819713 1.16158 28 15
-1.3187482 0.48311523 -0.37632293 3 0
-0.50693649 0.18581338 0.0094242999 8 8
-1.3483162 0.49474809 -0.33157787 36 1
-1.5884395 0.58380222 -0.32895473 14 2
-1.6592202 0.61047423 -0.28001773 15 3
-1.6316694 0.60130763 -0.2135151 13 4
-1.6448276 0.60713506 -0.1533941 33 5
-3.9835348 1.4711825 0.82543975 0 13
-1.6522753 0.61086732 -0.092320636 12 6
-3.9862177 1.4745464 0.98123646 12 14
-1.6595963 0.61456186 -0.030890759 1 7
-3.9817014 1.4752473 1.1377686 12 15
-1.3104283 0.48890626 -0.37476999 2 0
-1.3490955 0.50386941 -0.33247766 9 1
-1.4324297 0.53584844 -0.29728043 3 2
-1.6611179 0.62238854 -0.28095633 3 3
-1.6355066 0.61376917 -0.21449007 6 4
-3.9177682 1.4733731 0.81360966 1 13
-1.6655535 0.62670374 -0.09326268 8 6
-3.9172168 1.4755071 0.96638966 3 14
-1.6298323 0.61423713 -0.030402092 1 7
-3.879143 1.4627111 1.1108514 1 15
-1.3274573 0.50398844 -0.38046399 1 0
-1.3551891 0.51532924 -0.33472717 0 1
-1.6869259 0.64349931 -0.28596222 0 3
-1.6579072 0.63309282 -0.21790241 1 4
-1.7008872 0.65052587 -0.1593207 1 5
-3.9034562 1.4944893 0.81246477 0 13
-1.6860515 0.64586425 -0.094623417 1 6
-3.8467851 1.4743317 0.95109308 2 14
-1.7605826 0.67547166 -0.032915238 1 7
-3.8379312 1.4732432 1.1015339 1 15
-3.7635329 1.4680972 0.93264711 2 14
-3.722152 1.4774625 0.9245488 1 14
-0.51013762 0.20435038 -0.12687239 2 1
-0.49560833 0.19883145 -0.1038001 2 2
-0.50959718 0.20465 -0.086977579 4 3
-0.52955616 0.21956579 -0.11143246 2 2
-0.46673602 0.19677319 -0.098457448 2 2
-0.50591063 0.21360101 -0.086977579 4 3
-0.54939014 0.23683205 0.13811995 3 14
-0.46935448 0.20495841 -0.062884584 12 4
-0.46471357 0.20924056 -0.080720194 4 3
-0.46808645 0.21203795 0.13769174 17 15
-0.46685746 0.21473034 0.13769174 17 15
-0.45861125 0.21414635 0.13562119 17 15
-0.49107197 0.24580333 -0.086977579 4 3
-1.6317694 0.82784367 -0.35566798 0 2
-1.7365117 0.88212597 -0.30848882 0 3
-2.7273054 1.4004408 -0.82149172 1 0
-1.6599933 0.85458571 -0.36291873 3 2
-1.6733043 0.86254704 -0.29816413 8 3
-2.847332 1.4689883 -0.39339426 1 4
-2.8110023 1.4521091 -0.27680662 2 5
-2.7922745 1.4442872 -0.16475362 1 6
-2.828661 1.4649856 -0.055603366 0 7
-2.737793 1.4264188 -0.82718569 5 0
-2.7598944 1.441612 -0.60524619 2 2
-1.6753109 0.87583113 -0.29941559 18 3
-2.7752512 1.4527166 -0.38461968 3 4
-2.7652774 1.4493408 -0.27314609 9 5
-2.7606637 1.4487664 -0.16339287 6 6
-2.7437992 1.4417489 -0.054102462 1 7
-2.7070765 1.4309047 -0.82045639 1 0
-2.7203178 1.4409415 -0.59837705 7 2
-1.6770645 0.88945955 -0.30066708 37 3
-2.7104785 1.4393669 -0.37682006 12 4
-2.7252159 1.4484119 -0.27000847 26 5
-2.7223001 1.4486915 -0.16161345 21 6
-2.7125075 1.4453032 -0.053648699 7 7
-2.7087142 1.4523997 0.053648699 1 8
-2.6769743 1.4365842 -0.70139736 4 1
-2.6857781 1.4431202 -0.5926528 32 2
-2.6963823 1.4506379 -0.48494691 39 3
-2.6601958 1.4323674 -0.37097031 25 4
-2.6885126 1.4494315 -0.26721951 45 5
-2.6890497 1.4515386 -0.16014804 39 6
-2.6774955 1.4471124 -0.053125124 15 7
-2.666398 1.4495437 -0.81320947 1 0
-2.666671 1.4502952 0.052985508 9 8
-2.6547096 1.4449915 -0.69779819 45 1
-2.6392415 1.4383638 -0.58425713 53 2
-2.6478441 1.4448507 -0.47775093 46 3
-2.6499069 1.4471768 -0.37072656 56 4
-2.6256728 1.4357272 -0.26181585 46 5
-2.6646218 1.4588376 -0.15920599 55 6
-2.6425581 1.4485569 -0.052601553 30 7
-2.6577492 1.4653411 -0.81320947 1 0
-2.6194959 1.4448458 0.052217599 21 8
-2.6102612 1.4409413 -0.68835026 59 1
-2.6100409 1.4426033 -0.57967776 53 2
-2.6011996 1.4394951 -0.47086781 46 3
-2.6097624 1.4460191 -0.36633927 47 4
-2.5979402 1.440654 -0.25989842 50 5
-2.6192489 1.454264 -0.15700789 54 6
-2.6164382 1.4544961 -0.052252505 47 7
-2.6015396 1.4551437 -0.79871565 1 0
-2.584445 1.4461733 0.051694028 37 8
-2.5574534 1.4316558 -0.67665279 52 1
-2.574033 1.4427077 -0.57357186 53 2
-2.5616038 1.4375042 -0.46523616 50 3
-2.582099 1.4507844 -0.36365816 50 4
-2.5682535 1.444775 -0.25780669 49 5
-2.5633307 1.443773 -0.15418173 51 6
-2.581377 1.455718 -0.051728934 51 7
-2.5189211 1.4286212 -0.77593952 1 0
-2.5445113 1.4437217 0.051065743 46 8
-2.524936 1.4337802 -0.67035419 46 1
-2.5429847 1.4457905 -0.56861085 51 2
-2.5410099 1.4458416 -0.46304604 52 3
-2.5354981 1.4444631 -0.35829589 53 4
-2.5354056 1.44617 -0.25536633 50 5
-2.5373743 1.4490542 -0.15313502 56 6
-2.5434351 1.4536929 -0.051135551 50 7
-2.5173504 1.4469565 -0.77801007 1 0
-2.5240192 1.451375 0.050821409 50 8
-2.4963675 1.436635 -0.66495532 43 1
-2.4988928 1.4398303 -0.56059688 31 2
-2.5121052 1.4486115 -0.45929164 53 3
-2.5030684 1.4451472 -0.35488355 52 4
-2.506335 1.4487834 -0.25327459 49 5
-2.4978712 1.445636 -0.15125093 55 6
-2.4900301 1.4422594 -0.050228026 52 7
-2.5156524 1.4653205 -0.78008062 1 0
-2.4948847 1.4538069 0.050402552 50 8
-2.4678514 1.4392081 -0.65955651 35 1
-2.4261332 1.4165816 -0.54609537 13 2
-2.4747264 1.4461131 -0.45397288 40 3
-2.4775696 1.4495158 -0.35244617 48 4
-2.4566889 1.4390266 -0.2490911 44 5
-2.4619377 1.443833 -0.14957617 51 6
-2.4523644 1.4393684 -0.049634643 49 7
-2.4805522 1.4640739 -0.77179843 1 0
-2.4262025 1.4325665 0.04918088 10 8
-2.4377108 1.4405102 -0.65370774 42 1
-2.4297614 1.4375296 -0.54876673 9 2
-2.4289615 1.4382004 -0.44708973 14 3
-2.4299057 1.4404781 -0.3468402 10 4
-2.4140904 1.4345218 -0.14716873 8 6
-2.3938868 1.4321443 0.048692215 27 8
-2.3942628 1.4335034 -0.64425981 38 1
-2.4113383 1.4454435 -0.54647696 6 2
-2.3780403 1.4271764 -0.43926802 34 3
-2.3875341 1.4340076 -0.34196541 34 4
-2.3784819 1.4302658 -0.24281588 29 5
-2.383544 1.4350097 -0.14580798 32 6
-2.3874116 1.4390426 -0.048657309 30 7
-2.3716667 1.4380299 0.048412975 28 8
-2.3573916 1.4305005 -0.63661146 42 1
-2.3674827 1.4383208 -0.538463 7 2
-2.3577156 1.4340773 -0.43707794 28 3
-2.3501563 1.4306034 -0.33782184 32 4
-2.351238 1.4329495 -0.24089848 28 5
-2.3477075 1.4324843 -0.14413324 28 6
-2.3549397 1.4385896 -0.048168644 35 7
-2.3409433 1.438468 0.047959212 19 8
-2.3256218 1.4301726 -0.63031286 46 1
-2.3304858 1.4348457 -0.53197551 18 2
-2.3309176 1.436234 -0.43363637 24 3
-2.3230417 1.4330597 -0.33514073 30 4
-2.3172665 1.4311724 -0.2382838 22 5
-2.3187809 1.4337856 -0.14287716 25 6
-2.3123565 1.4314872 -0.047470544 34 7
-2.3102982 1.438593 0.04750545 25 8
-2.3057678 1.4363307 -0.62716353 52 1
-2.2971957 1.4326607 -0.52625126 25 2
-2.3072734 1.4406251 -0.43082058 22 3
-2.3043969 1.4405063 -0.33367831 30 4
-2.2836485 1.4286451 -0.23566914 21 5
-2.3003283 1.4407563 -0.14224915 25 6
-2.2956023 1.4394701 -0.047296021 30 7
-2.2796817 1.4372599 -0.72210521 1 0
-2.2766037 1.4358736 0.046981879 27 8
-2.2774289 1.4375062 -0.62176472 55 1
-2.2687378 1.4336822 -0.52167183 24 2
-2.25862 1.4289438 -0.42331171 22 3
-2.2773616 1.4424709 -0.33099717 25 4
-2.2498889 1.4261706 -0.23305444 20 5
-2.2664435 1.4383284 -0.14067906 26 6
-2.2667661 1.4401983 -0.046877164 27 7
-2.2448137 1.4345149 -0.71382296 8 0
-2.2509413 1.4389832 0.04663283 26 8
-2.2393076 1.4320965 -0.61366647 55 1
-2.2453098 1.437592 -0.51823723 28 2
-2.2367964 1.4337929 -0.42080876 23 3
-2.2386894 1.4366612 -0.32660985 23 4
-2.2294011 1.4323492 -0.23183426 21 5
-2.2256992 1.4316176 -0.13869029 23 6
-2.2461572 1.4464397 -0.04663283 24 7
-2.211937 1.4320618 -0.70605838 38 0
-2.2171867 1.4360089 0.046109259 28 8
-2.2108941 1.4330299 -0.60826766 54 1
-2.2068419 1.4320447 -0.5113681 34 2
-2.208118 1.4345163 -0.41705433 22 3
-2.2084894 1.435854 -0.32344127 20 4
-2.2008245 1.4325106 -0.22974254 22 5
-2.1970847 1.4317147 -0.13743424 26 6
-2.2040386 1.4378905 -0.045934737 21 7
-2.1904771 1.436686 -0.70191729 53 0
-2.1935787 1.4392679 0.045795113 35 8
-2.1893201 1.4375671 -0.60466844 60 1
-2.1720569 1.4278598 -0.50526226 34 2
-2.1814158 1.4356483 -0.41361275 24 3
-2.1700892 1.4292804 -0.31905395 20 4
-2.1673348 1.429094 -0.22712786 26 5
-2.1785491 1.4381254 -0.1368062 38 6
-2.1604331 1.4277912 -0.045201734 21 7
-2.1465137 1.4261395 -0.69052929 61 0
-2.1650145 1.4389768 0.045376256 41 8
-2.1661477 1.4408196 -0.60061932 53 1
-2.147454 1.4294676 -0.50144607 40 2
-2.1418784 1.4273752 -0.40766826 31 3
-2.1367998 1.4256067 -0.31539789 25 4
-2.1372781 1.4275436 -0.22486182 33 5
-2.1552861 1.4406598 -0.13586415 41 6
-2.1455259 1.4357618 -0.045062114 28 7
-2.0485017 1.3780932 -0.66154152 18 0
-2.1251695 1.4302096 0.044713065 37 8
-2.1241195 1.430041 -0.59117132 54 1
-2.1310453 1.4363257 -0.49953794 42 2
-2.1090603 1.4231142 -0.40297523 34 3
-2.1139982 1.4275209 -0.31320426 30 4
-2.1061633 1.4238362 -0.22242144 39 5
-2.1237955 1.4373771 -0.13439874 40 6
-2.1209171 1.4365084 -0.044713065 38 7
-1.8571352 1.2644784 -0.60201317 39 0
-2.0973165 1.428547 0.044294208 37 8
-2.0933046 1.4268851 -0.58487272 46 1
-2.100034 1.4330833 -0.49419534 42 2
-2.0894108 1.4274378 -0.40078515 37 3
-2.0956588 1.4333161 -0.3117418 38 4
-2.0845256 1.427304 -0.22102696 40 5
-2.0839288 1.4284987 -0.13240999 43 6
-2.0991635 1.440019 -0.044433825 40 7
-1.8318846 1.2637322 -0.59631914 39 0
-2.0753841 1.432246 0.044014968 39 8
-2.0733249 1.4318935 -0.58172345 17 1
-2.0686328 1.4302534 -0.48885265 41 2
-2.0709066 1.4334292 -0.39890796 39 3
-2.0672846 1.4325236 -0.30881694 43 4
-2.0659456 1.4331975 -0.21998109 38 5
-2.0603995 1.4309485 -0.13146794 47 6
-2.0722656 1.4402612 -0.044049874 42 7
-1.8146298 1.2682589 -0.59321326 53 0
-2.0567636 1.4380218 0.043805543 39 8
-2.043782 1.4300086 -0.57587469 9 1
-2.0373454 1.4270945 -0.48351002 45 2
-2.0429537 1.4320861 -0.39515349 40 3
-2.0359988 1.4288012 -0.3054046 42 4
-2.0280595 1.4248151 -0.21684349 35 5
-2.0339019 1.4305106 -0.13031654 46 6
-2.0358827 1.4329668 -0.043456491 43 7
-1.7757545 1.2563736 -0.58286053 49 0
-2.0272276 1.4348258 0.043351781 41 8
-2.0068877 1.4214813 -0.5677765 7 1
-2.0098743 1.4251776 -0.47893062 45 2
-2.0169508 1.4312543 -0.39171195 43 3
-2.0147891 1.4313071 -0.30345467 42 4
-1.9938412 1.4179968 -0.2140545 35 5
-2.0174937 1.4364095 -0.12979318 47 6
-2.0064242 1.4295838 -0.043002732 42 7
-1.7653474 1.2643307 -0.58182526 47 0
-1.997798 1.431338 0.042898018 44 8
-1.9891646 1.4262036 -0.56507707 8 1
-1.988873 1.4275717 -0.47587767 41 2
-1.9797955 1.4221033 -0.38608032 43 3
-2.0000656 1.4382516 -0.30247974 42 4
-1.9727052 1.4201442 -0.21266 37 5
-2.0137115 1.4501981 0.48236516 8 13
-1.9913641 1.4351603 -0.1286418 46 6
-1.9914186 1.436785 -0.042863112 42 7
-1.7531221 1.2713816 -0.58027232 37 0
-1.9747015 1.4325992 0.042583872 45 8
-1.9178307 1.3918524 -0.54708099 5 1
-1.952154 1.417802 0.12644368 2 9
-1.9710878 1.4320796 -0.47358796 42 2
-1.9585414 1.4245313 -0.38357735 43 3
-1.9577956 1.4255568 -0.29736122 42 4
-1.9548317 1.4244429 -0.21161415 39 5
-1.9733448 1.438987 0.47473282 12 13
-1.957248 1.4277731 -0.12696704 46 6
-1.973421 1.4411546 -0.04265368 44 7
-1.7270824 1.2677402 -0.57406068 37 0
-1.9535234 1.4344801 0.042304631 45 8
-1.7697772 1.3005062 -0.50703967 29 1
-1.9455652 1.430205 0.12654836 7 9
-1.9372524 1.4251366 -0.46748206 42 2
-1.9407595 1.4287608 -0.38170013 41 3
-1.9351709 1.4262097 -0.2951676 43 4
-1.9399316 1.4312862 -0.21091689 37 5
-1.9539666 1.442168 0.47206149 17 13
-1.9358888 1.4298693 -0.12612967 48 6
-1.9423242 1.4361949 -0.042165015 42 7
-1.7520899 1.3021659 -0.58493102 12 0
-1.9369527 1.4400818 0.042130109 47 8
-1.7560028 1.3060256 -0.50524008 16 1
-1.9242264 1.4321852 0.12571098 9 9
-1.9069664 1.4198561 -0.46213943 40 2
-1.9164091 1.4284468 -0.37857145 42 3
-1.910764 1.425796 -0.29273018 45 4
-1.9124988 1.4281306 -0.20882516 40 5
-1.9343659 1.4455109 0.46939012 26 13
-1.9212224 1.4362123 -0.12571098 48 6
-1.9084036 1.4281877 -0.041606538 41 7
-1.7569119 1.3215261 -0.58907217 13 0
-1.909452 1.4367857 0.041711252 49 8
-1.9031836 1.4336303 0.12487361 9 9
-1.8828299 1.4193294 -0.45832324 43 2
-1.8889775 1.4255153 -0.37481701 43 3
-1.8930155 1.4296 -0.29126775 45 4
-1.880151 1.4214309 -0.20621049 42 5
-1.9085315 1.4439352 0.46519238 36 13
-1.8983331 1.4367394 -0.12476893 47 6
-1.8839567 1.4274108 -0.041257489 42 7
-1.7536497 1.3354393 -0.59062505 21 0
-1.8738507 1.4274907 0.041117873 46 8
-1.8721089 1.4271976 -0.54348177 1 1
-1.8819371 1.4352102 0.12403623 9 9
-1.8681316 1.4257126 -0.45679674 42 2
-1.8585093 1.4199096 -0.37043685 45 3
-1.875037 1.4335735 -0.28980532 46 4
-1.860608 1.424086 -0.2049903 39 5
-1.8687575 1.4313588 0.45755997 38 13
-1.8723351 1.4346168 -0.12361754 48 6
-1.9441524 1.4901838 0.56552696 1 14
-1.87228 1.436131 -0.041187681 42 7
-1.7579345 1.3552581 -0.5947662 16 0
-1.8495115 1.4263738 0.040768825 46 8
-1.8281245 1.410897 -0.53313398 10 1
-1.8591591 1.4353672 0.12309418 12 9
-1.8518705 1.4307718 -0.45488867 45 2
-1.8459942 1.4267465 0.20411874 1 10
-1.8424871 1.4245487 -0.36887249 46 3
-1.8507988 1.4325248 -0.28736794 47 4
-1.842675 1.4277802 -0.20394444 39 5
-1.8496208 1.433679 0.45488867 40 13
-1.8385384 1.4261161 -0.1219428 49 6
-1.8798499 1.4586862 0.54933047 2 14
-1.8497604 1.4358553 -0.040873535 43 7
-1.8765316 1.4576861 0.63669485 1 15
-1.7592384 1.3724908 -0.59787202 33 0
-1.8318073 1.4296205 0.040559392 46 8
-1.8215036 1.4226025 -0.53358394 1 1
-1.8288274 1.4288362 0.12162878 11 9
-1.8265862 1.4281123 -0.4506909 47 2
-1.8455932 1.4434919 0.2049903 3 10
-1.824917 1.4278338 -0.3669953 50 3
-1.8959112 1.4844476 0.29565504 1 11
-1.8237642 1.428472 -0.28444308 46 4
-1.8187425 1.4260757 -0.20220132 42 5
-1.8320644 1.4370385 0.45259899 39 13
-1.8224388 1.4305155 -0.12141944 50 6
-1.8346324 1.440605 0.53853279 9 14
-1.8257341 1.4341328 -0.040524486 45 7
-1.8407665 1.4469804 0.62737739 6 15
-1.7528205 1.383797 -0.59838963 45 0
-1.8125576 1.4314712 0.040315062 44 8
-1.7842308 1.4101115 -0.52503574 6 1
-1.8048999 1.4269593 0.12058206 11 9
-1.799855 1.4239913 -0.44611144 46 2
-1.8075651 1.4306049 0.20167838 9 10
-1.8073703 1.430964 -0.36511809 47 3
-1.842208 1.4595926 0.28858662 2 11
-1.8015052 1.4278554 -0.28224945 50 4
-1.8026946 1.4303355 -0.20132977 42 5
-1.8099173 1.4365817 0.44916439 43 13
-1.8063496 1.4347773 -0.12089607 51 6
-1.8018929 1.431751 0.5313344 17 14
-1.7955283 1.4272044 -0.040035821 47 7
-1.8021643 1.4335065 0.6170246 11 15
-1.7297276 1.3818122 -0.59321326 57 0
-1.7980345 1.4368933 0.040175438 47 8
-1.7715136 1.4167135 -0.52368605 1 1
-1.7919731 1.4335874 0.12026804 12 9
-1.7747647 1.4208375 -0.44191366 43 2
-1.7852992 1.4297831 0.20010957 11 10
-1.7775158 1.4240583 -0.36073789 47 3
-1.8027951 1.4453449 0.28371185 3 11
-1.7762173 1.4245455 -0.27956831 42 4
-1.8057963 1.448786 0.36668244 1 12
-1.7680151 1.419489 -0.19836646 35 5
-1.7893683 1.4371464 0.44611144 41 13
-1.7731478 1.4251375 -0.11922132 43 6
-1.784505 1.4347782 0.52863497 26 14
-1.7748125 1.427496 -0.039756581 43 7
-1.7728091 1.4269041 0.60977769 22 15
-1.7029904 1.37807 -0.58700162 45 0
-1.7578851 1.4229989 0.039477345 60 8
-1.759549 1.4253627 -0.52278626 17 1
-1.7643094 1.4297289 0.11901198 9 9
-1.770377 1.43567 -0.44305849 12 2
-1.7592608 1.4271644 0.19819216 14 10
-1.75933 1.4277304 -0.3588607 9 3
-1.7782686 1.4441292 0.28127447 6 11
-1.7733943 1.4406846 -0.28054324 10 4
-1.7813277 1.4476455 0.36355373 4 12
-1.7513326 1.4242846 -0.19749491 8 5
-1.7589819 1.4310155 0.44076881 33 13
-1.7502186 1.4249016 -0.11827926 10 6
-1.7618554 1.4348867 0.52458584 23 14
-1.7549564 1.4297776 -0.039512251 23 7
-1.7443439 1.4221455 0.60304838 21 15
-1.6905408 1.3841844 -0.58544868 55 0
-1.7392529 1.4255906 -0.51918703 37 1
-1.7545009 1.4386007 0.1189073 3 9
-1.760561 1.4445977 -0.4426769 40 2
-1.7463917 1.4334812 0.19766922 5 10
-1.7556579 1.4416001 -0.35979933 47 3
-1.7423148 1.4316624 0.27688718 2 11
-1.743598 1.4332274 -0.27713093 46 4
-1.7531252 1.4415706 0.35948643 2 12
-1.7431003 1.4343481 -0.19749491 42 5
-1.7355534 1.4286455 0.43695265 9 13
-1.7419826 1.4349587 -0.11827926 30 6
-1.7520581 1.4437711 0.52413595 8 14
-1.7343479 1.4296862 -0.03923301 20 7
-1.739105 1.4346267 0.60408366 12 15
-1.7256823 1.4296392 -0.60046023 77 0
-1.7290595 1.4329454 0.039198104 30 8
-1.719013 1.4256325 -0.51558781 74 1
-1.7277406 1.4333789 0.11765125 12 9
-1.7340848 1.4396651 -0.43809745 76 2
-1.7442373 1.4486074 0.19836646 27 10
-1.7288418 1.4368418 -0.35604486 91 3
-1.7187757 1.4289825 0.2744498 10 11
-1.7243805 1.4346613 -0.27542472 81 4
-1.7263204 1.4367844 0.35573202 16 12
-1.7179675 1.4303408 -0.19557749 59 5
-1.7270453 1.4389191 0.43695265 33 13
-1.7321548 1.443689 -0.11817461 65 6
-1.7195147 1.434172 0.51693749 40 14
-1.7350461 1.447639 -0.039442439 41 7
-1.7127657 1.4300642 0.59787202 27 15
-1.7065567 1.4314629 -0.59683669 72 0
-1.7141465 1.4383396 0.039058488 59 8
-1.7000749 1.4270378 -0.51243848 65 1
-1.7158937 1.4413371 0.1174419 41 9
-1.7029656 1.4309847 -0.4323732 65 2
-1.7109572 1.4387192 0.19557749 54 10
-1.7036568 1.4330881 -0.35260335 64 3
-1.7191266 1.4471258 0.27591223 43 11
-1.6930604 1.4256887 -0.27176866 64 4
-1.6951019 1.4279143 0.35103899 38 12
-1.6924413 1.4266826 -0.19366007 54 5
-1.7154739 1.4466113 0.43618938 53 13
-1.7019341 1.4362097 -0.11670919 70 6
-1.693105 1.4292657 0.51153868 50 14
-1.7108948 1.4453064 -0.03909339 69 7
-1.6968719 1.4339679 0.59528387 51 15
-1.6759412 1.422811 -0.58907217 67 0
-1.6994845 1.4433081 0.038918864 75 8
-1.6853862 1.4323486 -0.51063889 64 1
-1.6951374 1.4411446 0.11660452 54 9
-1.6822298 1.4311837 -0.42932025 64 2
-1.6826648 1.43206 0.19331144 63 10
-1.68309 1.4329277 -0.35010037 64 3
-1.6893539 1.4392786 0.27249986 44 11
-1.678527 1.4305601 -0.27079371 63 4
-1.66856 1.4225684 0.34728456 51 12
-1.6703038 1.4250622 -0.19209124 57 5
-1.6889397 1.4414712 0.43160996 62 13
-1.690344 1.4436899 -0.11649985 76 6
-1.6964469 1.4494144 0.51513791 55 14
-1.67518 1.4317501 -0.038465101 56 7
-1.678056 1.435222 0.59166032 67 15
-1.6530643 1.4198521 -0.5838958 64 0
-1.6623257 1.4283119 0.038255677 66 8
-1.659377 1.4267855 -0.50524008 62 1
-1.676209 1.4417671 0.11587181 59 9
-1.6650314 1.4331642 -0.42703056 64 2
-1.66382 1.4326271 0.19209124 62 10
-1.6568485 1.4271278 -0.34634593 60 3
-1.6660005 1.4360242 0.27006248 46 11
-1.6642462 1.4350184 -0.26981872 61 4
-1.660339 1.4321553 0.34728456 57 12
-1.6484946 1.4229417 -0.19052245 58 5
-1.6627779 1.4357781 0.42703056 67 13
-1.6668886 1.4403434 -0.11545313 70 6
-1.6806991 1.4527895 0.51288843 59 14
-1.6623685 1.4374508 -0.038360391 59 7
-1.6507704 1.42843 0.58493102 64 15
-1.6390262 1.4242811 -0.58182526 62 0
-1.6450164 1.4299911 0.038046245 69 8
-1.6334888 1.4209709 -0.49984124 61 1
-1.6588373 1.443531 0.11524379 58 9
-1.6508272 1.4375727 -0.42550406 65 2
-1.6465273 1.4343344 0.19104539 62 10
-1.6334603 1.4239545 -0.34321725 63 3
-1.6382521 1.4286349 0.26689389 52 11
-1.6407446 1.4318171 -0.26738134 64 4
-1.6399063 1.4315896 0.34478158 63 12
-1.6340197 1.4274561 -0.18982521 61 5
-1.6468374 1.4391603 0.42512247 63 13
-1.6327536 1.4278581 -0.11367371 68 6
-1.6573814 1.4499059 0.50838935 60 14
-1.6553135 1.4486076 -0.038395293 64 7
-1.636452 1.4331096 0.58286053 64 15
-1.6186916 1.4240587 -0.57768416 61 0
-1.630246 1.4347286 0.037906628 67 8
-1.6130784 1.4206192 -0.49624202 64 1
-1.6275092 1.4338328 0.11367371 67 9
-1.6302333 1.4372438 -0.42245111 65 2
-1.6302634 1.437776 0.19017383 59 10
-1.6217694 1.4312915 -0.34259152 64 3
-1.6250299 1.4346744 0.26616266 61 11
-1.6170913 1.4286697 -0.26494396 66 4
-1.6207695 1.4324237 0.34259152 68 12
-1.616315 1.4294913 -0.18877934 61 5
-1.6233113 1.4361846 0.42130631 65 13
-1.616524 1.4311852 -0.11315035 64 6
-1.6193166 1.4341625 0.49939132 60 14
-1.6254793 1.4401269 -0.037906628 61 7
-1.6233302 1.4392346 0.58130759 67 15
-1.607077 1.4313506 -0.57664889 59 0
-1.6124932 1.4366784 0.0376972 69 8
-1.5970973 1.4239622 -0.49399251 69 1
-1.6067957 1.4331127 0.11283633 67 9
-1.5997022 1.4272866 -0.41672686 73 2
-1.6110468 1.4384195 0.18895365 62 10
-1.6073545 1.4356264 -0.34134007 64 3
-1.6076064 1.4363565 0.26470023 63 11
-1.5952665 1.4263321 -0.26275033 71 4
-1.5916281 1.4235795 0.33821136 68 12
-1.5959269 1.4284275 -0.18738484 61 5
-1.611835 1.4431727 0.42054302 63 13
-1.6008154 1.4338096 -0.11262699 66 6
-1.5991687 1.433341 0.49579209 62 14
-1.5960609 1.4310578 -0.037417959 61 7
-1.5977564 1.4330819 0.57509595 69 15
-1.5672325 1.4121326 -0.56526077 65 0
-1.5908235 1.4338927 0.037383057 72 8
-1.5818832 1.426335 -0.491743 65 1
-1.5911007 1.4356532 0.11231297 69 9
-1.5841682 1.4298996 -0.41481876 69 2
-1.5837638 1.4300369 0.1866876 66 10
-1.5858679 1.4329413 -0.33852422 69 3
-1.602252 1.4482542 0.26518771 63 11
-1.5872753 1.4352196 -0.26275033 71 4
-1.5834023 1.4327232 0.33821136 68 12
-1.5701987 1.4212738 -0.18529311 63 5
-1.5921074 1.4416103 0.41749012 65 13
-1.5866107 1.4376413 -0.1122083 68 6
-1.5853629 1.4370152 0.49399251 63 14
-1.5791551 1.4318904 -0.037208531 61 7
-1.5723081 1.4266822 0.56888431 67 15
-1.5521812 1.414358 -0.56267262 61 0
-1.565056 1.4265895 0.036964197 67 8
-1.5635639 1.426229 -0.4885937 69 1
-1.5845333 1.4458632 0.11241764 65 9
-1.5672079 1.4310569 -0.41252908 69 2
-1.5710882 1.4351031 0.18616466 70 10
-1.5630084 1.4287236 -0.33539551 73 3
-1.5777698 1.4427228 0.26250657 69 11
-1.5701942 1.4362991 -0.2612879 71 4
-1.5605534 1.4284811 0.33508268 65 12
-1.5502311 1.4195299 -0.18389861 61 5
-1.5676025 1.4364429 0.41329232 67 13
-1.5665256 1.4359591 -0.11137092 72 6
-1.5698787 1.4395369 0.491743 62 14
-1.5632635 1.4344758 -0.037034009 63 7
-1.5512565 1.4239569 0.56422555 71 15
-1.5409205 1.420925 -0.56163734 59 0
-1.5477439 1.4277169 0.036754768 71 8
-1.5436174 1.424908 -0.48499447 73 1
-1.5612519 1.441691 0.11137092 67 9
-1.5529205 1.4350021 -0.41100258 67 2
-1.553766 1.4362864 0.18511879 70 10
-1.5414518 1.4259012 -0.33257973 67 3
-1.544412 1.4291397 0.25836304 63 11
-1.5499896 1.4348032 -0.25933796 68 4
-1.5477017 1.433689 0.33414406 69 12
-1.5417804 1.4287039 -0.18389861 60 5
-1.5475345 1.4350402 0.41023937 62 13
-1.5433344 1.4316465 -0.1103242 80 6
-1.5513093 1.4395489 0.4885937 66 14
-1.5459317 1.4355625 -0.03682458 63 7
-1.5328715 1.4239336 0.56060207 63 15
-1.529637 1.4274077 -0.56060207 61 0
-1.52755 1.4259598 0.036475532 69 8
-1.5208943 1.4207398 -0.48049545 73 1
-1.5336984 1.4332029 0.11001018 73 9
-1.5314718 1.4321238 -0.40756804 75 2
-1.5379405 1.4386761 0.18424724 68 10
-1.5288868 1.4307063 -0.33164111 69 3
-1.5272101 1.4301382 0.25690058 62 11
-1.5240635 1.4276901 -0.25641313 74 4
-1.5290786 1.4333913 0.331954 66 12
-1.5303688 1.4351019 -0.18355 60 5
-1.5320842 1.4372139 0.40833127 63 13
-1.5260745 1.4325781 -0.10969618 80 6
-1.5256928 1.4327208 0.48319483 65 14
-1.5330135 1.4406033 -0.036719862 64 7
-1.5258025 1.4343277 0.56111974 65 15
-1.5099028 1.4258486 -0.55646098 69 0
-1.5147007 1.4308795 0.036370814 72 8
-1.5112699 1.4281372 -0.48004553 77 1
-1.5164601 1.4340448 0.10938216 71 9
-1.506084 1.4247299 -0.40298861 73 2
-1.5151576 1.4338154 0.18250412 68 10
-1.5131978 1.4329629 -0.33007675 68 3
-1.5146246 1.4348149 0.25616938 73 11
-1.5126827 1.4339781 -0.25592566 71 4
-1.5007305 1.4231443 0.32757381 65 12
-1.5076231 1.4301803 -0.18180689 57 5
-1.5206813 1.4435766 0.40756804 63 13
-1.5134535 1.4372176 -0.10938216 76 6
-1.5058633 1.4310097 0.47959566 63 14
-1.5116476 1.4370086 -0.036405724 69 7
-1.5049165 1.4311105 0.55646098 69 15
-1.4835056 1.417174 -0.54973167 68 0
-1.4977601 1.4312903 0.036161385 74 8
-1.4900926 1.4249592 -0.47599643 73 1
-1.4995161 1.4344712 0.10875413 71 9
-1.4890934 1.4254969 -0.40069893 73 2
-1.4864768 1.4234887 0.18006375 67 10
-1.4946845 1.4323497 -0.3278867 76 3
-1.5017848 1.4396561 0.25543818 66 11
-1.4958024 1.4344224 -0.2544632 72 4
