# .PCD v0.7 - Point Cloud Data file format
VERSION 0.7
FIELDS x y z intensity ring
SIZE 4 4 4 4 2
TYPE F F F F U
COUNT 1 1 1 1 1
WIDTH 1185
HEIGHT 1
VIEWPOINT 0 0 0 1 0 0 0
POINTS 1185
DATA ascii
0.70877206 -0.76086324 0.018150503 40 8
0.66402113 -0.7130729 -0.22495104 45 1
0.7333619 -0.78808725 0.056418166 28 9
0.67928803 -0.73023379 -0.19386195 46 2
0.80712694 -0.86826807 0.10371533 52 10
0.67771888 -0.7293123 -0.15768595 42 3
0.81992722 -0.88296467 0.1479494 80 11
0.68471986 -0.73762041 -0.12357552 32 4
0.81157655 -0.87458396 0.18897286 75 12
0.68820381 -0.74215251 -0.088550232 42 5
0.81548345 -0.87971759 0.23316859 83 13
0.69628268 -0.75165367 -0.053696696 39 6
0.82223791 -0.88793629 0.27938923 78 14
0.70896131 -0.76614481 -0.018220313 29 7
0.80677998 -0.87215877 0.31834742 85 15
0.65299958 -0.70913744 -0.25830141 49 0
0.70424449 -0.76505578 0.018150503 41 8
0.65701425 -0.71424747 -0.22405125 42 1
0.70028251 -0.76155144 0.054220054 33 9
0.67481458 -0.7343697 -0.19386195 46 2
0.7251339 -0.78940636 0.093779579 43 10
0.66937095 -0.7289561 -0.15674736 43 3
0.75427735 -0.82199639 0.13698116 45 11
0.66959572 -0.72996771 -0.12162561 36 4
0.74896508 -0.81677938 0.1755195 48 12
0.68109572 -0.74328554 -0.088201612 42 5
0.76648736 -0.83676732 0.2205752 49 13
0.67967302 -0.74251306 -0.052754648 40 6
0.7722258 -0.84391862 0.26409253 56 14
0.7018376 -0.76726443 -0.018150503 35 7
0.79507333 -0.8698014 0.31575924 78 15
0.64370286 -0.70717221 -0.25623086 49 0
0.69713479 -0.76614118 0.018080693 40 8
0.65551168 -0.72090322 -0.22495104 45 1
0.69319791 -0.76261634 0.054010712 30 9
0.66133356 -0.72807151 -0.19119063 48 2
0.70852107 -0.78029442 0.092210777 46 10
0.66383362 -0.73133665 -0.15643448 42 3
0.72685784 -0.80133134 0.13283759 52 11
0.66271335 -0.73087108 -0.12113813 40 4
0.72169536 -0.79619825 0.17020072 50 12
0.67145318 -0.7412892 -0.087504365 42 5
0.73793596 -0.81497264 0.21370608 55 13
0.67404515 -0.74493438 -0.052649979 38 6
0.7320568 -0.809331 0.25194517 47 14
0.67594808 -0.74756181 -0.017592026 22 7
0.72658753 -0.80413026 0.29039499 47 15
0.62928188 -0.69937909 -0.25208977 50 0
0.68736148 -0.76419652 0.017941073 41 8
0.64613795 -0.71886945 -0.22315145 43 1
0.69012898 -0.76808178 0.054115385 28 9
0.65975255 -0.73479003 -0.19195385 47 2
0.69203752 -0.77101767 0.090641975 45 10
0.65552521 -0.73085141 -0.15549587 40 3
0.72620606 -0.80993843 0.13356881 51 11
0.65439063 -0.7303555 -0.12040692 42 4
0.71168619 -0.794581 0.16894925 50 12
0.65654027 -0.73326945 -0.086109869 45 5
0.7252323 -0.81055862 0.21141638 56 13
0.67240644 -0.75178158 -0.052859318 31 6
0.72724122 -0.8136608 0.25194517 47 14
0.6701678 -0.75006866 -0.017557122 26 7
0.71279651 -0.79834038 0.28677151 52 15
0.62371457 -0.70176613 -0.25157213 52 0
0.67205513 -0.75642192 0.017661836 40 8
0.63668442 -0.7168628 -0.22135183 42 1
0.68409842 -0.7707895 0.054010712 33 9
0.65016884 -0.73281777 -0.19042738 44 2
0.67806244 -0.76479483 0.089421786 42 10
0.64331543 -0.72585857 -0.15361866 47 3
0.71598035 -0.80841517 0.13259386 50 11
0.65399277 -0.73868465 -0.12113813 40 4
0.70695853 -0.79879022 0.16894925 50 12
0.64676905 -0.73129654 -0.085412621 52 5
0.71130705 -0.80455208 0.20874506 58 13
0.6651569 -0.75288141 -0.052649979 32 6
0.72498012 -0.82088333 0.25284499 50 14
0.66557342 -0.75414848 -0.017557122 28 7
0.7080465 -0.8025561 0.28677151 54 15
0.61444014 -0.69964874 -0.24950157 52 0
0.65963888 -0.75138003 0.017452406 45 8
0.62458265 -0.71194929 -0.21865243 44 1
0.67424488 -0.76882893 0.053592026 30 9
0.64568019 -0.73677576 -0.19042738 43 2
0.67219925 -0.76730645 0.08924748 35 10
0.63106251 -0.72085696 -0.15174145 56 3
0.7007122 -0.80069888 0.13064395 50 11
0.64162761 -0.7337001 -0.1196757 48 4
0.70076573 -0.80160671 0.16863638 49 12
0.63979602 -0.73212117 -0.085064009 55 5
0.7012136 -0.80296707 0.20721859 58 13
0.64491582 -0.73875999 -0.051393915 42 6
0.70970374 -0.81354856 0.24924576 51 14
0.65977222 -0.75657761 -0.017522216 22 7
0.70566911 -0.80977923 0.28780681 55 15
0.61521834 -0.70922637 -0.25157213 51 0
0.66027701 -0.76143861 0.017592026 41 8
0.61268824 -0.70680791 -0.21595301 44 1
0.65515131 -0.75632733 0.052440636 28 9
0.63101542 -0.72872108 -0.18737444 43 2
0.66228467 -0.76537168 0.088550232 35 10
0.63194305 -0.73056501 -0.15299292 48 3
0.69061524 -0.79895717 0.12966898 50 11
0.62947518 -0.72848248 -0.11821327 59 4
0.68954027 -0.79827654 0.16707203 51 12
0.63791543 -0.73903221 -0.085412621 52 5
0.69643635 -0.80711406 0.20721859 60 13
0.64039093 -0.74268585 -0.051393915 42 6
0.70231897 -0.81479359 0.24834597 53 14
0.64861304 -0.75301808 -0.017347692 25 7
0.69454879 -0.8066327 0.2852186 57 15
0.60345566 -0.70406383 -0.2484663 51 0
0.64663941 -0.75471359 0.017347692 43 8
0.61089402 -0.71349806 -0.21685281 44 1
0.65065163 -0.76020175 0.052440636 28 9
0.61519301 -0.71902698 -0.18393987 50 2
0.65514183 -0.76625967 0.088201612 33 10
0.62759674 -0.73430216 -0.15299292 47 3
0.68858123 -0.80594009 0.13015647 48 11
0.6225633 -0.72918558 -0.11772579 60 4
0.67324966 -0.78883147 0.16425622 55 12
0.62834728 -0.73674095 -0.084715381 63 5
0.69036084 -0.80973858 0.20683697 62 13
0.6361028 -0.74636185 -0.051393915 38 6
0.69494444 -0.81597966 0.24744615 53 14
0.63389468 -0.74456048 -0.017068453 33 7
0.68738729 -0.80767727 0.28418332 53 15
0.58690327 -0.69278759 -0.24328992 58 0
0.64486653 -0.76147747 0.017417502 41 8
0.60438132 -0.71392405 -0.21595301 44 1
0.64884228 -0.76698619 0.052649979 28 9
0.61230922 -0.72405732 -0.18432149 51 2
0.63541675 -0.75164801 0.086109869 46 10
0.61570853 -0.72885054 -0.1511157 54 3
0.67880481 -0.80382603 0.12918152 48 11
0.61079812 -0.72355002 -0.11626337 57 4
0.66487396 -0.78816622 0.16331759 53 12
0.61651623 -0.73110002 -0.083669513 66 5
0.68456227 -0.81208038 0.20645534 61 13
0.63050669 -0.74848562 -0.051289242 43 6
0.68786591 -0.81686693 0.24654636 54 14
0.62715089 -0.74502945 -0.016998643 39 7
0.67028826 -0.7968393 0.27900696 53 15
0.58550584 -0.69901657 -0.24432519 57 0
0.61621189 -0.7359364 0.016754311 57 8
0.59525722 -0.71141487 -0.21415339 49 1
0.63557863 -0.75987399 0.051917274 37 9
0.60561067 -0.72455925 -0.18355827 50 2
0.63107705 -0.75529528 0.086109869 46 10
0.60137206 -0.72025412 -0.14861277 60 3
0.67161983 -0.80467427 0.12869403 48 11
0.61297935 -0.73467708 -0.11748206 60 4
0.66032344 -0.79198253 0.16331759 53 12
0.60464156 -0.72545582 -0.082623646 75 5
0.66465408 -0.79802573 0.20187594 61 13
0.62362951 -0.74903482 -0.051079899 43 6
0.68813616 -0.8268066 0.24834597 55 14
0.62016147 -0.74566299 -0.016928835 38 7
0.66074759 -0.79474461 0.27693638 53 15
0.58627415 -0.70843196 -0.24639574 52 0
0.61693257 -0.74574322 0.016893929 53 8
0.581092 -0.70291901 -0.21055418 51 1
0.62978601 -0.76209259 0.051812604 39 9
0.60130048 -0.72814023 -0.18355827 51 2
0.62785232 -0.76056337 0.086284183 42 10
0.59960151 -0.72685766 -0.1492385 60 3
0.65925533 -0.7994563 0.1272316 48 11
0.59977019 -0.72757936 -0.11577588 67 4
0.65812409 -0.79893649 0.16394335 52 12
0.600326 -0.72903103 -0.082623646 75 5
0.6586594 -0.80043983 0.20149431 63 13
0.60521692 -0.73575521 -0.049928509 65 6
0.67826688 -0.82485461 0.24654636 54 14
0.61826473 -0.75241995 -0.016998643 35 7
0.66092467 -0.80462283 0.27900696 53 15
0.57594585 -0.70442057 -0.24380755 63 0
0.61123085 -0.74784267 0.016859025 50 8
0.57197976 -0.70031762 -0.20875457 48 1
0.61388433 -0.75189251 0.050870556 55 9
0.59200466 -0.72561079 -0.1820318 50 2
0.61703175 -0.75655574 0.085412621 50 10
0.59028584 -0.72427797 -0.14798702 62 3
0.65199214 -0.8002764 0.12674414 48 11
0.58654147 -0.72045356 -0.11406972 65 4
0.64838398 -0.79669923 0.16269186 53 12
0.59598929 -0.7325806 -0.082623646 73 5
0.65513635 -0.80585766 0.20187594 61 13
0.59832096 -0.73623377 -0.049719162 72 6
0.65847355 -0.81082964 0.24114752 57 14
0.60622686 -0.74676049 -0.016789215 42 7
0.65478015 -0.80714494 0.27848932 54 15
0.56920487 -0.70491952 -0.24277227 60 0
0.60790718 -0.75311857 0.016893929 60 8
0.57270885 -0.70976585 -0.21055418 50 1
0.60802621 -0.75407356 0.050765883 57 9
0.57906407 -0.71841127 -0.17936046 56 2
0.60739964 -0.7541042 0.084715381 55 10
0.58597749 -0.72776806 -0.14798702 58 3
0.64460254 -0.80115104 0.12625664 50 11
0.58349997 -0.72546828 -0.11431345 70 4
0.63250488 -0.78667736 0.15987605 57 12
0.5902552 -0.73465437 -0.082449332 72 5
0.64788401 -0.80666971 0.20111269 61 13
0.59756279 -0.74454778 -0.050033178 61 6
0.6536504 -0.81472278 0.24114752 55 14
0.58664376 -0.73172748 -0.016370358 56 7
0.64756268 -0.80800122 0.27745402 54 15
0.55537403 -0.69620323 -0.23863117 60 0
0.5971936 -0.74889541 0.016719406 54 8
0.56593359 -0.71020299 -0.20965438 50 1
0.60105199 -0.75454396 0.050556537 61 9
0.56732857 -0.71271896 -0.17707075 56 2
0.59298944 -0.74522293 0.083320886 65 10
0.57906204 -0.72824156 -0.14736128 58 3
0.63983703 -0.80496204 0.12625664 48 11
0.57535356 -0.72435594 -0.11358224 84 4
0.62768757 -0.79052645 0.15987605 59 12
0.57597601 -0.72565961 -0.081054844 78 5
0.63684428 -0.80292147 0.19920459 63 13
0.59065235 -0.74495059 -0.049823835 65 6
0.64624101 -0.81564564 0.24024773 55 14
0.58353293 -0.73676342 -0.016405262 55 7
0.62822795 -0.79376411 0.27124238 50 15
0.54871982 -0.69654775 -0.23759589 60 0
0.58394754 -0.74153215 0.016475072 74 8
0.55809313 -0.70895517 -0.20830467 48 1
0.60013616 -0.76291084 0.050870556 55 9
0.56794345 -0.72224605 -0.17859723 55 2
0.58719516 -0.7472648 0.08314658 73 10
0.56496859 -0.71923757 -0.14485833 70 3
0.63490796 -0.80885559 0.12625664 49 11
0.57349586 -0.7308808 -0.11406972 65 4
0.61810893 -0.78802025 0.15862457 60 12
0.56784517 -0.72446018 -0.080531903 73 5
0.61874908 -0.78968734 0.1950068 61 13
0.58239686 -0.7438271 -0.04950982 73 6
0.64138961 -0.81946611 0.24024773 55 14
0.57902139 -0.74031425 -0.016405262 50 7
0.62469643 -0.79899991 0.27176002 55 15
0.54101753 -0.69521791 -0.23604298 58 0
0.57585341 -0.74024922 0.016370358 65 8
0.54537982 -0.70158124 -0.20515537 49 1
0.59559834 -0.76645863 0.050870556 55 9
0.56352097 -0.72570187 -0.17859723 55 2
0.58275044 -0.75073612 0.08314658 71 10
0.55826861 -0.7194562 -0.1442326 72 3
0.62036574 -0.80005902 0.12430675 46 11
0.56185186 -0.72485727 -0.11260728 68 4
0.62068123 -0.80104303 0.16050178 57 12
0.56109661 -0.7246663 -0.080183282 71 5
0.61645538 -0.79645014 0.19577004 62 13
0.56819725 -0.73463118 -0.048672445 80 6
0.63413149 -0.82017434 0.23934792 56 14
0.57230222 -0.7404725 -0.016335452 57 7
0.61167818 -0.79199034 0.26813653 54 15
0.53700441 -0.69832236 -0.23604298 58 0
0.57036173 -0.74196821 0.016335452 65 8
0.53420728 -0.69543821 -0.20245595 56 1
0.56684583 -0.73819423 0.048777115 93 9
0.55335611 -0.72114772 -0.17668915 56 2
0.58084214 -0.75724179 0.0834952 66 10
0.55411559 -0.72265965 -0.1442326 72 3
0.6060887 -0.79101294 0.12235683 48 11
0.54318279 -0.7091701 -0.10968242 87 4
0.61365557 -0.80146778 0.15987605 59 12
0.55207092 -0.72155654 -0.079486035 86 5
0.61305052 -0.80154693 0.19615164 63 13
0.55667973 -0.72837037 -0.048044413 87 6
0.61520028 -0.80523092 0.23394911 56 14
0.56924158 -0.74534559 -0.016370358 51 7
0.61062264 -0.8001073 0.26968947 50 15
0.52946705 -0.69678915 -0.23449005 56 0
0.5684979 -0.74842572 0.016405262 65 8
0.53254938 -0.70160788 -0.20335576 56 1
0.57224292 -0.75417542 0.049614493 78 9
0.54089034 -0.71337193 -0.17401782 56 2
0.56684321 -0.74787194 0.082100704 80 10
0.54636538 -0.72111571 -0.14329399 64 3
0.60391921 -0.79765582 0.1228443 51 11
0.53908932 -0.71228683 -0.10968242 77 4
0.59697318 -0.7893399 0.15674736 60 12
0.55271202 -0.73108149 -0.080183282 68 5
0.60487288 -0.80036575 0.1950068 61 13
0.55247545 -0.73156446 -0.048044413 87 6
0.60820395 -0.80565012 0.23304929 59 14
0.55156159 -0.73115009 -0.015986405 63 7
0.61065686 -0.80978072 0.27176002 55 15
0.51604569 -0.68755823 -0.23034896 61 0
0.55684608 -0.74218881 0.016195834 69 8
0.52849966 -0.70466346 -0.20335576 57 1
0.56536186 -0.75436139 0.04940515 81 9
0.53206408 -0.71019059 -0.17249134 61 2
0.5553605 -0.74155581 0.081054844 90 10
0.53970951 -0.72118211 -0.14266825 61 3
0.60407156 -0.80747902 0.12381926 49 11
0.53723019 -0.71865314 -0.11016989 78 4
0.59005201 -0.78960037 0.15612161 53 12
0.52941418 -0.70871353 -0.077394299 93 5
0.59893835 -0.80236781 0.1946252 63 13
0.54705834 -0.73313367 -0.04793974 84 6
0.60341251 -0.80924499 0.23304929 56 14
0.54256099 -0.72790146 -0.015846785 67 7
0.588669 -0.79004776 0.26399544 50 15
0.50747412 -0.68431205 -0.2282784 56 0
0.54303527 -0.73253226 0.015916595 77 8
0.51850891 -0.69995773 -0.20110625 50 1
0.5681392 -0.76723576 0.050033178 70 9
0.52900815 -0.71491349 -0.17287296 53 2
0.55095023 -0.7448383 0.081054844 92 10
0.52615124 -0.71157199 -0.1401653 78 3
0.59455055 -0.80466318 0.1228443 48 11
0.53072333 -0.71854192 -0.10968242 77 4
0.58535606 -0.7930879 0.15612161 56 12
0.52519929 -0.71184266 -0.077394299 93 5
0.58148873 -0.7884239 0.19042738 53 13
0.5438832 -0.73797482 -0.048044413 87 6
0.6010533 -0.81584501 0.23394911 56 14
0.53586096 -0.72788745 -0.015776975 70 7
0.58626044 -0.79663885 0.26503071 52 15
0.50682902 -0.69198698 -0.22983132 63 0
0.53631616 -0.7325148 0.015846785 78 8
0.50641233 -0.69192463 -0.19795693 46 1
0.55650216 -0.76092088 0.04940515 81 9
0.52835792 -0.72270316 -0.17401782 42 2
0.54077315 -0.73995614 0.080183282 97 10
0.51842445 -0.70989579 -0.13922669 59 3
0.57820171 -0.79204106 0.12040692 58 11
0.51943082 -0.71205628 -0.10821999 83 4
0.58077854 -0.79644608 0.15612161 56 12
0.52461153 -0.71968585 -0.077917233 74 5
0.5744881 -0.78868687 0.18966414 52 13
0.5290429 -0.72656381 -0.047102366 94 6
0.59161526 -0.81309426 0.2321495 56 14
0.52930731 -0.72772735 -0.015707165 72 7
0.57371002 -0.78906471 0.26140723 47 15
0.49895549 -0.69054788 -0.2282784 67 0
0.53157467 -0.73596287 0.015846785 78 8
0.49839067 -0.69052756 -0.19660722 50 1
0.53521639 -0.7418229 0.04793974 100 9
0.51207167 -0.71026611 -0.17020163 52 2
0.53701866 -0.74514282 0.080357596 95 10
0.51613879 -0.71643436 -0.13985243 56 3
0.57061648 -0.79263628 0.11991944 66 11
0.50670511 -0.70411694 -0.10651381 81 4
0.5710091 -0.79376584 0.15487014 55 12
0.51401234 -0.71506041 -0.077045679 78 5
0.57167429 -0.79556894 0.19042738 52 13
0.51838797 -0.72194481 -0.046579007 96 6
0.57726145 -0.8042326 0.22855027 57 14
0.52226532 -0.7278809 -0.015637357 73 7
0.57859516 -0.80698234 0.26606598 52 15
0.4871133 -0.68240368 -0.22465494 65 0
0.52848852 -0.7406401 0.015881689 76 8
0.48987988 -0.68703985 -0.19480762 52 1
0.52513868 -0.73676115 0.047416382 100 9
0.49886081 -0.70041078 -0.16714869 64 2
0.52925134 -0.74335432 0.079834662 89 10
0.50971299 -0.71617645 -0.13922669 71 3
0.5683428 -0.79914498 0.12040692 61 11
0.49919072 -0.70217001 -0.1057826 94 4
0.56185061 -0.7906006 0.15361866 64 12
0.50411737 -0.70988673 -0.076174118 74 5
0.57162851 -0.80525196 0.19195385 61 13
0.5119102 -0.72166044 -0.046369661 100 6
0.56585664 -0.79800612 0.22585087 56 14
0.51112604 -0.72108823 -0.015427927 80 7
0.56165504 -0.79296035 0.26037198 49 15
0.479835 -0.68046153 -0.22310203 68 0
0.51960552 -0.73713386 0.015742071 93 8
0.48928133 -0.69462949 -0.19615732 57 1
0.52318633 -0.74303955 0.047625724 100 9
0.49255899 -0.70006114 -0.16638546 66 2
0.51349914 -0.73009348 0.078091539 100 10
0.49636737 -0.70625925 -0.13672373 86 3
0.56487173 -0.80402952 0.12065066 56 11
0.49843696 -0.70999396 -0.10651381 100 4
0.55261028 -0.78745294 0.15236719 63 12
0.48616889 -0.69329047 -0.074082382 100 5
0.56007844 -0.79898411 0.18966414 53 13
0.50418121 -0.71977788 -0.046055648 100 6
0.56558228 -0.8077352 0.22765048 54 14
0.50454462 -0.72083217 -0.015358118 90 7
0.55693966 -0.79627925 0.26037198 55 15
0.47125477 -0.67703772 -0.22103147 67 0
0.50824028 -0.7304455 0.015532642 97 8
0.4805792 -0.69120532 -0.19435771 55 1
0.52547681 -0.75606197 0.048253756 100 9
0.48827344 -0.70305681 -0.16638546 66 2
0.51016593 -0.73485327 0.078265861 100 10
0.48979193 -0.7060321 -0.136098 88 3
0.55429363 -0.79930884 0.11943197 72 11
0.49295995 -0.71139383 -0.10627007 100 4
0.55003947 -0.7940616 0.15299292 63 12
0.47738907 -0.68969446 -0.073385134 100 5
0.54960191 -0.7943182 0.18775606 54 13
0.50659001 -0.73270124 -0.046683677 100 6
0.56063759 -0.81117499 0.22765048 56 14
0.49558526 -0.71731985 -0.015218498 87 7
0.54987007 -0.79648703 0.25933671 50 15
0.47257993 -0.68786514 -0.22361965 72 0
0.50037253 -0.72859138 0.015427927 100 8
0.46973196 -0.6844874 -0.1916583 62 1
0.50955027 -0.74278808 0.047207039 100 9
0.4839696 -0.70602643 -0.16638546 67 2
0.50228882 -0.73302531 0.077742919 100 10
0.47666314 -0.6958884 -0.13359505 96 3
0.54043084 -0.78957492 0.11748206 86 11
0.48424602 -0.7077533 -0.10529512 100 4
0.54517853 -0.79740679 0.15299292 64 12
0.48340571 -0.7073195 -0.074953936 100 5
0.54155624 -0.79270244 0.18661121 59 13
0.49547672 -0.7257973 -0.046055648 100 6
0.55142033 -0.80804896 0.22585087 56 14
0.50133353 -0.73520303 -0.015532642 93 7
0.54622209 -0.80133218 0.25985435 52 15
0.46957424 -0.69225615 -0.22413731 70 0
0.49828479 -0.73485798 0.015497738 100 8
0.46140832 -0.68072915 -0.18985869 63 1
0.49841332 -0.73587674 0.046579007 100 9
0.47549248 -0.70229936 -0.16485898 67 2
0.49805859 -0.73590606 0.077742919 100 10
0.47695178 -0.70524997 -0.13484652 92 3
0.53365076 -0.78938532 0.11699458 96 11
0.47114804 -0.69745487 -0.10334522 100 4
0.54057682 -0.80053353 0.15299292 68 12
0.48712677 -0.72165161 -0.076174118 97 5
0.5368427 -0.79590207 0.18661121 62 13
0.4756563 -0.70545506 -0.044590238 100 6
0.53790456 -0.79837769 0.22225164 45 14
0.48703727 -0.72315085 -0.015218498 87 7
0.54051882 -0.80286247 0.25933671 48 15
0.4569774 -0.68210948 -0.2199962 75 0
0.49070591 -0.73273104 0.015393022 96 8
0.45952827 -0.68669426 -0.1907585 63 1
0.4919458 -0.73541498 0.046369661 100 9
0.46913457 -0.70184422 -0.16409574 63 2
0.48704144 -0.72890902 0.076697052 100 10
0.47617346 -0.71291327 -0.13578513 80 3
0.5256511 -0.78758478 0.11626337 91 11
0.45941132 -0.68859774 -0.10163904 100 4
0.52499688 -0.78719956 0.14986424 68 12
0.48062608 -0.72121364 -0.075825498 100 5
0.53769207 -0.80715042 0.1885193 54 13
0.48916921 -0.73486674 -0.046264991 100 6
0.52897912 -0.79497296 0.22045203 53 14
0.47400427 -0.71262395 -0.014939261 96 7
0.53681427 -0.80766463 0.25985435 52 15
0.44877732 -0.67828566 -0.21792565 75 0
0.48647755 -0.73554516 0.015393022 100 8
0.45771447 -0.69258118 -0.1916583 60 1
0.48550016 -0.73490328 0.046160318 100 9
0.46075812 -0.69798082 -0.16256927 73 2
0.47625104 -0.72172427 0.075651184 100 10
0.46335796 -0.70245242 -0.13328218 91 3
0.52766097 -0.8005439 0.11772579 85 11
0.45762196 -0.69454759 -0.10212652 100 4
0.51828122 -0.78691083 0.1492385 68 12
0.4633204 -0.70399833 -0.073733754 100 5
0.52763921 -0.80203313 0.18661121 61 13
0.47724873 -0.7259894 -0.045532286 100 6
0.52867246 -0.80452085 0.22225164 45 14
0.46989202 -0.71534216 -0.014939261 96 7
0.51731277 -0.78813273 0.25260741 86 15
0.44169313 -0.67600745 -0.21637273 71 0
0.47676566 -0.72996372 0.015218498 100 8
0.45158777 -0.69194204 -0.1907585 63 1
0.48125935 -0.73768735 0.046160318 100 9
0.46101895 -0.70720154 -0.16409574 67 2
0.4699108 -0.72111684 0.075302556 100 10
0.45271406 -0.69525737 -0.13140497 91 3
0.5197928 -0.79857862 0.11699458 92 11
0.45673937 -0.70224321 -0.10285773 100 4
0.51790941 -0.796597 0.15048997 72 12
0.45600086 -0.70164347 -0.073210821 100 5
0.51431644 -0.79197794 0.18355827 61 13
0.46979693 -0.72370028 -0.04521827 100 6
0.52388901 -0.80764383 0.22225164 43 14
0.46781471 -0.72147357 -0.015009069 93 7
0.51262683 -0.7911886 0.25260741 91 15
0.44069585 -0.68356401 -0.21792565 77 0
0.46904796 -0.7278198 0.015113784 100 8
0.43903086 -0.68150371 -0.18715927 60 1
0.46809575 -0.72717828 0.045322943 100 9
0.45256484 -0.70332092 -0.16256927 72 2
0.46872965 -0.72900146 0.075825498 100 10
0.44858035 -0.69793159 -0.13140497 91 3
0.50417769 -0.78503603 0.11455719 100 11
0.44827443 -0.69825923 -0.10188278 100 4
0.50890559 -0.79300642 0.1492385 72 12
0.45170629 -0.70441586 -0.073210821 100 5
0.50748879 -0.79171026 0.18279503 70 13
0.45351771 -0.70805645 -0.04406688 100 6
0.51593488 -0.80581486 0.22090194 55 14
0.46663174 -0.72937125 -0.015113784 90 7
0.5100044 -0.79747152 0.25364268 85 15
0.43663168 -0.68616712 -0.21792565 75 0
0.4593544 -0.72215402 0.014939261 100 8
0.43067831 -0.6775943 -0.18535967 62 1
0.45948809 -0.72320008 0.044904254 100 9
0.4482601 -0.70607233 -0.16256927 73 2
0.46226034 -0.72840559 0.07547687 100 10
0.44231451 -0.69724512 -0.13077922 96 3
0.50163603 -0.79136723 0.11504468 100 11
0.43987304 -0.6941998 -0.10090782 100 4
0.50419092 -0.79601234 0.1492385 70 12
0.4496493 -0.71045095 -0.073559448 100 5
0.50278181 -0.79470783 0.18279503 71 13
0.44930816 -0.71073514 -0.04406688 100 6
0.50281578 -0.79568326 0.21730271 55 14
0.45281166 -0.71683097 -0.014799641 100 7
0.50629437 -0.80211759 0.25416031 85 15
0.43061697 -0.68539894 -0.21689038 77 0
0.45944154 -0.73156136 0.015078879 100 8
0.43091187 -0.68666613 -0.18715927 61 1
0.45743784 -0.72921836 0.045113601 100 9
0.43897256 -0.70032507 -0.16066119 75 2
0.45805728 -0.73105603 0.07547687 100 10
0.44248557 -0.70647758 -0.13203071 87 3
0.49496341 -0.79087794 0.11455719 100 11
0.43481475 -0.6950388 -0.10066409 100 4
0.49331358 -0.78885388 0.14736128 76 12
0.43921509 -0.70289111 -0.072513573 100 5
0.50339669 -0.80591601 0.18470311 63 13
0.45260966 -0.72517145 -0.044799585 100 6
0.49513012 -0.79360604 0.21595301 61 14
0.44338453 -0.71094334 -0.014625117 100 7
0.49655741 -0.79682267 0.25157213 96 15
0.41647935 -0.67145079 -0.21171398 74 0
0.45205933 -0.72909683 0.014974165 100 8
0.42797616 -0.69079322 -0.18760918 65 1
0.45428184 -0.73353887 0.04521827 100 9
0.42976621 -0.69449443 -0.15875308 75 2
0.44859856 -0.72520995 0.074605316 100 10
0.4382855 -0.70909089 -0.13203071 89 3
0.48727 -0.78864926 0.11382597 100 11
0.43080431 -0.6975317 -0.10066409 100 4
0.48447409 -0.78504324 0.1461098 83 12
0.42574498 -0.69014794 -0.070944771 100 5
0.49345458 -0.8005327 0.18279503 71 13
0.44213912 -0.71756387 -0.044171553 100 6
0.49259502 -0.79976308 0.21685281 61 14
0.4339174 -0.70504683 -0.014450593 100 7
0.4868986 -0.79144222 0.24898393 100 15
0.41147909 -0.67226267 -0.21119635 71 0
0.44146293 -0.72153205 0.014764735 100 8
0.4228529 -0.69165802 -0.18715927 63 1
0.44992095 -0.73622173 0.04521827 100 9
0.43075332 -0.7054103 -0.16066119 75 2
0.440135 -0.72105682 0.073908068 100 10
0.42584118 -0.69818765 -0.12952776 94 3
0.47224784 -0.77457768 0.11138859 81 11
0.433889 -0.71194148 -0.10237025 100 4
0.47672477 -0.78284281 0.1451712 78 12
0.42992988 -0.70627713 -0.072339267 100 5
0.48053351 -0.7900281 0.17974208 71 13
0.43787327 -0.72017491 -0.044171553 100 6
0.48986477 -0.80600274 0.21775262 51 14
0.43802983 -0.7212829 -0.014729831 100 7
0.48219353 -0.7943176 0.24898393 100 15
0.41047874 -0.67965358 -0.21274926 74 0
0.43820706 -0.72585094 0.014799641 100 8
0.41068843 -0.68080598 -0.18356006 68 1
0.44760695 -0.74229938 0.045427613 100 9
0.42757297 -0.70963556 -0.16104279 73 2
0.44201609 -0.73389632 0.074953936 100 10
0.4197751 -0.69724405 -0.12890202 94 3
0.46048009 -0.76545924 0.10968242 100 11
0.42761064 -0.71110129 -0.10188278 100 4
0.47715789 -0.79412407 0.14673555 76 12
0.42162779 -0.70198399 -0.071642019 100 5
0.47900704 -0.79783225 0.18088694 73 13
0.42537224 -0.70905906 -0.043334179 100 6
0.43374196 -0.72386956 -0.014729831 100 7
0.47846416 -0.79882228 0.24950157 100 15
0.40742731 -0.68373698 -0.21326691 79 0
0.43286869 -0.72672051 0.014764735 100 8
0.40676048 -0.68316007 -0.18356006 67 1
0.43196118 -0.7260614 0.044276223 100 9
0.42247519 -0.71039909 -0.16066119 76 2
0.4337095 -0.72957945 0.074256696 100 10
0.41764781 -0.70311946 -0.12952776 92 3
0.44694245 -0.75273675 0.10748877 100 11
0.41933188 -0.70679736 -0.10090782 100 4
0.46451518 -0.78326666 0.1442326 78 12
0.42265767 -0.71297008 -0.072513573 100 5
0.46926141 -0.79221481 0.17897885 69 13
0.42128131 -0.71149725 -0.043334179 100 6
0.42244011 -0.71430707 -0.014485498 100 7
0.46992281 -0.79491282 0.24743101 99 15
0.40054461 -0.68107653 -0.21171398 77 0
0.42563564 -0.72403002 0.014660021 100 8
0.40763441 -0.69396329 -0.18580957 52 1
0.42777222 -0.72853726 0.044276223 100 9
0.40931091 -0.69765353 -0.15722662 69 2
0.42534077 -0.72526568 0.073559448 100 10
0.41147071 -0.70217681 -0.12890202 94 3
0.44146445 -0.75366288 0.10724504 100 11
0.41124207 -0.70234853 -0.099932872 100 4
0.4429011 -0.75702423 0.13891383 85 12
0.41238457 -0.70514643 -0.071467713 100 5
0.45266587 -0.77464479 0.17439944 77 13
0.41705179 -0.71398467 -0.043334179 100 6
0.46575525 -0.7976836 0.2132536 9 14
0.41517082 -0.71161968 -0.014380784 100 7
0.45546535 -0.78099942 0.24225464 100 15
0.39067942 -0.67341542 -0.20860817 75 0
0.4213317 -0.72654307 0.014660021 100 8
0.40057814 -0.69131166 -0.18445987 61 1
0.42143941 -0.72760636 0.04406688 100 9
0.4071306 -0.70346856 -0.15798986 69 2
0.41703868 -0.72087854 0.0728622 100 10
0.41421673 -0.71657765 -0.1310921 69 3
0.44095692 -0.76314455 0.10821999 100 11
0.40607417 -0.70305753 -0.099689126 94 4
0.43741366 -0.75792819 0.13860095 91 12
0.39823693 -0.690323 -0.06972459 100 5
0.44511977 -0.77221459 0.17325458 81 13
0.41679609 -0.723369 -0.043752864 100 6
0.40695095 -0.707138 -0.014241164 100 7
0.44215313 -0.76861751 0.23759589 100 15
0.38667646 -0.67572182 -0.20860817 74 0
0.41006267 -0.71687996 0.014415688 100 8
0.3926008 -0.68690896 -0.18266025 67 1
0.4230589 -0.74049956 0.044694912 100 9
0.40392229 -0.70757711 -0.15837148 37 2
0.41077867 -0.71987963 0.072513573 100 10
0.40323171 -0.70694035 -0.12890202 54 3
0.43248886 -0.75884914 0.10724504 100 11
0.40386027 -0.7089045 -0.10017661 100 4
0.43290836 -0.7605105 0.13860095 91 12
0.39511892 -0.69440567 -0.069898903 100 5
0.4377529 -0.76964587 0.17210972 86 13
0.40756205 -0.71714741 -0.043229505 100 6
0.44277963 -0.77943307 0.20695497 66 14
0.40570897 -0.71475768 -0.014345878 100 7
0.43663096 -0.76954752 0.23707826 100 15
0.38076082 -0.67463976 -0.20757288 75 0
0.406784 -0.72104234 0.014450593 100 8
0.38289455 -0.67897415 -0.17996083 70 1
0.41669634 -0.73951685 0.044485565 100 9
0.39598638 -0.70304942 -0.156845 47 2
0.40760314 -0.72396982 0.072687887 100 10
0.39709249 -0.70587736 -0.12827627 49 3
0.41935429 -0.74575484 0.10505138 100 11
0.39672932 -0.70609665 -0.099445395 100 4
0.43045563 -0.76643592 0.13922669 92 12
0.39696488 -0.70709389 -0.070944771 56 5
0.42645466 -0.76024407 0.16943841 97 13
0.39951754 -0.71251458 -0.042810816 100 6
0.43433666 -0.77524644 0.20515537 72 14
0.40549392 -0.72406143 -0.014485498 100 7
0.43219155 -0.77204949 0.23707826 100 15
0.38062805 -0.68357295 -0.20964344 75 0
0.40165195 -0.72162598 0.014415688 100 8
0.38075304 -0.68464053 -0.18086064 66 1
0.40466678 -0.72793937 0.043648191 100 9
0.38799423 -0.69852179 -0.15531853 82 2
0.40233272 -0.72463387 0.072513573 100 10
0.38618878 -0.69612974 -0.12608619 62 3
0.40721995 -0.73434186 0.10310147 100 11
0.38579768 -0.69628388 -0.09773922 100 4
0.42207158 -0.76206458 0.13797522 92 12
0.39469194 -0.71292323 -0.071293391 68 5
0.42763761 -0.7730689 0.1717281 97 13
0.39624888 -0.71662062 -0.04291549 100 6
0.42595908 -0.77098727 0.20335576 72 14
0.39828998 -0.72120345 -0.014380784 100 7
0.4284007 -0.77636659 0.23759589 100 15
0.37458637 -0.68249816 -0.20860817 74 0
0.40108353 -0.7310788 0.014555307 100 8
0.37574661 -0.68517917 -0.18041074 66 1
0.39829305 -0.72689462 0.043438848 100 9
0.38478541 -0.70253378 -0.15570015 73 2
0.39694223 -0.72533023 0.072339267 100 10
0.39058325 -0.71400642 -0.12890202 100 3
0.40748689 -0.74552524 0.10432017 100 11
0.38356265 -0.70204508 -0.098226704 100 4
0.41280806 -0.75588733 0.13641086 100 12
0.38364917 -0.70307833 -0.070073217 100 5
0.42210254 -0.77386945 0.17134649 94 13
0.38708511 -0.7102592 -0.042392131 100 6
0.4213765 -0.7735014 0.20335576 75 14
0.38622889 -0.70957208 -0.014101544 100 7
0.42563266 -0.78228897 0.23863117 100 15
0.36685205 -0.67791283 -0.2065376 82 0
0.39293256 -0.72641057 0.014415688 100 8
0.37618694 -0.69603354 -0.18266025 68 1
0.39871922 -0.73803145 0.043962207 100 9
0.38048673 -0.70487118 -0.15570015 69 2
0.38790062 -0.71890587 0.071467713 100 10
0.38340211 -0.71116263 -0.12796341 92 3
0.39740536 -0.73744518 0.10285773 100 11
0.37926695 -0.70437503 -0.098226704 100 4
0.40818286 -0.75839496 0.13641086 100 12
0.37569451 -0.69832426 -0.069375969 100 5
0.41736743 -0.77643347 0.17134649 94 13
0.39515299 -0.7354154 -0.043752864 100 6
0.41848716 -0.77949488 0.20425557 73 14
0.38106588 -0.7100895 -0.01406664 100 7
0.40806538 -0.76103884 0.23138423 45 15
0.36088595 -0.67673194 -0.20550233 82 0
0.38472527 -0.72173864 0.014276069 100 8
0.37205002 -0.69825357 -0.18266025 66 1
0.39889634 -0.74926811 0.044485565 100 9
0.37629727 -0.7071166 -0.15570015 61 2
0.38163111 -0.71774364 0.071119085 100 10
0.37639403 -0.70819223 -0.1270248 61 3
0.39475524 -0.74336541 0.10334522 100 11
0.38066477 -0.71713346 -0.099689126 73 4
0.40367532 -0.76080376 0.13641086 100 12
0.37328809 -0.70412672 -0.06972459 74 5
0.40355992 -0.76154906 0.1675303 100 13
0.38130748 -0.72016448 -0.042706143 100 6
0.41385421 -0.78196448 0.20425557 73 14
0.37765589 -0.71417177 -0.014101544 100 7
0.4044449 -0.76515478 0.23190187 44 15
0.35686383 -0.67886156 -0.20550233 82 0
0.37764516 -0.71869838 0.014171354 100 8
0.35962498 -0.68498468 -0.17861113 71 1
0.3888745 -0.74101096 0.043857537 100 9
0.37197074 -0.70940202 -0.15570015 69 2
0.38106489 -0.72705442 0.071816333 100 10
0.36943483 -0.70516407 -0.12608619 70 3
0.38297224 -0.73162508 0.1013953 100 11
0.36996043 -0.70706767 -0.097982958 71 4
0.400069 -0.76493627 0.13672373 99 12
0.36633492 -0.70103198 -0.069201656 61 5
0.40176061 -0.76915091 0.16867517 100 13
0.37610316 -0.72064382 -0.04260147 100 6
0.40650266 -0.77922326 0.20290586 68 14
0.37815928 -0.72520053 -0.014276069 100 7
0.4034678 -0.77439439 0.23397243 43 15
0.35294804 -0.68090564 -0.20550233 82 0
0.37441954 -0.722637 0.014206259 100 8
0.35746562 -0.69050574 -0.17951094 60 1
0.37725693 -0.72904766 0.043020159 100 9
0.36427209 -0.70455682 -0.15417367 71 2
0.37687105 -0.72923708 0.071816333 100 10
0.36083415 -0.69850492 -0.12452185 82 3
0.37693119 -0.73029071 0.10090782 100 11
0.36133105 -0.70036602 -0.096764266 100 4
0.39475137 -0.76547211 0.13641086 100 12
0.36685407 -0.71198589 -0.070073217 97 5
0.39822289 -0.77319753 0.16905677 96 13
0.3692047 -0.71747035 -0.042287458 100 6
0.39933383 -0.77635276 0.20155615 79 14
0.36848998 -0.7166962 -0.01406664 100 7
0.40164924 -0.78186041 0.23552534 100 15
0.34902039 -0.68292725 -0.20550233 81 0
0.36934146 -0.72300076 0.014171354 100 8
0.3543686 -0.69428885 -0.17996083 66 1
0.37123632 -0.72765023 0.042810816 12 9
0.35396686 -0.69439936 -0.15150236 87 2
0.37085566 -0.72784519 0.071467713 100 10
0.36205995 -0.71119612 -0.12639906 90 3
0.37722024 -0.74129558 0.10212652 100 11
0.35896799 -0.70603687 -0.097251743 78 4
0.38572726 -0.75899607 0.13484652 99 12
0.35913783 -0.70698166 -0.069375969 100 5
0.39362764 -0.77554697 0.16905677 96 13
0.36235538 -0.7142415 -0.041973442 100 6
0.39295769 -0.77523243 0.20065634 81 14
0.35971156 -0.70995122 -0.013892116 100 7
0.39002231 -0.77044147 0.23138423 39 15
0.34136766 -0.67814428 -0.20343177 84 0
0.3640193 -0.7234571 0.014136449 100 8
0.34849119 -0.69289768 -0.17906104 68 1
0.36678448 -0.72990435 0.042810816 100 9
0.35512727 -0.70701396 -0.15379207 86 2
0.36282796 -0.72297406 0.070770465 100 10
0.35163319 -0.70097238 -0.12420898 100 3
0.37446386 -0.7471354 0.102614 100 11
0.35210454 -0.70283014 -0.096520528 100 4
0.37679407 -0.75244015 0.13328218 100 12
0.35124654 -0.70203507 -0.068678722 100 5
0.38726228 -0.77435732 0.16829354 97 13
0.36244929 -0.72537476 -0.0424968 35 6
0.38922125 -0.77929407 0.20110625 78 14
0.35626093 -0.71392459 -0.01392702 100 7
0.37854525 -0.75891244 0.22724313 38 15
0.33562076 -0.67669672 -0.20239651 84 0
0.35350248 -0.71306318 0.013892116 100 8
0.345117 -0.69675976 -0.17951094 72 1
0.36776379 -0.74280745 0.043438848 100 9
0.35080177 -0.7091701 -0.15379207 84 2
0.35676521 -0.72154242 0.070421837 100 10
0.34659213 -0.70127577 -0.12389611 100 3
0.3700237 -0.74934435 0.102614 100 11
0.35319933 -0.71558762 -0.097982958 100 4
0.37756634 -0.76529187 0.13515939 100 12
0.34355077 -0.69695872 -0.067981474 100 5
0.37398326 -0.75903082 0.16447736 100 13
0.3563742 -0.72392899 -0.042287458 100 6
0.38372958 -0.77984142 0.20065634 79 14
0.35214311 -0.71596462 -0.01392702 100 7
0.37147909 -0.75594395 0.22569022 40 15
0.3325662 -0.68035406 -0.20291413 87 0
0.35290104 -0.72227424 0.014031734 100 8
0.33425921 -0.68472624 -0.17591172 71 1
0.35997602 -0.73773342 0.043020159 100 9
0.34843212 -0.71470821 -0.15455531 84 2
0.35434908 -0.72716731 0.070770465 100 10
0.34254733 -0.70326036 -0.12389611 100 3
0.35267189 -0.72468883 0.098957919 100 11
0.34559873 -0.7104696 -0.097008012 100 4
0.36969715 -0.76034784 0.13390793 100 12
0.34475455 -0.70967853 -0.069027349 100 5
0.37217802 -0.76647037 0.16562222 100 13
0.34609643 -0.71339083 -0.041554753 100 6
0.38093227 -0.78554553 0.20155615 81 14
0.35324693 -0.72877765 -0.014136449 100 7
0.3713291 -0.76676446 0.2282784 39 15
0.32864213 -0.68225825 -0.20291413 87 0
0.34439769 -0.71528614 0.013857211 100 8
0.32693088 -0.67961556 -0.17411213 74 1
0.35052803 -0.72899461 0.042392131 100 9
0.33920899 -0.70608526 -0.15226559 87 2
0.35015503 -0.72919619 0.070770465 100 10
0.34007701 -0.70884275 -0.12452185 100 3
0.34849215 -0.72670799 0.098957919 100 11
0.33279923 -0.69460565 -0.094570614 100 4
0.36432552 -0.76074654 0.13359505 100 12
0.33549976 -0.7008698 -0.067981474 100 5
0.36508209 -0.76335204 0.16447736 96 13
0.34025896 -0.71176851 -0.04134541 100 6
0.3695451 -0.7737245 0.19795693 81 14
0.34546998 -0.72364265 -0.01399683 100 7
0.36760423 -0.77069813 0.22879605 40 15
0.32446834 -0.68425304 -0.20291413 87 0
0.3468737 -0.73183256 0.014136449 100 8
0.32622951 -0.68858802 -0.17591172 74 1
0.34777731 -0.73473263 0.04260147 100 9
0.33501306 -0.70808572 -0.15226559 86 2
0.34569412 -0.73132151 0.070770465 100 10
0.33755246 -0.71442038 -0.12514758 100 3
0.3474361 -0.73600388 0.099932872 100 11
0.33036581 -0.70015889 -0.095058098 100 4
0.35643414 -0.75574857 0.13234358 100 12
0.33630782 -0.71372008 -0.069027349 100 5
0.36640149 -0.77793783 0.16714869 100 13
0.33760554 -0.71744806 -0.041554753 100 6
0.36328837 -0.77237689 0.19705713 93 14
0.33764106 -0.7185002 -0.013857211 100 7
0.36220303 -0.77111739 0.2282784 43 15
0.31713271 -0.67916471 -0.20084359 91 0
0.34083349 -0.73025393 0.01406664 100 8
0.32366425 -0.69410026 -0.17681152 74 1
0.34256747 -0.73497319 0.0424968 100 9
0.32570872 -0.69944054 -0.14997588 94 2
0.33462226 -0.71890968 0.069375969 100 10
0.33164057 -0.71282881 -0.12452185 100 3
0.34808287 -0.74885333 0.1013953 100 11
0.32787797 -0.70570755 -0.095545575 100 4
0.34944725 -0.75247556 0.13140497 100 12
0.32703522 -0.7048592 -0.067981474 100 5
0.35847485 -0.77297413 0.16562222 100 13
0.33502144 -0.72306323 -0.041764095 100 6
0.36033651 -0.77805579 0.19795693 79 14
0.32677695 -0.70591539 -0.013577973 100 7
0.35356602 -0.76448613 0.22569022 45 15
0.31240857 -0.67922485 -0.20032595 84 0
0.32659838 -0.71040225 0.013647783 100 8
0.31803441 -0.69241124 -0.17591172 75 1
0.33916205 -0.73874909 0.04260147 100 9
0.32167485 -0.70130485 -0.14997588 98 2
0.33047619 -0.72082496 0.069375969 100 10
0.32176891 -0.7021566 -0.12233177 100 3
0.33880582 -0.74001628 0.099932872 100 11
0.32546014 -0.7111944 -0.096033052 100 4
0.34592921 -0.75627214 0.13171785 100 12
0.32131398 -0.70310682 -0.067632854 100 5
0.34585986 -0.75716829 0.16180603 100 13
0.33085135 -0.72498083 -0.041764095 32 6
0.35908428 -0.78721023 0.19975655 79 14
0.32768324 -0.71870279 -0.013787401 100 7
0.34595376 -0.75947762 0.22361965 45 15
0.30450568 -0.67221433 -0.19773777 55 0
0.32662541 -0.72137982 0.013822306 100 8
0.31002536 -0.68535376 -0.17366222 72 1
0.33490148 -0.74069029 0.04260147 100 9
0.31924683 -0.70672429 -0.15073912 92 2
0.32795876 -0.7263481 0.06972459 100 10
0.31272301 -0.6932497 -0.12045455 100 3
0.33453813 -0.74195534 0.099932872 100 11
0.31960338 -0.70949334 -0.095545575 100 4
0.34549031 -0.76731765 0.13328218 100 12
0.31795329 -0.70681822 -0.067807168 100 5
0.34297079 -0.76278853 0.16256927 100 13
0.31917778 -0.71053433 -0.040822048 100 6
0.35281017 -0.78577167 0.19885674 85 14
0.32832524 -0.73158097 -0.01399683 100 7
0.34302169 -0.76504266 0.22465494 45 15
0.30118009 -0.67582643 -0.19825539 85 0
0.32058537 -0.71970832 0.013752497 100 8
0.29632518 -0.66587001 -0.16826339 40 1
0.32387698 -0.72812331 0.041764095 100 9
0.3149237 -0.70866126 -0.15073912 91 2
0.32513323 -0.73197961 0.070073217 100 10
0.31489238 -0.70959169 -0.1229575 100 3
0.32838973 -0.74035591 0.099445395 100 11
0.31124228 -0.70235801 -0.094326884 100 4
0.33999658 -0.76760763 0.1329693 100 12
0.3160485 -0.71421313 -0.068330102 100 5
0.33830482 -0.76486939 0.16256927 100 13
0.31644598 -0.71612459 -0.041031394 27 6
0.34170491 -0.7736513 0.19525751 93 14
0.31900454 -0.72259676 -0.013787401 100 7
0.33990115 -0.77065897 0.22569022 45 15
0.29704604 -0.67765367 -0.19825539 100 0
0.32180044 -0.73447442 0.01399683 100 8
0.29694065 -0.678379 -0.17096281 60 1
0.32102424 -0.73374778 0.041973442 100 9
0.29800805 -0.6817891 -0.14463322 46 2
0.31906047 -0.73030055 0.06972459 41 10
0.30909503 -0.70782721 -0.12233177 100 3
0.32068595 -0.73507017 0.098470435 100 11
0.3102428 -0.71147102 -0.095301837 100 4
0.33306789 -0.76417917 0.13203071 100 12
0.31100926 -0.71424937 -0.068155795 100 5
0.33454362 -0.76866353 0.16295089 100 13
0.31219083 -0.71798974 -0.041031394 100 6
0.33555439 -0.77209091 0.19435771 93 14
0.30993056 -0.71347237 -0.013577973 100 7
0.33378372 -0.76911807 0.22465494 47 15
0.28931132 -0.67048436 -0.19566721 100 0
0.31202132 -0.72346228 0.013752497 100 8
0.29842654 -0.69260567 -0.17411213 68 1
0.31679285 -0.73558456 0.041973442 12 9
0.29330042 -0.68169087 -0.14425161 65 2
0.30776492 -0.71565336 0.068155795 42 10
0.30423301 -0.70778084 -0.1220189 100 3
0.32349652 -0.75332123 0.10066409 100 11
0.30535689 -0.71142191 -0.095058098 100 4
0.32398811 -0.75519258 0.13015349 100 12
0.29747176 -0.69405341 -0.066064052 40 5
0.33011082 -0.77057767 0.16295089 100 13
0.31040791 -0.72528446 -0.04134541 100 6
0.33263487 -0.77759409 0.19525751 90 14
0.3042438 -0.71156824 -0.013508162 100 7
0.32403642 -0.75859183 0.22103147 42 15
0.28846541 -0.67925221 -0.19773777 100 0
0.30472383 -0.71788448 0.013612877 100 8
0.29595408 -0.69790119 -0.17501192 82 1
0.31566855 -0.74475253 0.042392131 100 9
0.29396254 -0.69421589 -0.14654131 70 2
0.30519107 -0.72108364 0.068504408 42 10
0.29695034 -0.70229608 -0.12076741 100 3
0.31142479 -0.73688686 0.098226704 100 11
0.29970947 -0.70951152 -0.094570614 100 4
0.31950101 -0.75710183 0.13015349 100 12
0.29656669 -0.7030983 -0.0667613 40 5
0.31943336 -0.75804955 0.15989795 100 13
0.30622551 -0.7270602 -0.04134541 100 6
0.33268741 -0.79027355 0.19795693 82 14
0.3038922 -0.72257757 -0.013682687 100 7
0.31741604 -0.75510281 0.21947856 41 15
0.2851741 -0.68273461 -0.19825539 96 0
0.30045858 -0.71968007 0.013612877 100 8
0.28955695 -0.69424945 -0.17366222 91 1
0.31201217 -0.74845606 0.0424968 100 9
0.2875734 -0.69051099 -0.14539646 84 2
0.30243808 -0.72656077 0.068853036 42 10
0.28898525 -0.69492608 -0.11920308 100 3
0.30399895 -0.73138964 0.097251743 100 11
0.2985402 -0.71861035 -0.095545575 100 4
0.31651714 -0.76263344 0.13077922 100 12
0.29162574 -0.70300549 -0.066586986 100 5
0.3149294 -0.75993174 0.15989795 100 13
0.29579106 -0.71410275 -0.040508036 100 6
0.32351938 -0.7814306 0.19525751 93 14
0.30112749 -0.72806406 -0.013752497 100 7
0.31366763 -0.75875837 0.2199962 42 15
0.28552169 -0.69513673 -0.20136122 100 0
0.296942 -0.72330028 0.013647783 100 8
0.28099543 -0.68513751 -0.17096281 87 1
0.29923216 -0.72996622 0.04134541 11 9
0.28421491 -0.69402218 -0.14577809 88 2
0.3003855 -0.73387444 0.069375969 100 10
0.28722191 -0.70206386 -0.12014168 100 3
0.29664943 -0.7258305 0.09627679 100 11
0.28601307 -0.70015478 -0.092864446 100 4
0.31049326 -0.76084036 0.13015349 100 12
0.28970644 -0.71025807 -0.06710992 39 5
0.31277078 -0.76718688 0.16104279 100 13
0.29004169 -0.71214592 -0.040298689 28 6
0.31593764 -0.77611691 0.1934579 95 14
0.2945419 -0.72428101 -0.013647783 100 7
0.31206933 -0.76776499 0.22206675 39 15
0.27849808 -0.68965358 -0.19929068 96 0
0.29339319 -0.72690392 0.013682687 100 8
0.28141904 -0.69758785 -0.17366222 85 1
0.29489526 -0.73172903 0.04134541 11 9
0.2743445 -0.68107909 -0.14272514 93 2
0.29466552 -0.73189592 0.069027349 39 10
0.28378788 -0.70558864 -0.12045455 90 3
0.29986817 -0.74594545 0.09871418 100 11
0.28407258 -0.70736599 -0.093595661 100 4
0.30463436 -0.75894964 0.12952776 100 12
0.28412706 -0.70821661 -0.0667613 39 5
0.31040391 -0.77449638 0.16218765 100 13
0.29113394 -0.72678292 -0.041031394 100 6
0.31132662 -0.777978 0.1934579 97 14
0.28590971 -0.71482527 -0.013438353 100 7
0.31194484 -0.7803126 0.22517258 43 15
0.27166927 -0.68406433 -0.19722012 88 0
0.28772616 -0.72486442 0.013612877 100 8
0.27727455 -0.69924551 -0.17366222 87 1
0.29361948 -0.7408424 0.041764095 100 9
0.27535713 -0.69547272 -0.14539646 95 2
0.28665167 -0.72436857 0.068155795 43 10
0.28032207 -0.70909721 -0.12076741 90 3
0.29689533 -0.75140417 0.099201649 100 11
0.28363949 -0.71822202 -0.09481436 100 4
0.29867536 -0.75706899 0.12890202 100 12
0.27553436 -0.69876915 -0.065715425 39 5
0.30292431 -0.76901823 0.16066119 100 13
0.28754771 -0.73035622 -0.041136064 28 6
0.30684066 -0.77975821 0.1934579 97 14
0.28166285 -0.71650928 -0.013438353 100 7
0.2988314 -0.76057339 0.21896091 43 15
0.26549804 -0.68026549 -0.19566721 100 0
0.27615252 -0.70792937 0.013263829 100 8
0.27170506 -0.69724715 -0.17276241 88 1
0.29066774 -0.7462939 0.041973442 100 9
0.27193719 -0.69892418 -0.14577809 93 2
0.28090382 -0.72234297 0.067807168 42 10
0.2696715 -0.69417632 -0.11795159 100 3
0.28955722 -0.74575078 0.098226704 100 11
0.28009069 -0.72174317 -0.095058098 100 4
0.29560572 -0.76251161 0.12952776 100 12
0.27354243 -0.7059654 -0.066238366 43 5
0.28985143 -0.74883157 0.15608177 100 13
0.28104675 -0.72646147 -0.040822048 100 6
0.30220801 -0.78156537 0.1934579 97 14
0.28317034 -0.73309106 -0.013717591 100 7
0.29222551 -0.75692666 0.217408 40 15
0.26353168 -0.6872403 -0.19722012 97 0
0.27480933 -0.71702456 0.013403447 100 8
0.2633822 -0.68792766 -0.170063 87 1
0.28694794 -0.7498709 0.042078111 100 9
0.27128994 -0.70969468 -0.14768617 96 2
0.27803472 -0.72771949 0.068155795 42 10
0.26778296 -0.70125425 -0.11889021 100 3
0.28300422 -0.74189168 0.097495481 100 11
0.27155975 -0.71226341 -0.093595661 30 4
0.29107562 -0.76425236 0.12952776 100 12
0.26863962 -0.70571411 -0.066064052 42 5
0.28832617 -0.7578283 0.15760824 100 13
0.2738927 -0.72064853 -0.040403362 29 6
0.2975648 -0.78334492 0.1934579 97 14
0.2745584 -0.72354078 -0.013508162 100 7
0.28772873 -0.75864744 0.217408 40 15
0.26217279 -0.69602352 -0.19929068 93 0
0.27195874 -0.72238564 0.013473257 40 8
0.26078823 -0.69308102 -0.17096281 87 1
0.27476308 -0.73099542 0.040926725 12 9
0.27065018 -0.72043461 -0.14959426 100 2
0.2759397 -0.73490453 0.068678722 47 10
0.26500449 -0.70653003 -0.11951595 64 3
0.27593929 -0.73607427 0.096520528 100 11
0.26732823 -0.71386236 -0.093595661 31 4
0.28528425 -0.76221603 0.12890202 100 12
0.26457056 -0.70724964 -0.066064052 40 5
0.28244954 -0.75584781 0.156845 100 13
0.26973754 -0.7222141 -0.040403362 29 6
0.28882402 -0.77414209 0.1907585 97 14
0.27318138 -0.7326048 -0.013647783 100 7
0.28875169 -0.77477384 0.22154912 47 15
0.25681856 -0.6938985 -0.19825539 100 0
0.27126241 -0.73331749 0.013647783 100 8
0.25937253 -0.70192808 -0.17276241 93 1
0.27331617 -0.74006003 0.04134541 12 9
0.25957507 -0.70360899 -0.14577809 100 2
0.27019531 -0.73279029 0.068330102 47 10
0.26161376 -0.70989817 -0.11982881 66 3
0.27225229 -0.73956162 0.096764266 100 11
0.26115602 -0.7098012 -0.092864446 100 4
0.27666748 -0.75277078 0.1270248 100 12
0.26105592 -0.71067744 -0.066238366 100 5
0.28418118 -0.77404881 0.16027956 100 13
0.26751012 -0.72942746 -0.040717378 100 6
0.28301927 -0.77213329 0.18985869 100 14
0.26264125 -0.71731299 -0.013333639 100 7
0.27950174 -0.76377439 0.21792565 43 15
0.25005725 -0.68814743 -0.19618484 93 0
0.26758862 -0.73679388 0.013682687 100 8
0.25532553 -0.70341027 -0.17276241 87 1
0.26755807 -0.73791367 0.041136064 12 9
0.25819382 -0.71247548 -0.14730455 100 2
0.26189938 -0.72309446 0.067284234 41 10
0.26075682 -0.72072572 -0.12139316 100 3
0.26933837 -0.74485099 0.097251743 100 11
0.25693941 -0.71133846 -0.092864446 100 4
0.27232715 -0.75435185 0.1270248 100 12
0.25222504 -0.69905025 -0.065018184 39 5
0.27958283 -0.77572155 0.16027956 100 13
0.26262769 -0.72907698 -0.040612705 27 6
0.2797519 -0.77746654 0.1907585 100 14
0.26121235 -0.72634059 -0.013473257 100 7
0.27117756 -0.75446355 0.21481982 39 15
0.24455161 -0.68602276 -0.19514956 97 0
0.25972727 -0.72899616 0.013508162 39 8
0.24959411 -0.70132881 -0.17186262 85 1
0.26773083 -0.75270659 0.041868769 100 9
0.2517404 -0.70853376 -0.14615969 98 2
0.25868428 -0.72848088 0.067632854 41 10
0.25106379 -0.7074123 -0.11889021 100 3
0.26664284 -0.75214159 0.097982958 100 11
0.25524119 -0.72037917 -0.0938394 100 4
0.26758209 -0.75604796 0.1270248 100 12
0.25114992 -0.71001285 -0.065889739 43 5
0.26698649 -0.75520307 0.15570015 100 13
0.25937176 -0.73447931 -0.040822048 27 6
0.27629459 -0.7828362 0.1916583 95 14
0.25597861 -0.72608161 -0.013438353 100 7
0.26450571 -0.75068635 0.21326691 37 15
0.24175203 -0.69110882 -0.19618484 100 0
0.25341693 -0.7248615 0.013403447 100 8
0.23976539 -0.6861977 -0.16781349 82 1
0.26062679 -0.74673939 0.041450083 11 9
0.2489486 -0.71367937 -0.14692293 98 2
0.25514013 -0.73184001 0.067807168 42 10
0.24816088 -0.71262068 -0.11951595 100 3
0.25969642 -0.74616575 0.097008012 100 11
0.24705072 -0.71063101 -0.09237697 100 4
0.2645199 -0.76130849 0.12765054 100 12
0.24770997 -0.71332979 -0.066064052 39 5
0.26507398 -0.76419348 0.15722662 100 13
0.24924938 -0.71897727 -0.039880004 28 6
0.26909366 -0.77709609 0.18985869 100 14
0.25113845 -0.72565413 -0.013403447 100 7
0.26586118 -0.76862884 0.21792565 39 15
0.23839499 -0.69431698 -0.19670248 84 0
0.24793975 -0.72252625 0.013333639 100 8
0.236321 -0.68945187 -0.16826339 85 1
0.25243801 -0.73689115 0.040822048 11 9
0.24598034 -0.7188592 -0.14768617 96 2
0.25272706 -0.73899674 0.068330102 41 10
0.24265055 -0.71034211 -0.11889021 100 3
0.25398129 -0.74393642 0.096520528 100 11
0.24423584 -0.71579957 -0.092864446 100 4
0.25999752 -0.76286483 0.12765054 100 12
0.24283025 -0.71290118 -0.065889739 100 5
0.25926968 -0.76203579 0.15646338 100 13
0.24497843 -0.72044373 -0.039880004 25 6
0.25959718 -0.76387227 0.18625948 100 14
0.2481135 -0.73091877 -0.013473257 100 7
0.26439866 -0.77934015 0.22051384 40 15
0.23303764 -0.69205767 -0.19566721 91 0
0.24875033 -0.73914683 0.013612877 100 8
0.23533027 -0.70007789 -0.1705129 81 1
0.24742465 -0.73648298 0.040717378 11 9
0.23546454 -0.70169359 -0.14386998 100 2
0.24833725 -0.7404834 0.068330102 41 10
0.24219586 -0.72300798 -0.12076741 100 3
0.25208306 -0.75295997 0.097495481 100 11
0.23620468 -0.70594132 -0.091402017 100 4
0.25296155 -0.75690019 0.12639906 100 12
0.24048917 -0.71999884 -0.066412672 39 5
0.25971383 -0.77845955 0.15951632 100 13
0.24259429 -0.72756881 -0.040194016 26 6
0.25505963 -0.76539934 0.18625948 100 14
0.23998259 -0.72099411 -0.013263829 100 7
0.25489104 -0.7662307 0.21637273 41 15
0.22650431 -0.68609047 -0.19359665 100 0
0.24185364 -0.73301393 0.013473257 100 8
0.23117173 -0.70146203 -0.1705129 81 1
0.24492444 -0.74362922 0.041031394 100 9
0.23375048 -0.71053827 -0.14539646 97 2
0.23958282 -0.72869503 0.06710992 42 10
0.23741087 -0.72251433 -0.12045455 100 3
0.24699147 -0.75255656 0.097251743 100 11
0.23696098 -0.72242022 -0.093351923 100 4
0.24846549 -0.75838792 0.12639906 100 12
0.22939262 -0.70058507 -0.064495243 100 5
0.25095183 -0.76688129 0.156845 100 13
0.24199548 -0.74038619 -0.040822048 100 6
0.25293371 -0.77430898 0.18805908 100 14
0.23569992 -0.72240549 -0.013263829 100 7
0.24375188 -0.74752629 0.21067871 39 15
0.22064482 -0.68190843 -0.19204374 95 0
0.23565367 -0.72872812 0.013368543 100 8
0.22712785 -0.70278186 -0.1705129 82 1
0.24173437 -0.74887103 0.041240737 100 9
0.23146261 -0.71747798 -0.14654131 100 2
