# .PCD v0.7 - Point Cloud Data file format
VERSION 0.7
FIELDS x y z intensity ring
SIZE 4 4 4 4 2
TYPE F F F F U
COUNT 1 1 1 1 1
WIDTH 200
HEIGHT 1
VIEWPOINT 0 0 0 1 0 0 0
POINTS 200
DATA ascii
2.6619935 0.21090546 0.13994636 6 9
2.7628706 0.21744221 0.24246727 42 10
2.6951034 0.19697073 0.14162111 6 9
2.6236036 0.1774794 0.045899831 1 8
2.704196 0.181509 0.14203981 6 9
2.7672768 0.18428773 0.24264158 3 10
2.5986917 0.1598544 0.045446068 34 8
2.7172153 0.16571721 0.14266783 6 9
2.784261 0.16834305 0.24403608 3 10
2.6275473 0.14598343 0.045934737 56 8
2.7101741 0.14914949 0.14224915 6 9
2.7852111 0.15181638 0.24403608 3 10
2.6403277 0.13144372 0.046144161 62 8
2.7189674 0.13393161 0.14266783 20 9
2.793999 0.13616118 0.24473332 4 10
2.6490319 0.11658706 0.046283782 62 8
2.7356567 0.11896446 0.1435052 59 9
2.8046894 0.12049528 0.24560487 23 10
2.553498 0.10389886 -0.044608355 1 7
2.6456983 0.10025125 0.046213973 60 8
2.7463119 0.10262379 0.14402856 58 9
2.8013911 0.10321326 0.24525626 54 10
2.586061 0.089403771 -0.045166828 44 7
2.6542411 0.084804788 0.046353593 55 8
2.7468724 0.086324811 0.14402856 64 9
2.8278432 0.087387435 0.24752231 59 10
2.5925426 0.074228913 -0.045271542 6 7
2.6606948 0.069208488 0.046458308 50 8
2.7473364 0.070022792 0.14402856 63 9
2.8402503 0.071398929 0.24856818 50 10
2.5729356 0.058837052 -0.044922493 6 7
2.6670473 0.054004032 0.046563022 9 8
2.7516878 0.054276615 0.14423791 56 9
2.8446081 0.054619543 0.2489168 49 10
2.5912337 0.043873593 -0.045236636 27 7
2.6753254 0.037823845 0.046702638 34 8
2.8369195 0.037137281 0.24821955 42 10
2.538358 0.028355177 -0.13303801 34 6
2.5934532 0.028065287 -0.045271542 59 7
2.6735065 0.021465536 0.046667732 53 8
2.7721174 0.020805804 0.14528462 26 9
2.5404809 0.012858631 -0.13314268 8 6
2.5975757 0.012242163 -0.04534135 52 7
2.685586 0.0051564616 0.046877164 58 8
2.7901683 0.0038964199 0.14622667 58 9
2.8570855 0.0024939904 0.24996266 5 10
2.5305259 -0.0026499613 -0.13261932 6 6
2.6195986 -0.0036576516 -0.045725305 54 7
2.7015722 -0.0094303042 0.047156405 58 8
2.7821593 -0.011168363 0.14580798 51 9
2.8670189 -0.013010208 0.25083423 6 10
2.5344689 -0.016367113 -0.13282867 6 6
2.7134573 -0.026521752 0.047365833 53 8
2.7880259 -0.02871055 0.14612199 52 9
2.8907881 -0.031282559 0.25292596 27 10
2.4883142 -0.029967649 -0.21771504 39 5
2.5502985 -0.032049682 -0.13366605 6 6
2.6033807 -0.034080122 -0.045446068 5 7
2.8017774 -0.045970351 0.14685471 45 9
2.8945272 -0.049008142 0.25327459 55 10
2.4721479 -0.044877935 -0.21632054 56 5
2.5720212 -0.04803814 -0.13481744 5 6
2.6151197 -0.050212868 -0.045655496 4 7
2.7129409 -0.059196584 0.047365833 5 8
3.0046201 -0.069758408 0.3690204 11 11
2.4758322 -0.059210934 -0.21666917 49 5
2.565712 -0.062704653 -0.13450342 6 6
2.6347778 -0.065772988 -0.046004545 5 7
2.7245486 -0.075151756 0.047575258 5 8
2.8230093 -0.079346888 0.1480061 5 9
2.9037139 -0.083136871 0.25414613 4 10
3.0200272 -0.088049658 0.37097031 43 11
2.4913692 -0.074377321 -0.21806367 51 5
2.567291 -0.07798934 -0.13460809 35 6
2.630358 -0.080824219 -0.045934737 4 7
2.7360623 -0.091242589 0.04778469 4 8
2.8245018 -0.095672458 0.14811078 4 9
2.9430113 -0.10122941 0.25763237 4 10
3.0135186 -0.10523438 0.37023908 26 11
2.4461129 -0.085847601 -0.30052981 6 4
2.5028465 -0.089150809 -0.21910954 51 5
2.5767789 -0.0931352 -0.13513145 62 6
2.6558275 -0.096920624 -0.046388499 7 7
2.7594693 -0.10793749 0.048203547 6 8
2.8418651 -0.11265072 0.14905281 5 9
2.9344163 -0.11785833 0.25693512 4 10
3.0525312 -0.12420323 0.37511387 7 11
2.4495273 -0.10052431 -0.30101728 60 4
2.5062726 -0.10372938 -0.21945816 50 5
2.5901685 -0.10856021 -0.13586415 57 6
2.6472137 -0.11233967 -0.046248876 39 7
2.7547631 -0.12461127 0.048133738 36 8
2.8491046 -0.13037369 0.14947151 7 9
2.9495637 -0.13651828 0.25832963 7 10
3.0616302 -0.14331174 0.37633255 5 11
2.458802 -0.11552408 -0.30223599 8 4
2.4976318 -0.11865912 -0.21876092 48 5
2.5954418 -0.12466801 -0.13617818 54 6
2.6764383 -0.12996319 -0.04677245 51 7
2.7599664 -0.14126272 0.048238453 56 8
2.8662322 -0.14820643 0.15041354 49 9
2.9506912 -0.15412277 0.25850391 47 10
2.3908536 -0.12571776 -0.37919718 30 3
2.4639974 -0.13085762 -0.30296722 5 4
2.5167794 -0.13454176 -0.22050403 48 5
2.6006393 -0.14039037 -0.13649218 52 6
2.6776171 -0.14595197 -0.046807356 49 7
2.7650414 -0.15846293 0.048343167 50 8
2.8892007 -0.16709621 0.15166962 62 9
2.9556618 -0.17249276 0.25902686 49 10
2.3979537 -0.14036481 -0.38044867 100 3
2.4790306 -0.14641318 -0.30491713 5 4
2.607708 -0.15675342 -0.13691087 58 6
2.6886516 -0.163032 -0.047016785 50 7
2.7940493 -0.17578666 0.048866738 52 8
2.8742692 -0.18234466 0.1509369 54 9
2.9745355 -0.19026937 0.26076996 45 10
2.4049904 -0.15468074 -0.38170013 34 3
2.4622989 -0.15966126 -0.30296722 6 4
2.5349157 -0.16525851 -0.22224714 5 5
2.699671 -0.17883869 -0.047226213 50 7
2.7889335 -0.19257568 0.048796929 51 8
2.8890414 -0.20100808 0.15177429 53 9
2.9812677 -0.20899342 0.26146722 45 10
2.4672484 -0.17469053 -0.30369842 5 4
2.5378335 -0.18102376 -0.22259577 5 5
2.6216338 -0.18838096 -0.13774826 7 6
2.6905503 -0.19474915 -0.047086593 27 7
2.7877419 -0.20912206 0.048796929 16 8
2.8977559 -0.21890059 0.15229765 51 9
2.9819617 -0.22683196 0.26164153 36 10
2.4879069 -0.19143403 -0.30637956 5 4
2.5466468 -0.19684803 -0.22346732 5 5
2.6423731 -0.20563923 -0.13889964 32 6
2.7072895 -0.21211745 -0.047400735 41 7
2.8103299 -0.22808857 0.049215786 35 8
2.4966187 -0.20701426 -0.30759826 35 4
2.5473824 -0.21256652 -0.22364163 31 5
2.6569896 -0.22311363 -0.13973701 57 6
2.721884 -0.22999826 -0.047679976 51 7
2.8149035 -0.24528208 0.049320504 48 8
2.9167955 -0.25569949 0.15344904 13 9
2.505233 -0.22270463 -0.30881694 67 4
2.5599675 -0.22892135 -0.22486182 46 5
2.6297591 -0.23655039 -0.13837628 53 6
2.7364039 -0.2475877 -0.047959212 49 7
2.8372912 -0.26420653 0.049739357 55 8
2.9231808 -0.2737484 0.15386772 47 9
2.4920099 -0.23644195 -0.30735451 57 4
2.6581752 -0.25454849 -0.13994636 56 6
2.7428942 -0.26411068 -0.048098832 49 7
2.8397024 -0.2809374 0.049809169 52 8
2.9334805 -0.29176614 0.15449576 51 9
2.5043881 -0.25262016 -0.30906066 39 4
2.5828393 -0.26189983 -0.22712786 5 5
2.7373002 -0.27997562 -0.048029024 47 7
2.8399222 -0.29848784 0.049844075 41 8
2.9495194 -0.31156847 0.1554378 51 9
2.5324059 -0.27108315 -0.31271678 10 4
2.5851531 -0.27809867 -0.22747649 5 5
2.6687672 -0.2885071 -0.14067906 5 6
2.5913758 -0.2943337 -0.22817372 5 5
2.6789143 -0.30569735 -0.14130709 4 6
2.7515557 -0.3154462 -0.048343167 2 7
2.8520105 -0.33452961 0.050123312 3 8
2.6015077 -0.31067154 -0.2292196 5 5
2.6850414 -0.32207313 -0.14172579 4 6
2.7635903 -0.33296308 -0.048587501 2 7
2.8758376 -0.3541275 0.050577074 4 8
2.6134565 -0.32783949 -0.23043977 8 5
2.6949725 -0.33949849 -0.1423538 3 6
2.7853723 -0.35236827 -0.049006358 3 7
2.887568 -0.37297985 0.050821409 4 8
2.6411567 -0.34677699 -0.23305444 66 5
2.7028728 -0.35631984 -0.14287716 34 6
2.7753673 -0.36735538 -0.048866738 5 7
2.8972619 -0.39121026 0.051030833 29 8
2.6094444 -0.3583774 -0.23043977 51 5
2.7204964 -0.37508059 -0.14392389 50 6
2.7870042 -0.38573724 -0.049111072 41 7
2.6289003 -0.37742534 -0.2323572 44 5
2.7240851 -0.39254665 -0.14423791 50 6
2.8261569 -0.40876606 -0.049844075 55 7
2.6384373 -0.39478785 -0.23340309 43 5
2.7256579 -0.40929785 -0.14444725 50 6
2.8177495 -0.42463553 -0.049739357 52 7
2.6518693 -0.41242701 -0.23479758 46 5
2.7311487 -0.42622149 -0.14486594 47 6
2.8271108 -0.44271371 -0.049948789 50 7
2.6591346 -0.43020961 -0.23566914 18 5
2.754123 -0.44705728 -0.14622667 13 6
2.828301 -0.46061805 -0.050018597 19 7
2.6485975 -0.4451243 -0.23497188 49 5
2.7631576 -0.46586511 -0.14685471 53 6
2.8293779 -0.47855338 -0.050088406 10 7
2.6674197 -0.46505955 -0.2368893 29 5
2.7700973 -0.48445585 -0.14737807 54 6
2.7711918 -0.50111312 -0.14758742 54 6
2.7799487 -0.51975107 -0.14821544 52 6
2.7925978 -0.53878057 -0.14905281 54 6
